0.36698317527770996 -0.7057579159736633 -0.544823408126831
-0.582152783870697 -0.5359190106391907 0.07967022061347961
0.5703814029693604 -0.674624502658844 -0.4176318943500519
0.5235039591789246 0.3957582712173462 -0.3653801381587982
0.2502831518650055 0.3957582712173462 -0.050621528178453445
0.18549470603466034 -0.6383377313613892 -0.544823408126831
-0.30461081862449646 0.3532749116420746 0.9999989867210388
0.3295729458332062 0.3957582712173462 -0.28115078806877136
0.658206582069397 -0.19974860548973083 0.2602037489414215
-0.7101119756698608 0.2986636757850647 0.19899104535579681
-0.2824331521987915 0.3957582712173462 0.9818759560585022
0.4944371283054352 0.26090365648269653 -0.544823408126831
-0.2504027485847473 0.3957582712173462 -0.00036005955189466476
-0.27445217967033386 -0.41407620906829834 -0.544823408126831
-0.05658513680100441 0.20988130569458008 0.4482556879520416
-0.2081225961446762 0.3957582712173462 -0.1758749932050705
-0.5482338070869446 0.20988130569458008 -0.08705085515975952
0.7356393337249756 -0.5550453066825867 0.21377338469028473
0.16154998540878296 0.3957582712173462 -0.13151362538337708
0.45484569668769836 -0.3441420793533325 -0.39282283186912537
-0.3265887200832367 -0.5820716023445129 -0.544823408126831
0.1114032119512558 0.20988130569458008 0.8798732161521912
-0.0714600533246994 0.23085181415081024 0.9999989867210388
-0.5176956057548523 -0.6408593058586121 -0.39282283186912537
-0.6324192881584167 -0.6295490264892578 -0.3293042778968811
0.5703814029693604 -0.512803852558136 -0.42881500720977783
0.14451198279857635 -0.7195034623146057 -0.4715825319290161
0.5703814029693604 0.25879472494125366 -0.4694144129753113
-0.31977027654647827 -0.45274266600608826 -0.39282283186912537
-0.5649700164794922 -0.08074487000703812 -0.4929511547088623
0.5558575391769409 0.3957582712173462 0.5370581150054932
-0.6230800747871399 -0.03925358131527901 0.2602037489414215
0.5703814029693604 0.2544413208961487 -0.14254871010780334
0.17220069468021393 0.20988130569458008 0.691291093826294
0.19716806709766388 0.27826258540153503 0.9999989867210388
-0.04090004786849022 0.3957582712173462 -0.2626691460609436
0.4769975543022156 0.3957582712173462 0.37299221754074097
-0.6072259545326233 -0.6295490264892578 -0.3369367718696594
0.7193160057067871 -0.5359190106391907 -0.09411763399839401
-0.3209966719150543 0.20988130569458008 0.4844554364681244
-0.40744367241859436 0.3957582712173462 0.6465006470680237
0.1075531467795372 0.3957582712173462 0.24220050871372223
-0.5614796280860901 -0.003879726631566882 -0.39282283186912537
-0.3488592207431793 -0.531252384185791 -0.544823408126831
0.28248029947280884 -0.35574349761009216 -0.544823408126831
-0.5499723553657532 0.3957582712173462 0.14872026443481445
-0.5650621056556702 -0.5359190106391907 -0.48664015531539917
-0.050888530910015106 0.20988130569458008 0.1319737583398819
0.5217525362968445 0.021446432918310165 -0.544823408126831
-0.5623895525932312 -0.5673320293426514 -0.03031342290341854
0.7287703156471252 0.3957582712173462 0.20554830133914948
0.1683436930179596 0.20988130569458008 0.9562875628471375
0.6154710054397583 -0.6295490264892578 -0.13330017030239105
-0.5623895525932312 -0.05785951390862465 0.24639743566513062
0.1734887659549713 0.20988130569458008 0.4237198829650879
0.22512508928775787 0.26181337237358093 -0.544823408126831
0.3260805308818817 -0.024278922006487846 -0.544823408126831
-0.19813983142375946 0.3957582712173462 0.9215201735496521
0.6386250257492065 -0.6295490264892578 0.07640274614095688
-0.14735497534275055 0.3957582712173462 0.452600359916687
-0.5309740900993347 0.3957582712173462 -0.14607761800289154
0.0744432732462883 -0.44616013765335083 -0.544823408126831
-0.12126477807760239 0.3957582712173462 -0.41993221640586853
-0.34343013167381287 0.1534966677427292 -0.544823408126831
0.044886913150548935 0.20988130569458008 0.948395848274231
0.11830853670835495 0.028760600835084915 -0.39282283186912537
0.3038023114204407 0.3957582712173462 -0.293545126914978
0.5875381231307983 -0.18604953587055206 0.2602037489414215
0.2853887379169464 -0.07576350122690201 -0.39282283186912537
-0.05228562653064728 -0.5168424844741821 -0.544823408126831
0.7356393337249756 -0.08621309697628021 0.2517232596874237
0.5768083333969116 -0.10951004922389984 0.19899104535579681
-0.3330410122871399 0.3957582712173462 -0.12128613144159317
0.05935841053724289 0.3957582712173462 0.7434167861938477
-0.5649700164794922 0.25027185678482056 0.3290216326713562
-0.2580665051937103 0.3957582712173462 0.1383488029241562
-0.7219830751419067 -0.09580065310001373 0.23059608042240143
0.43440768122673035 0.3957582712173462 0.31702089309692383
0.5722993612289429 -0.5359190106391907 -0.3785739243030548
-0.7219830751419067 -0.6038808822631836 0.03071412816643715
-0.0016557700000703335 0.20988130569458008 0.5054518580436707
0.09851071983575821 0.3957582712173462 0.6825737357139587
0.2566927373409271 0.20988130569458008 0.03984430804848671
0.5656248927116394 0.3726893961429596 -0.544823408126831
-0.6837193965911865 -0.5325570106506348 0.2602037489414215
-0.3449633717536926 0.3957582712173462 0.6438006162643433
-0.6506537795066833 0.19244304299354553 0.19899104535579681
-0.5649700164794922 0.3504682779312134 0.5690400004386902
0.2400803416967392 -0.33849412202835083 -0.544823408126831
0.3978612720966339 0.3957582712173462 -0.09027757495641708
-0.5321441888809204 0.13376295566558838 -0.544823408126831
0.5703814029693604 0.36465561389923096 -0.3839658498764038
-0.2808470129966736 0.3238287568092346 0.9999989867210388
0.5703814029693604 0.24147973954677582 0.7399946451187134
-0.14206883311271667 0.15716397762298584 -0.544823408126831
-0.6393565535545349 -0.6295490264892578 -0.3518558442592621
-0.20325006544589996 0.16301798820495605 -0.39282283186912537
-0.34698915481567383 0.3957582712173462 0.7467590570449829
0.7303580641746521 -0.5480215549468994 0.1088944748044014
0.47626352310180664 -0.7195034623146057 -0.4725281894207001
0.5703814029693604 0.31759512424468994 0.052201151847839355
-0.5392757058143616 0.05566197261214256 -0.544823408126831
0.6471592783927917 -0.5359190106391907 0.142011821269989
-0.5623895525932312 -0.5452244877815247 -0.2985818684101105
0.10174943506717682 -0.06939560174942017 -0.39282283186912537
-0.5649700164794922 -0.09683561325073242 -0.43490028381347656
-0.13834013044834137 0.20988130569458008 0.7893940806388855
0.5703814029693604 0.0232556089758873 -0.4808507263660431
0.37636038661003113 0.20988130569458008 -0.12318424880504608
-0.2623139023780823 -0.24506841599941254 -0.544823408126831
0.42588526010513306 -0.14360442757606506 -0.544823408126831
-0.5649700164794922 0.32685965299606323 0.2981192469596863
-0.5629008412361145 0.20988130569458008 -0.14507915079593658
0.3093893229961395 0.20988130569458008 0.31282344460487366
0.45016422867774963 0.20988130569458008 0.36076393723487854
-0.48618245124816895 0.3957582712173462 0.7379721999168396
0.11197327077388763 0.3957582712173462 -0.3560619652271271
-0.24019399285316467 0.3957582712173462 -0.4741053879261017
-0.5649700164794922 0.3310714662075043 0.8009641170501709
-0.13937076926231384 0.20988130569458008 0.618990957736969
-0.11250248551368713 0.20988130569458008 -0.08353420346975327
-0.23837105929851532 0.3957582712173462 0.04608217626810074
-0.3857038617134094 0.39115414023399353 0.9999989867210388
0.7204148769378662 0.19702237844467163 0.19899104535579681
0.4382997155189514 -0.5860244035720825 -0.544823408126831
-0.45394638180732727 0.3957582712173462 0.7490983009338379
0.09748677909374237 0.20988130569458008 0.5694512724876404
-0.050285451114177704 0.20988130569458008 -0.10728222131729126
-0.3090573847293854 0.3957582712173462 -0.42750969529151917
-0.7219830751419067 -0.5728180408477783 -0.2958996593952179
-0.4893634021282196 -0.3568798303604126 -0.544823408126831
-0.3545285165309906 0.3957582712173462 -0.357450395822525
-0.6672016382217407 -0.6295490264892578 0.198740616440773
-0.48647141456604004 -0.44844260811805725 -0.39282283186912537
0.09840380400419235 0.20988130569458008 0.13253407180309296
0.21826523542404175 0.3957582712173462 0.49836158752441406
-0.31950271129608154 0.20988130569458008 0.11821824312210083
-0.0040068416856229305 0.20988130569458008 0.3708169460296631
0.5856420397758484 -0.3199072480201721 0.19899104535579681
0.0780959352850914 0.3957582712173462 0.13739721477031708
-0.7095285654067993 -0.6295490264892578 0.19411036372184753
-0.16561166942119598 0.3957582712173462 0.47777336835861206
0.4936554729938507 0.3957582712173462 0.7520465850830078
-0.4684422016143799 0.3957582712173462 0.4486792981624603
0.3732616603374481 -0.4103129804134369 -0.39282283186912537
-0.24444697797298431 0.06551849842071533 -0.39282283186912537
0.5703814029693604 -0.2805251479148865 -0.4027155637741089
0.3443060517311096 0.3957582712173462 -0.26074010133743286
-0.04699587821960449 0.20988130569458008 0.7536673545837402
0.7219568490982056 -0.6295490264892578 -0.2471526563167572
-0.5649700164794922 -0.18395639955997467 -0.47508737444877625
0.5308127999305725 0.20988130569458008 0.7798001170158386
-0.0639297217130661 -0.6450653672218323 -0.39282283186912537
-0.5503895878791809 0.3957582712173462 0.4165914058685303
0.6827697157859802 -0.12487340718507767 0.19899104535579681
-0.540407121181488 0.20988130569458008 0.49759507179260254
0.04529372230172157 0.20988130569458008 -0.3683864176273346
-0.6238020062446594 0.24907620251178741 0.2602037489414215
-0.23741845786571503 -0.4459456205368042 -0.39282283186912537
0.028318366035819054 -0.40082183480262756 -0.544823408126831
-0.2774234414100647 0.22371259331703186 -0.544823408126831
-0.42933642864227295 0.20988130569458008 0.6238796710968018
-0.2904653251171112 -0.4312073588371277 -0.39282283186912537
-0.6875917911529541 -0.6119663119316101 -0.5445168018341064
0.39804625511169434 0.20988130569458008 0.06368593126535416
-0.7219830751419067 -0.3047003448009491 0.20978136360645294
-0.2764922082424164 0.3957582712173462 0.020003292709589005
0.4070800244808197 0.3957582712173462 0.9085630178451538
-0.14515337347984314 0.20988130569458008 -0.22673232853412628
-0.016020499169826508 0.3957582712173462 -0.46661925315856934
-0.17885729670524597 -0.20842838287353516 -0.544823408126831
0.5606055855751038 0.20988130569458008 0.4990313649177551
0.13140356540679932 0.3957582712173462 -0.10394113510847092
0.658426821231842 -0.15725040435791016 0.2602037489414215
0.5703814029693604 0.35895541310310364 0.8865184783935547
-0.6860992908477783 -0.6295490264892578 0.14027750492095947
-0.4344640374183655 -0.12922555208206177 -0.544823408126831
-0.06899881362915039 0.015958303585648537 -0.544823408126831
-0.2967182993888855 -0.5632801651954651 -0.544823408126831
-0.5818038582801819 -0.05013685300946236 0.2602037489414215
-0.570205807685852 -0.5698308348655701 0.2602037489414215
-0.5551636815071106 0.20988130569458008 -0.2682032585144043
0.57113116979599 -0.053753554821014404 0.2602037489414215
-0.1880253106355667 0.3957582712173462 0.464019775390625
-0.32953986525535583 0.3957582712173462 -0.44191521406173706
0.4077693819999695 0.20988130569458008 -0.015326901338994503
-0.2829783856868744 -0.08010805398225784 -0.39282283186912537
-0.23298674821853638 -0.19484874606132507 -0.544823408126831
-0.2092307209968567 0.20988130569458008 0.568968653678894
-0.19993984699249268 -0.08140787482261658 -0.39282283186912537
-0.22455714643001556 0.3957582712173462 -0.4360954761505127
0.09897206723690033 -0.5395200252532959 -0.544823408126831
-0.49425214529037476 0.37878674268722534 0.9999989867210388
-0.05529307574033737 0.20988130569458008 0.7648708820343018
0.2837759256362915 -0.6539852619171143 -0.39282283186912537
0.7356393337249756 0.38103365898132324 0.2131778597831726
0.4935302436351776 -0.6616739630699158 -0.39282283186912537
0.3614656329154968 -0.31978660821914673 -0.544823408126831
-0.20574240386486053 -0.34317994117736816 -0.39282283186912537
0.2201685607433319 0.30989503860473633 -0.544823408126831
0.5668889284133911 -0.19168385863304138 0.23450006544589996
0.3255617916584015 0.20988130569458008 -0.08782697468996048
0.46744510531425476 0.27246198058128357 -0.544823408126831
-0.4926223158836365 0.37887004017829895 -0.544823408126831
-0.1507020890712738 0.3957582712173462 0.16722308099269867
0.5185011625289917 0.20988130569458008 -0.046229854226112366
0.6495236158370972 -0.6295490264892578 -0.2845097482204437
0.20553170144557953 0.2519111931324005 0.9999989867210388
0.563930869102478 -0.6040318608283997 0.03719028830528259
0.1892395168542862 0.20988130569458008 0.14791053533554077
-0.5623895525932312 -0.5736545324325562 -0.12780514359474182
0.6774843335151672 0.22703661024570465 0.19899104535579681
0.5703814029693604 0.26112082600593567 0.8126551508903503
-0.5649700164794922 -0.45217642188072205 -0.49334684014320374
0.023035645484924316 0.3957582712173462 0.3201161324977875
-0.5126574635505676 0.20988130569458008 0.09465516358613968
-0.5649700164794922 -0.1835683137178421 -0.3964884281158447
0.6198251247406006 0.1169917955994606 0.19899104535579681
-0.5649700164794922 0.21783336997032166 0.6525599956512451
0.16764354705810547 0.3957582712173462 -0.34376490116119385
0.5578209161758423 0.3957582712173462 -0.3103741705417633
0.5703814029693604 -0.02656869776546955 -0.4647168219089508
-0.4116829037666321 0.3957582712173462 -0.49304530024528503
-0.6781932711601257 -0.673231840133667 0.19899104535579681
0.7160094380378723 -0.5725477933883667 0.2602037489414215
0.08134281635284424 -0.393515020608902 -0.544823408126831
0.5703814029693604 0.3037607669830322 0.40375056862831116
-0.7219830751419067 -0.6958501935005188 0.22168515622615814
0.005383606068789959 0.20988130569458008 0.4607057571411133
0.243869349360466 -0.5647759437561035 -0.39282283186912537
0.09031834453344345 0.23602843284606934 0.9999989867210388
-0.4840344786643982 0.3957582712173462 -0.39482948184013367
-0.574769139289856 -0.00920639093965292 0.2602037489414215
-0.17556282877922058 0.20988130569458008 0.12989486753940582
0.16809110343456268 -0.7195034623146057 -0.46825066208839417
0.21338050067424774 0.21983568370342255 0.9999989867210388
0.03669159859418869 0.20988130569458008 0.3031848073005676
-0.10295502841472626 -0.3364923894405365 -0.544823408126831
-0.06498058885335922 0.20988130569458008 0.8221089839935303
0.5703814029693604 -0.24266251921653748 -0.4022800922393799
-0.20651017129421234 0.3957582712173462 0.41895636916160583
-0.3502361476421356 0.13026760518550873 -0.39282283186912537
0.731682300567627 0.15410931408405304 0.19899104535579681
0.31077155470848083 0.20988130569458008 0.49353817105293274
0.04003123939037323 -0.5070777535438538 -0.39282283186912537
-0.6347413659095764 0.15025781095027924 0.19899104535579681
0.6547724008560181 -0.5359190106391907 -0.5143081545829773
0.7062603831291199 0.07812526822090149 0.19899104535579681
0.5703814029693604 0.23334205150604248 0.9679630994796753
-0.7219830751419067 0.127687469124794 0.2147100269794464
0.5668889284133911 0.01878654956817627 0.2168135643005371
0.14164963364601135 0.3006892502307892 -0.544823408126831
0.5846858620643616 0.3032507002353668 0.19899104535579681
-0.06911157071590424 0.3957582712173462 0.6622257232666016
0.44140297174453735 0.12613241374492645 -0.39282283186912537
0.09650342166423798 0.3957582712173462 0.3546868860721588
-0.04719824343919754 0.3957582712173462 -0.06828555464744568
0.04838759824633598 0.20988130569458008 -0.27685976028442383
0.1398802548646927 0.3957582712173462 0.7042948603630066
0.015735339373350143 0.20988130569458008 -0.2615479826927185
0.6616908311843872 -0.36208799481391907 0.19899104535579681
0.24279698729515076 0.3957582712173462 -0.28573358058929443
-0.11399072408676147 -0.4281812906265259 -0.544823408126831
0.4048602879047394 -0.40358227491378784 -0.39282283186912537
0.2888343632221222 0.3957582712173462 0.8705298900604248
0.4917919635772705 0.3957582712173462 -0.36275047063827515
-0.5623895525932312 -0.6403294801712036 0.2328370064496994
-0.5936471223831177 -0.050228361040353775 0.19899104535579681
0.5870479941368103 -0.10012923926115036 0.2602037489414215
0.23175422847270966 -0.6133396625518799 -0.39282283186912537
-0.06448377668857574 0.3957582712173462 0.10507138073444366
-0.15409709513187408 0.3957582712173462 0.25509047508239746
-0.6124734878540039 -0.6840675473213196 0.19899104535579681
-0.15526944398880005 -0.12067998945713043 -0.39282283186912537
0.11400830000638962 -0.7195034623146057 -0.4275011122226715
0.300748735666275 0.20988130569458008 -0.3910951614379883
0.7356393337249756 -0.2726861536502838 0.20327574014663696
0.5703814029693604 0.31468942761421204 0.7800099849700928
0.16501881182193756 -0.7195034623146057 -0.40774232149124146
0.5799119472503662 -0.5359190106391907 0.14358572661876678
0.24228785932064056 0.3957582712173462 0.2815744876861572
0.6642038226127625 -0.6695133447647095 0.19899104535579681
-0.5059158802032471 0.20988130569458008 0.20652151107788086
0.7303580641746521 -0.5840977430343628 -0.08107444643974304
0.16262486577033997 0.20988130569458008 -0.3401237726211548
0.17423364520072937 -0.5410895943641663 -0.544823408126831
-0.6945457458496094 -0.3100087642669678 0.19899104535579681
0.5703814029693604 0.3678250312805176 0.3051585257053375
0.7303580641746521 -0.5652945041656494 -0.41698959469795227
0.5663248896598816 -0.5121893286705017 -0.39282283186912537
0.09971457719802856 0.20988130569458008 0.655995786190033
0.5192778706550598 0.04635123163461685 -0.544823408126831
-0.0074195279739797115 0.20988130569458008 0.8412158489227295
0.0353478267788887 0.20988130569458008 0.9041474461555481
0.5428931713104248 0.3957582712173462 0.9406737089157104
-0.3801261782646179 -0.05721476674079895 -0.544823408126831
0.2194930613040924 -0.3738754391670227 -0.39282283186912537
-0.04006314277648926 -0.4098186194896698 -0.544823408126831
-0.4452792704105377 0.3957582712173462 0.2723384499549866
0.17898055911064148 0.005087955854833126 -0.39282283186912537
0.4806707203388214 0.20988130569458008 -0.13453972339630127
0.27647843956947327 0.20988130569458008 0.23020674288272858
0.4888499677181244 0.3453526198863983 -0.544823408126831
-0.056048497557640076 0.20988130569458008 0.3291957378387451
0.29544681310653687 0.1548130065202713 -0.39282283186912537
0.3770076334476471 0.3957582712173462 0.5800344347953796
0.3091869056224823 -0.12057235091924667 -0.544823408126831
-0.027244186028838158 -0.12209343165159225 -0.544823408126831
-0.08260680735111237 0.20988130569458008 0.09136206656694412
-0.35583916306495667 0.20988130569458008 0.6558879613876343
-0.057657696306705475 -0.617117702960968 -0.544823408126831
-0.5649700164794922 0.2266981601715088 -0.19860190153121948
-0.31714409589767456 0.20988130569458008 0.14573685824871063
0.23916523158550262 0.05821236968040466 -0.544823408126831
-0.08307607471942902 -0.4016079902648926 -0.544823408126831
0.23498784005641937 -0.41695907711982727 -0.544823408126831
0.5703814029693604 -0.000682097568642348 -0.4807296693325043
-0.6501469016075134 -0.5359190106391907 -0.20622779428958893
-0.3749556541442871 -0.029214708134531975 -0.544823408126831
0.6455813646316528 -0.2878633141517639 0.19899104535579681
-0.38828983902931213 0.20988130569458008 -0.0609290637075901
-0.11352480947971344 0.3957582712173462 -0.4826139509677887
0.4728870987892151 0.011210614815354347 -0.39282283186912537
-0.09581222385168076 0.04995640367269516 -0.544823408126831
0.5703814029693604 0.2722254693508148 -0.06931062042713165
0.1411663293838501 0.21013812720775604 -0.544823408126831
0.3503344655036926 -0.6881164908409119 -0.544823408126831
-0.11265916377305984 -0.08056023716926575 -0.544823408126831
0.5480320453643799 0.3957582712173462 -0.42382439970970154
-0.4620741605758667 0.3699656128883362 -0.544823408126831
-0.1422286033630371 -0.0012515265261754394 -0.39282283186912537
0.7303580641746521 -0.597265899181366 -0.3873908519744873
-0.0037995451129972935 -0.2138722687959671 -0.544823408126831
0.4248969852924347 0.3957582712173462 -0.0595434308052063
-0.05891120433807373 -0.7195034623146057 -0.39291366934776306
0.28370821475982666 0.20988130569458008 -0.1300891637802124
-0.3153245151042938 0.3957582712173462 0.7358500957489014
0.5703814029693604 -0.16724486649036407 -0.47406911849975586
-0.1026291698217392 0.3957582712173462 -0.02275778353214264
0.7303580641746521 -0.6075783967971802 0.05305197462439537
-0.3209030330181122 -0.6700334548950195 -0.544823408126831
-0.6309098601341248 -0.5348164439201355 0.2602037489414215
0.6930725574493408 -0.5359190106391907 0.18337441980838776
-0.4365796148777008 0.3957582712173462 -0.32459667325019836
0.5703814029693604 0.38510289788246155 0.034650467336177826
0.6916576623916626 0.1398361772298813 0.2602037489414215
-0.5649700164794922 0.32943958044052124 0.6035468578338623
-0.18753451108932495 0.3957582712173462 -0.42440858483314514
0.06405886262655258 0.3957582712173462 -0.3316218852996826
-0.1332428753376007 0.07426182180643082 -0.39282283186912537
-0.47273534536361694 0.3957582712173462 -0.25517815351486206
-0.04632339999079704 0.20988130569458008 0.003083648392930627
0.5703814029693604 0.3019866645336151 -0.20575769245624542
-0.22375550866127014 0.20988130569458008 -0.23278599977493286
0.44227173924446106 0.20988130569458008 0.1587538719177246
0.360458642244339 0.3957582712173462 -0.2319101095199585
-0.6427901983261108 -0.5359190106391907 -0.13607032597064972
0.563930869102478 -0.5827780961990356 -0.20410729944705963
0.4333880543708801 0.30716627836227417 -0.544823408126831
0.36594539880752563 -0.18267081677913666 -0.544823408126831
0.08240678161382675 -0.22839535772800446 -0.39282283186912537
-0.3396274447441101 0.20988130569458008 0.34123826026916504
0.333755761384964 0.20988130569458008 0.4657934308052063
0.6764439344406128 -0.26389211416244507 0.19899104535579681
0.5415707230567932 0.20988130569458008 0.6726129055023193
-0.611659824848175 -0.5359190106391907 -0.18466034531593323
-0.24922841787338257 0.3957582712173462 0.27661240100860596
0.1657637506723404 0.3957582712173462 -0.059391677379608154
0.5703814029693604 0.22673043608665466 0.6374576687812805
-0.7219830751419067 0.21686339378356934 0.24569550156593323
0.40042588114738464 0.3957582712173462 -0.06804212182760239
0.04562083259224892 0.3957582712173462 0.7598720192909241
-0.10903920978307724 0.3957582712173462 0.42467769980430603
-0.09586343914270401 0.20988130569458008 0.7497667074203491
0.13069862127304077 0.23682419955730438 -0.544823408126831
-0.20567964017391205 -0.24206611514091492 -0.544823408126831
0.27560728788375854 -0.335574746131897 -0.544823408126831
0.10134656727313995 -0.7195034623146057 -0.4365372061729431
0.02635570615530014 -0.1814550757408142 -0.39282283186912537
-0.5058708786964417 0.3957582712173462 0.8325455784797668
-0.19523699581623077 0.0033324630931019783 -0.39282283186912537
-0.5397602319717407 -0.13959208130836487 -0.39282283186912537
-0.6672448515892029 0.1891670525074005 0.2602037489414215
0.002669913461431861 0.3957582712173462 0.506312370300293
-0.2749902009963989 0.20988130569458008 0.0991717129945755
0.6581307649612427 -0.6811511516571045 0.2602037489414215
-0.7219830751419067 -0.03229338675737381 0.22533996403217316
-0.030424555763602257 0.20988130569458008 0.028911877423524857
-0.5555809736251831 -0.37326759099960327 -0.39282283186912537
0.2945014536380768 0.05724580958485603 -0.544823408126831
-0.1327132284641266 0.20988130569458008 0.021056002005934715
-0.45661890506744385 0.3957582712173462 0.6048995852470398
0.32781535387039185 0.20988130569458008 0.9661411046981812
0.5278285145759583 -0.249283105134964 -0.39282283186912537
-0.03658698871731758 0.3957582712173462 0.3955216705799103
0.5316140651702881 -0.5161288380622864 -0.544823408126831
0.5052976608276367 0.3957582712173462 -0.2597082257270813
-0.43435531854629517 0.3957582712173462 -0.17368805408477783
-0.14320771396160126 0.3957582712173462 0.6017873883247375
-0.4610978364944458 0.20988130569458008 -0.07339765131473541
-0.38562819361686707 0.20988130569458008 -0.33192017674446106
0.5703814029693604 0.37778010964393616 -0.08961306512355804
-0.4403161108493805 0.20988130569458008 0.7156323194503784
-0.0609329454600811 0.3957582712173462 0.30069392919540405
0.36510518193244934 0.18945874273777008 -0.544823408126831
0.33703288435935974 0.20988130569458008 0.6481622457504272
-0.4110206961631775 0.3957582712173462 -0.5181844234466553
-0.06375540792942047 0.230830118060112 0.9999989867210388
0.4006099998950958 -0.29360857605934143 -0.39282283186912537
0.1283591091632843 -0.30363166332244873 -0.544823408126831
-0.04898650944232941 0.11191704869270325 -0.544823408126831
0.7289274334907532 -0.5359190106391907 0.07350624352693558
-0.1571938842535019 0.20988130569458008 0.9591356515884399
-0.3886949121952057 -0.13052119314670563 -0.544823408126831
-0.01482250913977623 0.20988130569458008 0.44537433981895447
-0.5608003735542297 -0.5183987617492676 -0.39282283186912537
0.4154931902885437 0.3957582712173462 0.28208819031715393
0.3566303849220276 0.3957582712173462 0.8637280464172363
-0.635892391204834 -0.347055047750473 0.19899104535579681
-0.5649700164794922 0.23883594572544098 -0.008655275218188763
-0.16389331221580505 0.06711950153112411 -0.544823408126831
0.2173212170600891 0.3957582712173462 -0.4829421937465668
-0.23235425353050232 0.18582653999328613 -0.544823408126831
-0.4115007817745209 0.3029937446117401 0.9999989867210388
0.48595699667930603 -0.7182447910308838 -0.39282283186912537
0.5703814029693604 0.24266181886196136 0.9901398420333862
-0.011751248501241207 0.3957582712173462 -0.02076846733689308
0.4762488305568695 -0.13311725854873657 -0.39282283186912537
0.4547293186187744 0.3957582712173462 0.39808112382888794
0.20780502259731293 0.2938893139362335 -0.544823408126831
-0.31448787450790405 0.08335300534963608 -0.544823408126831
0.3945593535900116 0.07164201885461807 -0.39282283186912537
-0.05772870033979416 -0.6990351676940918 -0.544823408126831
-0.4982133209705353 0.28144213557243347 0.9999989867210388
-0.5649700164794922 0.37621062994003296 0.11894239485263824
0.1050802692770958 0.039488550275564194 -0.544823408126831
-0.7219830751419067 -0.5720444321632385 -0.5112461447715759
0.21536089479923248 0.12069123983383179 -0.39282283186912537
-0.5649700164794922 0.29101043939590454 -0.5187267065048218
-0.46861138939857483 0.3957582712173462 0.20355094969272614
0.5703814029693604 -0.710700273513794 -0.4809885025024414
-0.5912600755691528 -0.6295490264892578 -0.45161232352256775
-0.2066633701324463 0.3957582712173462 0.7915975451469421
-0.5649700164794922 0.3469708561897278 0.9838494658470154
-0.2547288239002228 0.015264983288943768 -0.39282283186912537
0.6738190650939941 -0.1312476247549057 0.19899104535579681
-0.2985287308692932 -0.47915980219841003 -0.544823408126831
0.2524573802947998 -0.518669068813324 -0.39282283186912537
0.2852749526500702 0.20988130569458008 0.9360697865486145
0.710873007774353 -0.6295490264892578 0.10079989582300186
-0.4520912766456604 0.3957582712173462 0.3119465410709381
0.7356393337249756 0.00900176726281643 0.21326936781406403
-0.7219830751419067 -0.5745174288749695 -0.09237648546695709
0.041965097188949585 0.3957582712173462 -0.3350948393344879
0.21523724496364594 0.20988130569458008 0.38643938302993774
-0.7219830751419067 -0.6208709478378296 -0.31048551201820374
0.14282819628715515 0.3957582712173462 0.5421904921531677
0.16628658771514893 -0.7195034623146057 -0.46360236406326294
0.6819810271263123 -0.03658657893538475 0.2602037489414215
-0.5649700164794922 0.22182880342006683 0.004511771257966757
-0.5661666989326477 -0.6295490264892578 -0.015312942676246166
0.7258926630020142 -0.6358931660652161 0.19899104535579681
-0.5629000663757324 0.3957582712173462 0.5678675770759583
-0.13360418379306793 -0.7195034623146057 -0.46966034173965454
0.20216356217861176 -0.04751906543970108 -0.544823408126831
-0.6204007267951965 -0.6904809474945068 0.19899104535579681
0.4827682077884674 -0.43058082461357117 -0.544823408126831
-0.5649700164794922 0.3661377727985382 -0.46161308884620667
0.38742315769195557 -0.10915283858776093 -0.544823408126831
0.6489353775978088 -0.2572457492351532 0.19899104535579681
0.32860156893730164 0.25710490345954895 -0.544823408126831
-0.6188700199127197 0.2981092631816864 0.19899104535579681
0.4903082549571991 0.20988130569458008 0.6145144701004028
-0.5649700164794922 0.38231825828552246 -0.11824312806129456
0.563930869102478 -0.562609851360321 0.16976432502269745
-0.5649700164794922 -0.1294713318347931 -0.4294566214084625
0.6396240592002869 -0.6295490264892578 -0.4712301194667816
-0.4685582220554352 0.380107045173645 0.9999989867210388
0.5703814029693604 0.20158086717128754 -0.48366960883140564
0.5519888401031494 0.3957582712173462 0.4118470847606659
-0.4182274043560028 0.20988130569458008 0.8439584374427795
0.623511791229248 -0.5552830696105957 -0.5445168018341064
-0.33984455466270447 0.3957582712173462 -0.28417518734931946
-0.15729261934757233 0.3957582712173462 0.3055671155452728
-0.1772785782814026 -0.716364860534668 -0.39282283186912537
0.4122461974620819 -0.353365957736969 -0.39282283186912537
-0.595378577709198 -0.05194016546010971 0.19899104535579681
-0.4143160581588745 0.20988130569458008 0.10793805122375488
-0.4140610098838806 0.15124616026878357 -0.39282283186912537
-0.556155800819397 -0.40184634923934937 -0.39282283186912537
-0.49476391077041626 0.3957582712173462 -0.16632385551929474
-0.0860515758395195 0.20988130569458008 0.09166492521762848
0.24599403142929077 0.20988130569458008 0.8905988931655884
0.3866080343723297 0.09532798081636429 -0.39282283186912537
-0.24914246797561646 -0.029566364362835884 -0.544823408126831
-0.5649700164794922 0.2520531117916107 0.09872645139694214
-0.09100034832954407 0.3957582712173462 0.9258140921592712
0.49399834871292114 0.20988130569458008 0.4306306838989258
-0.5649700164794922 0.26961392164230347 0.759773313999176
0.7170498967170715 -0.5359190106391907 -0.08780073374509811
-0.30796828866004944 -0.21665307879447937 -0.544823408126831
0.723064124584198 -0.5359190106391907 -0.39871248602867126
0.4933808445930481 0.20988130569458008 -0.25314900279045105
0.37043797969818115 0.20988130569458008 0.2733992338180542
0.37346309423446655 0.20988130569458008 0.15991319715976715
-0.30027154088020325 -0.6515809297561646 -0.544823408126831
0.5149725675582886 0.3957582712173462 0.3800748288631439
0.3231869339942932 0.3957582712173462 0.7089219093322754
0.5703814029693604 0.2496672123670578 0.1484554558992386
0.0723905935883522 0.20988130569458008 0.3295040726661682
0.6703106164932251 -0.5359190106391907 -0.4332447648048401
-0.09040400385856628 -0.39824381470680237 -0.39282283186912537
-0.13021087646484375 0.3957582712173462 0.08050920814275742
-0.5953454375267029 0.17159536480903625 0.2602037489414215
-0.5649700164794922 0.27858051657676697 0.5902745127677917
-0.7219830751419067 -0.5474829077720642 0.1529279500246048
0.23579785227775574 -0.2108651101589203 -0.39282283186912537
-0.2237144112586975 0.3957582712173462 -0.2602388560771942
-0.039082031697034836 0.20988130569458008 0.15594573318958282
0.5668889284133911 -0.4652128517627716 0.24434056878089905
-0.4818750023841858 0.3957582712173462 -0.16119670867919922
-0.43485453724861145 0.3957582712173462 0.06425997614860535
0.4988541305065155 -0.23994718492031097 -0.544823408126831
0.14068801701068878 0.3957582712173462 0.036326706409454346
0.45261943340301514 -0.35122865438461304 -0.544823408126831
-0.5649700164794922 0.014912852086126804 -0.519972026348114
-0.3606422245502472 0.20988130569458008 -0.3752714693546295
-0.49658939242362976 -0.6298014521598816 -0.544823408126831
2.9353590434766375e-05 0.3166743516921997 0.9999989867210388
0.14407694339752197 0.3957582712173462 0.48552340269088745
0.2033517211675644 0.3957582712173462 0.41884806752204895
-0.16864541172981262 0.3957582712173462 0.659683346748352
0.5056484937667847 0.20988130569458008 0.4360116720199585
-0.6962552070617676 -0.5359190106391907 0.01705344393849373
-0.0042527811601758 0.20988130569458008 -0.15921546518802643
-0.5845642685890198 -0.6295490264892578 0.16434253752231598
0.3396466076374054 0.20988130569458008 0.0010868225945159793
0.1293320208787918 0.20988130569458008 0.9847383499145508
0.36377087235450745 0.3957582712173462 0.14790664613246918
-0.172568678855896 0.3957582712173462 0.7529776096343994
0.4741133153438568 0.3957582712173462 0.003933241590857506
-0.4621848165988922 0.20988130569458008 0.6559960842132568
0.4108191132545471 0.20988130569458008 0.6643438339233398
-0.28244197368621826 0.3957582712173462 0.33659955859184265
-0.12306579947471619 0.20988130569458008 0.57024747133255
0.4834817349910736 0.20988130569458008 0.3331522047519684
-0.23228365182876587 -0.16871541738510132 -0.39282283186912537
-0.5649700164794922 0.22867655754089355 0.41960763931274414
-0.0436319001019001 -0.22628630697727203 -0.39282283186912537
0.5703814029693604 -0.33766674995422363 -0.4467553198337555
-0.5649700164794922 0.042325422167778015 -0.5155735611915588
0.11037617176771164 -0.6910065412521362 -0.544823408126831
0.6655908226966858 -0.1778702735900879 0.19899104535579681
0.2469259798526764 0.20988130569458008 0.10030173510313034
-0.6434209942817688 -0.5359190106391907 0.06803029030561447
-0.6006219387054443 -0.6295490264892578 -0.16627360880374908
-0.09782679378986359 0.20988130569458008 0.8782576322555542
0.41969770193099976 0.3957582712173462 -0.1008869931101799
0.3563845753669739 0.3957582712173462 0.18241579830646515
-0.5147830843925476 0.3957582712173462 0.21030963957309723
-0.08732874691486359 -0.002638166071847081 -0.544823408126831
-0.08595488965511322 0.20988130569458008 0.25268834829330444
-0.16254153847694397 -0.5099681615829468 -0.39282283186912537
-0.1161419004201889 -0.4453074038028717 -0.544823408126831
-0.004161865916103125 0.3957582712173462 -0.2784377932548523
0.7036788463592529 0.09067852795124054 0.2602037489414215
0.20662812888622284 0.3957582712173462 0.26798683404922485
-0.3018489181995392 -0.25123131275177 -0.544823408126831
-0.601699948310852 -0.5359190106391907 -0.045496974140405655
0.7077232003211975 -0.6014270782470703 -0.5445168018341064
-0.5649700164794922 0.22288115322589874 0.15796759724617004
0.6201041340827942 -0.3054099678993225 0.2602037489414215
-0.47773364186286926 0.20988130569458008 0.016824450343847275
-0.3573601543903351 -0.6850796937942505 -0.39282283186912537
-0.4086737036705017 -0.15341491997241974 -0.544823408126831
-0.04823173210024834 0.3957582712173462 0.9503825306892395
0.6328943371772766 -0.06931151449680328 0.2602037489414215
0.010310319252312183 0.3957582712173462 0.7604672908782959
0.3061411380767822 -0.3005399703979492 -0.544823408126831
0.730851948261261 0.1631862074136734 0.19899104535579681
0.5703814029693604 -0.48037928342819214 -0.5092911720275879
0.28306451439857483 0.3957582712173462 0.737637996673584
-0.5108093023300171 0.03494146466255188 -0.544823408126831
-0.6726566553115845 -0.5359190106391907 0.18301504850387573
0.5137994289398193 0.3957582712173462 -0.33816781640052795
-0.4844193756580353 0.20988130569458008 0.30257388949394226
-0.5632343888282776 -0.6316148638725281 0.19899104535579681
0.5352201461791992 0.04812955856323242 -0.39282283186912537
0.4189431965351105 0.20988130569458008 -0.03145018592476845
0.19415482878684998 0.3957582712173462 0.2651176154613495
-0.04598110914230347 0.20988130569458008 -0.2903929054737091
0.3603924512863159 0.3957582712173462 0.33933016657829285
-0.5087164044380188 -0.5515698790550232 -0.544823408126831
0.38066744804382324 0.3957582712173462 -0.47122693061828613
0.5703814029693604 0.3234095573425293 0.3660159111022949
0.6260913610458374 0.3382614254951477 0.2602037489414215
0.6751818060874939 -0.6295490264892578 -0.04802023991942406
0.710712194442749 -0.5620994567871094 0.2602037489414215
-0.44321829080581665 -0.41905394196510315 -0.544823408126831
-0.4269651472568512 -0.5598487257957458 -0.544823408126831
-0.19187380373477936 0.26814723014831543 -0.544823408126831
-0.41068771481513977 -0.014033583924174309 -0.544823408126831
0.48812392354011536 -0.7195034623146057 -0.4608313739299774
0.06434064358472824 0.3957582712173462 -0.42632585763931274
-0.25987640023231506 0.20988130569458008 0.8655692934989929
-0.5623895525932312 -0.5925491452217102 0.053384143859148026
0.48883020877838135 -0.14874882996082306 -0.39282283186912537
-0.5649700164794922 0.37310248613357544 -0.050253819674253464
-0.6728807687759399 0.0349954254925251 0.19899104535579681
0.7177252173423767 -0.03632768616080284 0.2602037489414215
-0.5649700164794922 -0.2796840965747833 -0.48782217502593994
-0.5248675346374512 -0.7195034623146057 -0.4379999041557312
-0.7219830751419067 -0.6128278970718384 -0.507493793964386
0.20970959961414337 0.20988130569458008 0.6164417266845703
-0.6444361209869385 -0.1369285136461258 0.2602037489414215
0.7177576422691345 -0.5359190106391907 0.19780781865119934
0.19998998939990997 0.20988130569458008 0.15246933698654175
0.3875519633293152 -0.1391359269618988 -0.544823408126831
-0.07014811784029007 0.3957582712173462 0.564068615436554
-0.07715480029582977 0.3957582712173462 0.6503980755805969
-0.6450507044792175 -0.5359190106391907 -0.033119309693574905
-0.48681747913360596 0.3957582712173462 0.8731642365455627
0.22610867023468018 0.20988130569458008 0.10030640661716461
-0.3614720106124878 0.3957582712173462 0.5544849634170532
-0.420845091342926 0.3957582712173462 -0.42438244819641113
0.5703814029693604 -0.3381776213645935 -0.5065680742263794
0.4449595808982849 -0.7195034623146057 -0.4494476020336151
0.3635355830192566 0.3957582712173462 -0.11278177052736282
-0.16638997197151184 0.20988130569458008 -0.042846109718084335
-0.30725666880607605 0.20988130569458008 0.9731664061546326
-0.7219830751419067 -0.6163660883903503 0.14641211926937103
-0.7084746956825256 -0.17440903186798096 0.19899104535579681
0.5703814029693604 0.23507778346538544 -0.3381371796131134
0.725709080696106 -0.5359190106391907 0.18040622770786285
0.6383812427520752 -0.5359190106391907 -0.05709788203239441
0.38736122846603394 0.3957582712173462 0.8888261914253235
-0.4898011088371277 -0.4586820602416992 -0.39282283186912537
0.2522047460079193 0.20988130569458008 0.7571203112602234
-0.4389400780200958 0.3957582712173462 0.5932540893554688
-0.4814090430736542 0.0626581460237503 -0.544823408126831
-0.5690646767616272 -0.6295490264892578 -0.40301650762557983
-0.47858306765556335 0.20988130569458008 -0.10597891360521317
0.46808376908302307 -0.314639151096344 -0.544823408126831
-0.052678219974040985 0.08508529514074326 -0.39282283186912537
-0.37722328305244446 0.3050427734851837 0.9999989867210388
-0.3302580714225769 0.3957582712173462 -0.16249921917915344
0.3467487394809723 0.3957582712173462 0.879584550857544
0.5703814029693604 0.3306570053100586 0.27630338072776794
-0.24097150564193726 0.35305505990982056 0.9999989867210388
0.6137325167655945 -0.391824871301651 0.19899104535579681
-0.5649700164794922 0.3646990656852722 0.4233451187610626
0.5183154940605164 -0.19175542891025543 -0.544823408126831
0.4837915003299713 0.3957582712173462 -0.14523771405220032
-0.40521132946014404 0.3957582712173462 0.9887644648551941
-0.426332026720047 -0.5012636184692383 -0.544823408126831
-0.6036127805709839 -0.6941445469856262 0.2602037489414215
0.5703814029693604 0.36844125390052795 0.1010044738650322
-0.606859028339386 -0.6295490264892578 -0.058805473148822784
-0.4635031819343567 -0.44237402081489563 -0.39282283186912537
-0.5649700164794922 0.22434689104557037 -0.015598941594362259
-0.7118571996688843 0.3562324047088623 0.19899104535579681
-0.16197949647903442 0.20988130569458008 0.014300627633929253
-0.5649700164794922 0.3302164077758789 0.9635671377182007
0.4070933759212494 -0.4437699615955353 -0.544823408126831
0.02115185372531414 -0.09221954643726349 -0.544823408126831
0.5703814029693604 0.2693406641483307 0.8075992465019226
0.22993473708629608 -0.47788068652153015 -0.39282283186912537
-0.5184057950973511 0.20988130569458008 0.7156824469566345
-0.5649700164794922 0.3815399408340454 -0.1355029046535492
0.42807915806770325 0.3957582712173462 0.29181399941444397
-0.48669788241386414 0.3957582712173462 0.7448057532310486
-0.5649700164794922 -0.37839993834495544 -0.53279048204422
0.16268058121204376 -0.49259138107299805 -0.39282283186912537
0.044344764202833176 0.3957582712173462 0.8643156290054321
0.408205509185791 0.3957582712173462 0.224275141954422
0.5799720287322998 -0.6817713975906372 0.19899104535579681
0.6314886212348938 -0.343120813369751 0.2602037489414215
-0.16406401991844177 0.20988130569458008 -0.35571035742759705
0.5668889284133911 -0.6435405611991882 0.2444593757390976
0.7303580641746521 -0.5458136200904846 -0.17805907130241394
0.3332931697368622 0.20988130569458008 0.6414081454277039
0.26436927914619446 -0.1564042717218399 -0.544823408126831
-0.45159345865249634 0.20988130569458008 -0.34652188420295715
-0.41680046916007996 -0.3243705630302429 -0.39282283186912537
-0.04513571783900261 0.3957582712173462 0.4009554386138916
-0.47169172763824463 0.20988130569458008 -0.057969335466623306
0.5703814029693604 -0.06337684392929077 -0.39537277817726135
0.563930869102478 -0.5654126405715942 -0.2643883228302002
-0.20092003047466278 -0.03879048302769661 -0.39282283186912537
0.209364116191864 0.3957582712173462 -0.13906407356262207
0.5703814029693604 0.2449713796377182 0.06105298176407814
0.42423808574676514 0.01195418369024992 -0.39282283186912537
0.7184787392616272 0.2981419265270233 0.19899104535579681
0.19054625928401947 0.14107930660247803 -0.39282283186912537
-0.4758649468421936 0.20988130569458008 -0.1087530255317688
-0.1441485732793808 -0.5433217287063599 -0.544823408126831
0.10494046658277512 0.2331438809633255 -0.544823408126831
-0.2890031337738037 0.3957582712173462 0.567068338394165
0.624757707118988 -0.14143480360507965 0.2602037489414215
-0.48593857884407043 -0.4756171703338623 -0.39282283186912537
0.5703814029693604 0.3856111764907837 -0.12814509868621826
0.5321453809738159 0.20988130569458008 0.6646007895469666
-0.5304100513458252 0.3957582712173462 0.8943089246749878
0.6215754151344299 0.016437256708741188 0.2602037489414215
-0.19147510826587677 -0.7195034623146057 -0.4043864905834198
0.7034124135971069 -0.5610393285751343 -0.5445168018341064
0.5074282884597778 0.3957582712173462 -0.5359278917312622
0.7136417031288147 -0.6295490264892578 -0.18274922668933868
0.051591161638498306 0.20988130569458008 0.9719643592834473
0.5421562194824219 -0.5584678053855896 -0.544823408126831
0.29935407638549805 0.3957582712173462 0.14650622010231018
0.007795758079737425 0.20988130569458008 -0.2823452353477478
0.6353719234466553 -0.7195034623146057 0.24707180261611938
0.7183529138565063 -0.5359190106391907 -0.5191227793693542
-0.031184999272227287 0.10502027720212936 -0.544823408126831
0.10099810361862183 -0.23957110941410065 -0.39282283186912537
-0.5649700164794922 0.3367484509944916 0.5217376351356506
-0.6227608323097229 -0.493088960647583 0.2602037489414215
-0.15182390809059143 0.09237040579319 -0.39282283186912537
0.5703814029693604 -0.38251301646232605 -0.45011964440345764
0.15158948302268982 0.3957582712173462 -0.5068744421005249
0.17531953752040863 0.3957582712173462 0.5152335166931152
0.436557799577713 0.3957582712173462 -0.16094538569450378
0.5703814029693604 0.36864152550697327 0.34801948070526123
0.5703814029693604 0.34028762578964233 0.687771737575531
-0.21908290684223175 -0.1734149008989334 -0.39282283186912537
-0.34539148211479187 -0.09317895770072937 -0.544823408126831
-0.07233552634716034 0.20816589891910553 -0.39282283186912537
0.6754221320152283 -0.14583860337734222 0.2602037489414215
0.7356393337249756 -0.13689512014389038 0.22442956268787384
0.03855891153216362 0.20988130569458008 -0.18241752684116364
0.6221404671669006 -0.6662907004356384 0.19899104535579681
0.5703814029693604 0.26387128233909607 0.44484204053878784
-0.14692535996437073 0.20988130569458008 0.5692209005355835
-0.49345576763153076 0.3957582712173462 0.3422695994377136
-0.13645069301128387 0.3957582712173462 0.044122952967882156
0.48748779296875 0.20988130569458008 0.2021162062883377
0.48687630891799927 -0.27109450101852417 -0.39282283186912537
-0.17181095480918884 0.3957582712173462 0.37655749917030334
-0.7075782418251038 0.27039676904678345 0.19899104535579681
0.4541713297367096 0.20988130569458008 0.8718862533569336
0.4744921028614044 0.19303686916828156 -0.39282283186912537
-0.19491596519947052 -0.5654724836349487 -0.39282283186912537
-0.5029873847961426 0.3957582712173462 0.9808725118637085
-0.4852689206600189 0.20988130569458008 -0.3635692894458771
-0.37184977531433105 0.20988130569458008 0.4614395499229431
-0.49930906295776367 0.20988130569458008 0.884101152420044
-0.3706325888633728 0.03195367753505707 -0.544823408126831
-0.4478473663330078 0.3957582712173462 0.49877089262008667
-0.05182163417339325 0.3957582712173462 -0.45379942655563354
0.4009033739566803 -0.2741701602935791 -0.39282283186912537
0.2929467558860779 0.3957582712173462 0.5967475771903992
0.2951115667819977 0.3957582712173462 -0.35382747650146484
-0.16803382337093353 0.00220666965469718 -0.544823408126831
0.4594383239746094 -0.2796076238155365 -0.39282283186912537
-0.1668388545513153 -0.21132588386535645 -0.544823408126831
-0.17656633257865906 0.05154532194137573 -0.544823408126831
0.3615197241306305 -0.18411719799041748 -0.39282283186912537
0.508351743221283 0.20988130569458008 0.455313503742218
0.5957391262054443 -0.5359190106391907 0.19425968825817108
0.7089335918426514 -0.6872729659080505 0.2602037489414215
0.7254043221473694 -0.6295490264892578 -0.2476263791322708
-0.25168126821517944 0.20988130569458008 -0.3116024136543274
-0.11476431787014008 -0.7195034623146057 -0.43754222989082336
-0.41283679008483887 0.20988130569458008 0.20779648423194885
0.22406615316867828 -0.3862118721008301 -0.544823408126831
-0.45952102541923523 -0.7195034623146057 -0.4988357126712799
-0.6655123829841614 -0.5359190106391907 -0.17924755811691284
0.3230395019054413 0.20988130569458008 -0.06924789398908615
0.3997136354446411 -0.12798933684825897 -0.39282283186912537
-0.2050175666809082 0.20988130569458008 0.9178459048271179
0.0750342607498169 0.20988130569458008 0.0022007236257195473
-0.5156524777412415 0.3957582712173462 0.679338812828064
0.03694036602973938 -0.4144480526447296 -0.39282283186912537
-0.6004542708396912 0.3957582712173462 0.21330417692661285
-0.333635151386261 0.3957582712173462 0.10099831968545914
-0.27610573172569275 0.3957582712173462 0.33689600229263306
0.34817928075790405 -0.39618515968322754 -0.39282283186912537
-0.3137480914592743 0.20988130569458008 -0.03687545284628868
-0.33754292130470276 0.3957582712173462 -0.25873836874961853
0.35136327147483826 0.040009573101997375 -0.39282283186912537
0.5693969130516052 0.058575473725795746 -0.39282283186912537
-0.5649700164794922 0.3392987549304962 -0.25470659136772156
0.05146821215748787 -0.3043789267539978 -0.39282283186912537
-0.3739970624446869 0.20988130569458008 0.1733677089214325
0.4259129762649536 0.3957582712173462 -0.1433151364326477
-0.29697689414024353 0.3957582712173462 0.4908964931964874
-0.26591727137565613 0.3957582712173462 -0.5076132416725159
0.5703814029693604 0.38546597957611084 0.436674565076828
0.24899108707904816 0.3957582712173462 -0.04195419326424599
-0.10237932205200195 0.2734668254852295 0.9999989867210388
-0.2858469486236572 0.20988130569458008 0.14396683871746063
-0.48767581582069397 -0.5750961899757385 -0.544823408126831
0.7356393337249756 -0.2481989711523056 0.22975502908229828
0.3971661627292633 0.20988130569458008 0.9741083979606628
0.5703814029693604 0.3392336070537567 0.15592414140701294
0.19041091203689575 -0.12541067600250244 -0.544823408126831
0.37540897727012634 0.20988130569458008 0.5858587026596069
-0.16846001148223877 0.3665257394313812 -0.544823408126831
-0.7219830751419067 -0.5806751251220703 -0.14096146821975708
0.5484264492988586 0.3957582712173462 0.12988372147083282
0.6309313774108887 -0.5729110836982727 -0.5445168018341064
0.18290583789348602 -0.15716230869293213 -0.544823408126831
-0.4021998345851898 -0.10102154314517975 -0.544823408126831
0.09053105115890503 0.20988130569458008 -0.02141248807311058
0.3197909891605377 0.20988130569458008 -0.21947993338108063
