-0.6232335567474365 -0.29779163002967834 0.27281200885772705
0.13787923753261566 -0.4369608759880066 -0.026692697778344154
0.12151021510362625 0.22671398520469666 -0.026692697778344154
0.749197244644165 0.18924564123153687 0.04825862497091293
0.3645325005054474 -0.4036463499069214 -0.40706366300582886
-0.07477343827486038 0.4269775450229645 0.01183262001723051
-0.919539749622345 0.3678845167160034 0.261516809463501
-0.4440760016441345 -0.36437302827835083 0.16435232758522034
0.16738104820251465 0.036441393196582794 -0.026692697778344154
0.035249583423137665 0.3776331841945648 -0.23671825230121613
-0.03219078853726387 0.17896266281604767 -0.026692697778344154
0.035249583423137665 -0.2022852748632431 -0.08891003578901291
-0.08393964916467667 0.4269775450229645 0.1820918172597885
0.7419837117195129 0.4349019229412079 0.19745750725269318
0.20588690042495728 0.22448334097862244 0.27281200885772705
0.2844190001487732 0.4269775450229645 0.05050097405910492
-0.7749418616294861 -0.26451778411865234 0.27281200885772705
0.035249583423137665 -0.153824582695961 -0.29239797592163086
0.35505154728889465 0.1305045336484909 -0.40706366300582886
-0.70890212059021 0.12743791937828064 -0.026692697778344154
-0.7734517455101013 -0.571496307849884 0.16244465112686157
0.728306770324707 -0.2358599603176117 -0.2887220084667206
0.5245352387428284 0.35437801480293274 0.2376992404460907
-0.5017761588096619 0.4111287295818329 0.05150783807039261
-0.919539749622345 0.1812741905450821 -0.018640803173184395
0.4466937780380249 0.047905150800943375 -0.026692697778344154
0.22811321914196014 0.1357020139694214 -0.026692697778344154
0.6257840394973755 0.18924564123153687 0.06922171264886856
0.31132739782333374 0.3763127326965332 0.15355458855628967
0.6145142316818237 -0.30155816674232483 -0.15735039114952087
0.4874407947063446 -0.37492403388023376 -0.2796606123447418
0.3592796325683594 0.19124704599380493 -0.16112175583839417
0.8881728649139404 -0.11410964280366898 -0.24639365077018738
0.7315497994422913 -0.02368323504924774 -0.32713833451271057
-0.919539749622345 -0.11402831226587296 0.17866499722003937
0.2538031339645386 -0.5098147988319397 -0.3009275496006012
0.5245352387428284 0.2734972834587097 -0.01060381531715393
0.738551676273346 -0.027725813910365105 -0.27723780274391174
-0.6257666349411011 -0.22999650239944458 -0.026692697778344154
0.7171396613121033 -0.14968730509281158 -0.026692697778344154
-0.5119688510894775 -0.5629306435585022 0.27281200885772705
-0.5061492919921875 -0.2617943286895752 -0.026692697778344154
0.23299217224121094 0.4087493121623993 -0.026692697778344154
0.14924652874469757 0.4269775450229645 -0.009842337109148502
0.1435478776693344 -0.5734706521034241 -0.20881325006484985
0.0378308966755867 -0.5890845656394958 -0.40706366300582886
0.20493721961975098 -0.519221842288971 -0.40706366300582886
0.25957754254341125 -0.15200114250183105 -0.026692697778344154
0.30340254306793213 0.06989642977714539 -0.026692697778344154
-0.653303861618042 -0.06537584960460663 -0.026692697778344154
-0.05916820466518402 0.37888628244400024 0.27281200885772705
-0.5536342263221741 -0.11484669893980026 -0.026692697778344154
0.5370708107948303 0.033337585628032684 -0.026692697778344154
0.09447693824768066 0.33446750044822693 -0.026692697778344154
0.15364839136600494 0.33542492985725403 -0.026692697778344154
-0.16413633525371552 0.35084161162376404 0.06381184607744217
0.035249583423137665 -0.02988441474735737 -0.28003978729248047
0.035249583423137665 -0.5595085620880127 -0.38460901379585266
0.06738995760679245 0.35976964235305786 -0.07939670979976654
0.6387975215911865 -0.20269441604614258 -0.40706366300582886
0.31132739782333374 0.21240952610969543 -0.010576490312814713
0.4768391251564026 0.12337404489517212 -0.23842273652553558
0.035249583423137665 0.19678544998168945 -0.2635970115661621
0.48949524760246277 -0.32310977578163147 -0.40706366300582886
-0.4608934223651886 -0.15804526209831238 -0.026692697778344154
0.7813758850097656 -0.20522047579288483 -0.09965196251869202
0.5130718946456909 -0.36012589931488037 -0.39751118421554565
-0.16413633525371552 0.23097509145736694 0.025151990354061127
0.7151416540145874 -0.24346080422401428 -0.14777524769306183
0.7265430092811584 -0.23687826097011566 -0.31436434388160706
-0.4515215754508972 0.4111287295818329 0.08336633443832397
0.7264446020126343 0.3107880651950836 -0.026692697778344154
0.035249583423137665 -0.19923987984657288 -0.15684936940670013
-0.5513293147087097 -0.01144892442971468 0.27281200885772705
-0.919539749622345 -0.23946167528629303 7.637030648766086e-05
0.5571964383125305 0.07697970420122147 -0.16045576333999634
0.5245352387428284 0.3526352345943451 0.16457347571849823
0.09997119754552841 -0.5986297130584717 -0.06794937700033188
0.5245352387428284 0.34933486580848694 0.04210521653294563
0.035249583423137665 0.30894094705581665 -0.20397399365901947
0.035249583423137665 -0.18462926149368286 -0.07990169525146484
-0.16413633525371552 -0.017826421186327934 0.22102807462215424
0.35113421082496643 0.12907829880714417 -0.40706366300582886
-0.16413633525371552 0.19327685236930847 0.04967395216226578
0.29269012808799744 -0.18218331038951874 -0.026692697778344154
0.9201570153236389 0.18924564123153687 0.27088087797164917
-0.7358978390693665 -0.24881382286548615 -0.026692697778344154
-0.6179957985877991 0.3824673295021057 0.27281200885772705
0.7072747349739075 -0.04327011853456497 -0.40706366300582886
-0.4440760016441345 -0.15510563552379608 0.15334410965442657
0.04627700522542 -0.06433499604463577 -0.001010477775707841
-0.45061975717544556 -0.571496307849884 -0.00790446624159813
-0.48871785402297974 0.11730113625526428 0.27281200885772705
-0.4440760016441345 -0.5263574123382568 0.17258863151073456
0.9010513424873352 -0.1361258178949356 -0.3553256094455719
0.01378529891371727 0.14657127857208252 0.27281200885772705
-0.16413633525371552 0.10674598813056946 0.24314214289188385
0.7883309721946716 0.4349019229412079 0.10314914584159851
-0.09268686175346375 0.2186792641878128 0.27281200885772705
0.9999989867210388 0.22164641320705414 -0.021214712411165237
0.264689177274704 0.21163852512836456 0.27281200885772705
-0.49281036853790283 -0.11198146641254425 -0.026692697778344154
-0.4440760016441345 -0.25170832872390747 0.16340510547161102
0.3880175054073334 0.1746552288532257 -0.1501857489347458
0.30064645409584045 -0.01375088281929493 -0.026692697778344154
-0.4440760016441345 -0.29764026403427124 0.18665683269500732
0.035249583423137665 -0.4817269444465637 -0.1489010453224182
-0.4440760016441345 -0.09131836891174316 0.14031651616096497
-0.5771389007568359 -0.45611584186553955 -0.026692697778344154
-0.83063143491745 0.1666186898946762 0.27281200885772705
0.035249583423137665 -0.21254482865333557 -0.13018056750297546
-0.6060199737548828 -0.4259110391139984 -0.026692697778344154
0.04376686364412308 -0.06433499604463577 0.0966731607913971
0.11229600012302399 -0.5002520084381104 -0.026692697778344154
0.23371562361717224 0.2846502959728241 -0.026692697778344154
-0.6690371632575989 -0.26260635256767273 0.27281200885772705
0.16539821028709412 -0.5608554482460022 -0.0629657506942749
-0.4440760016441345 0.06274896115064621 0.20742028951644897
0.40800532698631287 0.1631152629852295 -0.11959323287010193
-0.7212519645690918 0.0001326751080341637 0.27281200885772705
0.4713774621486664 -0.37935519218444824 -0.40706366300582886
0.7300481796264648 0.18924564123153687 0.1690465658903122
-0.4440760016441345 -0.24251048266887665 0.26621341705322266
-0.4440760016441345 0.01493576169013977 0.12902049720287323
-0.5016564130783081 -0.1938992738723755 -0.026692697778344154
-0.7515987753868103 0.04423404484987259 0.27281200885772705
-0.08996967226266861 -0.06433499604463577 0.26847442984580994
0.563840389251709 0.18924564123153687 0.01830417290329933
0.15084390342235565 0.4269775450229645 0.2568054497241974
-0.48927414417266846 -0.08259603381156921 -0.026692697778344154
0.6096451282501221 -0.07762415707111359 -0.40706366300582886
0.5248836874961853 0.2297179102897644 0.27281200885772705
0.5479416847229004 -0.33999377489089966 -0.11852790415287018
0.7588703036308289 -0.19054661691188812 -0.40706366300582886
-0.8752407431602478 -0.5054042339324951 -0.026692697778344154
-0.16413633525371552 0.2613031566143036 0.19732438027858734
0.09695152193307877 -0.6003731489181519 -0.348518431186676
0.18826183676719666 -0.06433499604463577 0.22289474308490753
0.7021694183349609 -0.006720482371747494 -0.36977946758270264
-0.9096699357032776 0.17676346004009247 0.27281200885772705
0.590694010257721 0.18924564123153687 0.18538235127925873
0.6988926529884338 -0.004828678909689188 -0.3893453776836395
0.03522627800703049 0.07707628607749939 0.27281200885772705
0.22600562870502472 -0.16039174795150757 -0.026692697778344154
-0.6194127202033997 -0.0719008520245552 0.27281200885772705
-0.9073716998100281 -0.571496307849884 -0.015970971435308456
0.18762241303920746 0.38230761885643005 -0.026692697778344154
0.5245352387428284 0.4202151894569397 -0.01898905262351036
0.9708331227302551 0.2787216901779175 0.27281200885772705
0.08701963722705841 0.3750869631767273 0.27281200885772705
-0.4440760016441345 -0.08765700459480286 0.18625010550022125
0.004364618565887213 0.3260069787502289 0.27281200885772705
0.045861728489398956 -0.6298697590827942 -0.2253001481294632
0.6717581152915955 0.3727150857448578 0.27281200885772705
-0.6270143389701843 -0.5429827570915222 0.27281200885772705
0.661766529083252 0.3951689600944519 0.27281200885772705
0.26379188895225525 0.18279743194580078 -0.026692697778344154
0.15875181555747986 0.019399872049689293 -0.40706366300582886
0.6604273319244385 -0.1467612087726593 -0.026692697778344154
0.010150738060474396 0.3538614511489868 -0.026692697778344154
0.06333798170089722 0.35267210006713867 -0.026692697778344154
0.36518606543540955 -0.05129075050354004 -0.40706366300582886
0.35164573788642883 -0.37774690985679626 -0.40706366300582886
0.5245352387428284 0.3323836922645569 0.007209206931293011
0.793010413646698 -0.05916754901409149 -0.19212548434734344
0.9647347927093506 0.18924564123153687 -0.005658433772623539
0.4015716314315796 -0.42450058460235596 -0.2200566828250885
-0.5706584453582764 -0.571496307849884 0.08298336714506149
0.23755869269371033 -0.06805162131786346 -0.40706366300582886
0.035249583423137665 -0.34232398867607117 -0.07249214500188828
-0.16413633525371552 0.405462384223938 0.14716291427612305
0.563201904296875 -0.14845329523086548 -0.026692697778344154
-0.4482784867286682 -0.18400706350803375 -0.026692697778344154
-0.4440760016441345 -0.024167492985725403 0.2672927975654602
-0.4440760016441345 -0.19258980453014374 0.1644679754972458
0.448743611574173 -0.39726585149765015 -0.38699597120285034
0.7467101812362671 -0.2252347469329834 -0.3347282409667969
0.035249583423137665 0.016611695289611816 -0.03574457764625549
0.9999989867210388 0.2394218146800995 0.046310365200042725
-0.16413633525371552 0.16182637214660645 0.2462182343006134
-0.919539749622345 0.25796571373939514 -0.023433135822415352
0.07563561201095581 -0.2369784116744995 -0.026692697778344154
-0.8792370557785034 -0.11421941965818405 -0.026692697778344154
0.6487000584602356 -0.029133930802345276 -0.026692697778344154
-0.0016794183757156134 0.34114012122154236 0.27281200885772705
-0.16413633525371552 0.07710228115320206 0.07834915071725845
0.07755953073501587 0.3880643844604492 -0.026692697778344154
0.21293455362319946 0.15042535960674286 -0.40706366300582886
0.035249583423137665 -0.49755799770355225 -0.08009042590856552
-0.45421797037124634 -0.13447070121765137 0.27281200885772705
0.6253284811973572 0.4349019229412079 0.011297807097434998
0.8890514373779297 -0.11461687088012695 -0.373226135969162
0.035249583423137665 -0.4039691984653473 -0.03885761648416519
-0.5776180028915405 -0.571496307849884 0.23284567892551422
-0.709381103515625 0.14440613985061646 0.27281200885772705
0.14520283043384552 -0.08117279410362244 -0.40706366300582886
0.41381311416625977 -0.417432963848114 -0.0943843275308609
0.6291579008102417 0.3368181884288788 0.27281200885772705
0.115878164768219 -0.06433499604463577 0.07364729046821594
-0.6372933983802795 -0.20344673097133636 0.27281200885772705
-0.5958082675933838 0.04970857873558998 0.27281200885772705
0.035249583423137665 -0.6339559555053711 -0.23450784385204315
0.7725389003753662 -0.18150657415390015 -0.026692697778344154
0.035249583423137665 -0.5176652669906616 -0.22399578988552094
0.5013879537582397 -0.015315382741391659 -0.026692697778344154
0.508647084236145 -0.3167838454246521 -0.026692697778344154
-0.16413633525371552 0.26833152770996094 0.025317298248410225
0.31132739782333374 0.052196625620126724 -0.018415210768580437
0.43593162298202515 0.1039280965924263 -0.40706366300582886
-0.4440760016441345 -0.3347809910774231 0.0827016532421112
-0.7243813276290894 -0.4605516195297241 0.27281200885772705
0.20458121597766876 -0.38084113597869873 -0.026692697778344154
0.31132739782333374 0.16059944033622742 0.1789952665567398
-0.8242641091346741 -0.02324654534459114 0.27281200885772705
0.5245352387428284 0.25077271461486816 0.10890468955039978
0.6496461033821106 -0.17922921478748322 -0.026692697778344154
-0.4440760016441345 -0.1961190104484558 0.016468515619635582
0.18112124502658844 -0.06433499604463577 0.2641321122646332
0.035249583423137665 -0.23564548790454865 -0.17683450877666473
0.31132739782333374 0.40563878417015076 0.22188903391361237
0.035249583423137665 -0.2585323452949524 -0.18741224706172943
-0.5658096671104431 0.4111287295818329 0.14223355054855347
-0.4492153525352478 -0.14628124237060547 0.27281200885772705
0.6916158199310303 0.22481538355350494 -0.026692697778344154
-0.8249340057373047 0.1331232637166977 0.27281200885772705
0.11610832810401917 -0.5893129110336304 -0.38656681776046753
-0.16413633525371552 0.1447729915380478 0.18223586678504944
0.8666132688522339 0.270540714263916 -0.026692697778344154
0.035249583423137665 -0.055894285440444946 -0.21534544229507446
0.9282993674278259 0.18924564123153687 -0.00927037838846445
0.9999989867210388 0.3187094032764435 0.12406284362077713
0.2986234724521637 -0.48393771052360535 -0.31251999735832214
-0.16413633525371552 0.005236025433987379 0.26599249243736267
0.31132739782333374 0.13820892572402954 0.2308974266052246
-0.47726574540138245 0.09639782458543777 0.27281200885772705
0.37267205119132996 -0.44118577241897583 -0.11771169304847717
-0.919539749622345 0.1702582985162735 0.2491336166858673
0.5280705690383911 0.4349019229412079 0.08753181248903275
0.26715028285980225 -0.34871816635131836 -0.40706366300582886
-0.6985130906105042 0.4111287295818329 0.14405034482479095
0.06859362870454788 -0.5018414855003357 -0.40706366300582886
0.9999989867210388 0.37932196259498596 0.08368974924087524
0.5310133099555969 0.09209653735160828 -0.3738822638988495
0.8627611994743347 0.3741307556629181 0.27281200885772705
0.035249583423137665 0.16950426995754242 -0.2340886890888214
0.010523244738578796 0.4269775450229645 0.05200817808508873
0.8203107714653015 0.20750750601291656 0.27281200885772705
0.533601701259613 0.3480502963066101 0.27281200885772705
0.035249583423137665 0.033268749713897705 -0.36953216791152954
0.19338901340961456 0.24027439951896667 0.27281200885772705
-0.7582102417945862 0.4111287295818329 0.13027143478393555
-0.8597065210342407 0.4111287295818329 0.17251820862293243
0.9830922484397888 0.4349019229412079 0.16605068743228912
0.2369886338710785 0.1429021656513214 -0.026692697778344154
-0.8780555725097656 -0.571496307849884 -0.006705541629344225
0.46391919255256653 -0.38788530230522156 -0.026692697778344154
0.055108051747083664 -0.35972723364830017 -0.026692697778344154
-0.14933517575263977 0.20064260065555573 -0.026692697778344154
0.5127285122871399 -0.3603241443634033 -0.3480578362941742
0.035249583423137665 -0.39266619086265564 -0.23966604471206665
-0.6631574034690857 -0.36359649896621704 -0.026692697778344154
0.6974680423736572 -0.004006131552159786 -0.33434200286865234
0.6306034326553345 0.03459818288683891 -0.33637967705726624
0.035249583423137665 -0.38700518012046814 -0.13934172689914703
-0.06478226184844971 -0.06433499604463577 0.2566571533679962
-0.8368577361106873 0.4111287295818329 0.040781110525131226
-0.4440760016441345 0.2671956717967987 0.20691071450710297
-0.6623472571372986 -0.504905641078949 -0.026692697778344154
0.5333479642868042 -0.07600382715463638 -0.026692697778344154
0.2685239613056183 -0.3146373927593231 -0.026692697778344154
-0.919539749622345 -0.09830879420042038 0.14114199578762054
0.08979156613349915 -0.19716554880142212 -0.026692697778344154
-0.4440760016441345 -0.5560634136199951 -0.0043071117252111435
0.2714793086051941 -0.43508923053741455 -0.026692697778344154
0.035249583423137665 -0.3002934157848358 -0.207525834441185
0.38026341795921326 0.17913204431533813 -0.09270381927490234
-0.014242677949368954 -0.06433499604463577 -0.016579732298851013
0.8822018504142761 -0.14700859785079956 -0.3407815098762512
0.3627725839614868 -0.44690126180648804 -0.3615552484989166
0.035249583423137665 -0.6024166345596313 -0.08112787455320358
0.23748257756233215 -0.38963961601257324 -0.40706366300582886
-0.720940887928009 -0.45592471957206726 -0.026692697778344154
-0.5350077152252197 0.13966849446296692 0.27281200885772705
0.5710538029670715 0.4349019229412079 0.10526680201292038
0.04378572851419449 -0.1785527765750885 -0.40706366300582886
-0.4440760016441345 -0.05685194209218025 0.02483632043004036
0.5245352387428284 0.24605517089366913 0.26531779766082764
-0.919539749622345 -0.255256325006485 -0.007354102097451687
0.5586930513381958 0.07611566036939621 -0.15702514350414276
-0.8325823545455933 0.35288238525390625 0.27281200885772705
-0.7312225699424744 -0.3498431444168091 0.27281200885772705
-0.16413633525371552 0.13092468678951263 0.01635822467505932
0.03791363537311554 -0.634458601474762 -0.20438095927238464
-0.919539749622345 -0.30043238401412964 0.03038308396935463
0.6703197956085205 0.011667916551232338 -0.3652878999710083
0.4640527665615082 -0.38842710852622986 -0.36622145771980286
0.20204788446426392 -0.19477786123752594 -0.40706366300582886
-0.919539749622345 0.015547866001725197 0.0023684862535446882
0.18968752026557922 0.3913573622703552 0.27281200885772705
-0.8704585433006287 0.2953568398952484 -0.026692697778344154
0.7306832671165466 -0.2344878613948822 -0.2784534990787506
-0.6160416007041931 0.011545591056346893 -0.026692697778344154
0.2232617288827896 0.26977699995040894 -0.3805149495601654
0.08184618502855301 -0.06433499604463577 0.21242205798625946
-0.4440760016441345 -0.24137330055236816 0.12463992089033127
0.035249583423137665 -0.4091770052909851 -0.14338348805904388
-0.4841040372848511 -0.571496307849884 0.21651709079742432
0.25963401794433594 -0.40491852164268494 -0.40706366300582886
-0.7104616761207581 -0.2201489806175232 -0.026692697778344154
0.6087682247161865 -0.24255234003067017 -0.026692697778344154
-0.1288328319787979 -0.06433499604463577 0.19258064031600952
0.2930253744125366 -0.20372775197029114 -0.40706366300582886
-0.919539749622345 -0.520268976688385 0.10734066367149353
0.07468697428703308 0.28491973876953125 -0.026692697778344154
0.3727759122848511 -0.4411258101463318 -0.1492055207490921
-0.919539749622345 0.1413935422897339 0.24144983291625977
0.31132739782333374 0.06153697147965431 0.19528092443943024
-0.4440760016441345 -0.43076246976852417 0.13466393947601318
0.6211045980453491 0.040082335472106934 -0.18320491909980774
0.08311484009027481 0.3941764235496521 -0.026692697778344154
0.5915746092796326 0.05570153519511223 -0.026692697778344154
-0.919539749622345 0.2883347272872925 0.13476940989494324
0.12038957327604294 0.4269775450229645 0.0626608207821846
0.7504518628120422 0.2876085340976715 0.27281200885772705
-0.08799607306718826 0.40031030774116516 -0.026692697778344154
0.31132739782333374 0.1344733089208603 0.10332613438367844
0.23228326439857483 -0.22734975814819336 -0.026692697778344154
0.035249583423137665 0.06667522341012955 -0.3669065237045288
-0.5752766132354736 0.3858380615711212 0.27281200885772705
0.783056914806366 -0.20424993336200714 -0.09893276542425156
-0.6301108002662659 -0.5638324618339539 -0.026692697778344154
0.42963749170303345 -0.40829676389694214 -0.30619677901268005
-0.4644484221935272 0.33716824650764465 0.27281200885772705
0.37194815278053284 0.14458517730236053 -0.026692697778344154
-0.47021937370300293 0.28542831540107727 -0.026692697778344154
0.011912334710359573 0.4269775450229645 0.06508524715900421
-0.09489258378744125 -0.06433499604463577 0.06301672011613846
-0.894275963306427 -0.2947852313518524 0.27281200885772705
0.2099376916885376 0.14095419645309448 0.27281200885772705
-0.4440760016441345 0.1304078996181488 0.014431669376790524
0.07893283665180206 -0.41269421577453613 -0.026692697778344154
0.06647307425737381 0.3602990210056305 -0.34875333309173584
0.8740615844726562 0.4349019229412079 0.24997229874134064
0.059283483773469925 -0.4691089391708374 -0.40706366300582886
0.37273040413856506 -0.07002758979797363 -0.40706366300582886
-0.4440760016441345 -0.3775401711463928 0.07483713328838348
0.5129837989807129 -0.3458404839038849 -0.026692697778344154
0.33278265595436096 -0.03290444612503052 -0.40706366300582886
0.035249583423137665 0.36913183331489563 -0.2770410180091858
0.4355924725532532 -0.40485867857933044 -0.21825723350048065
-0.7053960561752319 0.3247920870780945 0.27281200885772705
0.035249583423137665 -0.18144220113754272 -0.2153891772031784
-0.8140087723731995 0.10009472817182541 -0.026692697778344154
-0.08024592697620392 0.03651333227753639 -0.026692697778344154
-0.017748547717928886 0.17062821984291077 -0.026692697778344154
-0.4821067750453949 -0.20957699418067932 -0.026692697778344154
0.4428745210170746 -0.2762446403503418 -0.40706366300582886
0.30754464864730835 0.4269775450229645 0.24621644616127014
-0.7438479661941528 -0.4166622757911682 0.27281200885772705
0.18206924200057983 0.37038344144821167 0.27281200885772705
0.5759249925613403 0.18924564123153687 0.16682372987270355
0.13210934400558472 0.11479585617780685 0.27281200885772705
0.07962814718484879 0.020234568044543266 -0.026692697778344154
0.035249583423137665 0.2360023707151413 -0.04460355266928673
0.7403245568275452 -0.22892147302627563 -0.030384663492441177
-0.494830846786499 0.4111287295818329 0.1557355672121048
-0.05797233060002327 0.1342211365699768 0.27281200885772705
0.16580721735954285 0.2989693284034729 -0.40706366300582886
0.393449991941452 -0.42918962240219116 -0.044398821890354156
-0.4440760016441345 0.26602378487586975 0.01669890061020851
0.23062284290790558 0.007408584002405405 0.27281200885772705
-0.1534699946641922 0.2348518967628479 -0.026692697778344154
0.1797325611114502 0.2949085831642151 -0.351642906665802
-0.4440760016441345 -0.45518964529037476 0.2631770074367523
-0.02604590728878975 0.05057624727487564 0.27281200885772705
0.2178037315607071 0.059911035001277924 -0.40706366300582886
0.4486830234527588 0.13962997496128082 -0.38386672735214233
0.4194290339946747 0.03935837745666504 -0.026692697778344154
0.5245352387428284 0.24722255766391754 0.10632245987653732
-0.919539749622345 0.1356811821460724 0.16614706814289093
0.035249583423137665 -0.4155336916446686 -0.1211431697010994
-0.16413633525371552 0.3381282687187195 0.18237434327602386
-0.4440760016441345 -0.34901168942451477 0.12965816259384155
-0.7667044401168823 -0.4554247558116913 -0.026692697778344154
0.035249583423137665 0.23328305780887604 -0.11344989389181137
0.9412215948104858 0.4349019229412079 0.021630696952342987
0.10583260655403137 -0.18631304800510406 -0.026692697778344154
0.2618325352668762 0.4269775450229645 0.1095079705119133
0.6187345385551453 -0.29912152886390686 -0.1190018430352211
0.31132739782333374 0.2030343860387802 0.04477803409099579
0.6876452565193176 -0.17310214042663574 -0.026692697778344154
0.26288294792175293 -0.4159497022628784 -0.40706366300582886
-0.9129139184951782 0.2896997034549713 -0.026692697778344154
0.1124950498342514 -0.5913990139961243 -0.28124988079071045
0.5421509742736816 0.012627833522856236 -0.026692697778344154
0.2572495639324188 0.25015416741371155 -0.27224233746528625
-0.47186270356178284 -0.3110172748565674 0.27281200885772705
0.17957507073879242 -0.552670419216156 -0.05589292570948601
0.035249583423137665 -0.5135738253593445 -0.09041404724121094
0.3020344078540802 0.22429759800434113 -0.21749922633171082
0.9624729156494141 0.22058139741420746 -0.026692697778344154
0.5446485280990601 0.4349019229412079 0.17229491472244263
-0.4440760016441345 -0.23260021209716797 0.07889548689126968
0.5300431251525879 0.0926566943526268 -0.10041319578886032
0.035249583423137665 0.2791479527950287 -0.28072458505630493
-0.14275044202804565 0.0610203817486763 -0.026692697778344154
-0.14032281935214996 0.23434770107269287 -0.026692697778344154
0.31132739782333374 0.15826545655727386 0.23969034850597382
0.035249583423137665 -0.6218047142028809 -0.3227945566177368
0.4285896420478821 -0.3640972077846527 -0.026692697778344154
-0.14839433133602142 0.23889721930027008 -0.026692697778344154
-0.5130518078804016 -0.2603591978549957 0.27281200885772705
0.08377131074666977 -0.23718246817588806 -0.026692697778344154
-0.8253926038742065 0.25518128275871277 -0.026692697778344154
-0.4440760016441345 -0.2668044865131378 0.04030890762805939
-0.8305203318595886 0.36972907185554504 0.27281200885772705
-0.8590735793113708 -0.3167870044708252 0.27281200885772705
0.035249583423137665 -0.34872233867645264 -0.10803639143705368
0.6717342734336853 0.4349019229412079 0.12245544046163559
0.5347208976745605 -0.18464738130569458 -0.026692697778344154
-0.16413633525371552 0.3158487379550934 0.02076035365462303
-0.8999986052513123 -0.0716756209731102 -0.026692697778344154
0.22117748856544495 -0.528651237487793 -0.39380428194999695
-0.16413633525371552 0.3653888702392578 0.0835024043917656
-0.919539749622345 0.36998021602630615 0.12582416832447052
-0.8195700645446777 -0.12040374428033829 0.27281200885772705
0.4210183024406433 -0.37015265226364136 -0.40706366300582886
0.035249583423137665 0.17533275485038757 -0.03867638111114502
0.7803775072097778 -0.20579689741134644 -0.2943367063999176
-0.919539749622345 0.04077516123652458 -0.016179455444216728
0.22938169538974762 -0.3711783289909363 -0.40706366300582886
0.696897029876709 0.18924564123153687 0.08027790486812592
0.035249583423137665 -0.00484657846391201 -0.24680624902248383
0.035249583423137665 -0.635018527507782 -0.03352460637688637
-0.5494375824928284 -0.0522167831659317 -0.026692697778344154
0.7779770493507385 0.21506661176681519 -0.026692697778344154
0.035249583423137665 0.21699346601963043 -0.11913073062896729
-0.16413633525371552 0.2735077440738678 0.20734050869941711
-0.4440760016441345 0.12056255340576172 0.030810358002781868
-0.6900227069854736 -0.571496307849884 0.21367651224136353
0.5282632112503052 -0.2468412220478058 -0.40706366300582886
-0.6538404822349548 0.4111287295818329 0.021721068769693375
0.5705251693725586 -0.03138038143515587 -0.026692697778344154
-0.5170460939407349 -0.440125048160553 -0.026692697778344154
-0.5911985635757446 -0.3787843883037567 0.27281200885772705
-0.4440760016441345 0.2436220645904541 0.18475466966629028
-0.8560275435447693 -0.27022796869277954 0.27281200885772705
-0.6142200231552124 -0.268980473279953 -0.026692697778344154
0.3061438500881195 0.4269775450229645 0.08977340906858444
-0.919539749622345 0.027849718928337097 0.01328749768435955
-0.16413633525371552 0.4075089395046234 0.04055234044790268
0.21448758244514465 0.24118949472904205 -0.40706366300582886
-0.919539749622345 -0.03136960417032242 0.09820419549942017
-0.88581782579422 0.08713303506374359 0.27281200885772705
0.9999989867210388 0.2847309410572052 0.1781352311372757
0.8630470037460327 0.4349019229412079 0.2076718956232071
-0.16413633525371552 0.14744634926319122 0.07938845455646515
-0.5911778807640076 -0.29421523213386536 -0.026692697778344154
-0.5221479535102844 -0.03207217901945114 -0.026692697778344154
0.5185888409614563 0.09926985204219818 -0.1343279480934143
0.6355820298194885 -0.2840552031993866 -0.026692697778344154
0.31132739782333374 -0.02163390815258026 0.03437279537320137
0.31132739782333374 0.13692212104797363 0.024733170866966248
0.6432825922966003 0.4349019229412079 0.09842819720506668
0.20725882053375244 0.27901628613471985 -0.2390175759792328
0.16024485230445862 -0.03138992190361023 -0.026692697778344154
0.6781083345413208 -0.26484203338623047 -0.03139037266373634
-0.8426101803779602 -0.4601813852787018 -0.026692697778344154
0.25016844272613525 0.21403445303440094 -0.026692697778344154
0.2953738570213318 -0.31517237424850464 -0.40706366300582886
0.2526853680610657 0.1566634178161621 -0.026692697778344154
-0.7503650784492493 0.3959362804889679 0.27281200885772705
0.21730537712574005 0.2732159197330475 -0.40672844648361206
0.2837575674057007 -0.4925205409526825 -0.3591446280479431
-0.7291118502616882 -0.022521482780575752 -0.026692697778344154
-0.5080854892730713 -0.3978404402732849 -0.026692697778344154
-0.8194339275360107 -0.45442521572113037 -0.026692697778344154
-0.4440760016441345 0.2296619564294815 0.10657139122486115
0.31132739782333374 0.2741888761520386 0.13370341062545776
0.27713167667388916 0.2745814621448517 0.27281200885772705
-0.4440760016441345 -0.13781952857971191 0.014794105663895607
-0.16413633525371552 0.3030685484409332 0.0734516829252243
0.32251521944999695 -0.2014359086751938 -0.026692697778344154
0.16032707691192627 -0.2203199714422226 -0.026692697778344154
-0.4452719986438751 0.4111287295818329 0.18683332204818726
-0.45641008019447327 0.36423590779304504 -0.026692697778344154
-0.8727368712425232 0.4111287295818329 0.18048220872879028
0.9999989867210388 0.193489670753479 0.15638794004917145
0.3348953127861023 0.09678605198860168 -0.40706366300582886
-0.6443942785263062 -0.5399324297904968 0.27281200885772705
0.3393787741661072 0.20273680984973907 -0.12717057764530182
0.08364152908325195 0.1423817276954651 -0.026692697778344154
-0.4801574647426605 -0.18048317730426788 -0.026692697778344154
0.9999989867210388 0.43337246775627136 0.2685020864009857
-0.919539749622345 -0.14990513026714325 0.11608249694108963
-0.03422918543219566 0.1479834020137787 0.27281200885772705
0.9554319381713867 0.27183306217193604 0.27281200885772705
0.19446121156215668 0.4269775450229645 0.08657222986221313
0.598633885383606 0.18924564123153687 0.03970128297805786
0.40303364396095276 0.16598565876483917 -0.3516618311405182
0.8686596751213074 -0.15482714772224426 -0.08385778963565826
-0.7651845216751099 -0.3403935134410858 0.27281200885772705
0.06517408043146133 0.4123910069465637 -0.026692697778344154
0.12900511920452118 0.3133118152618408 -0.026692697778344154
0.09050601720809937 0.09129606932401657 0.27281200885772705
0.3000223934650421 -0.2891169786453247 -0.40706366300582886
-0.6363043189048767 -0.17387889325618744 -0.026692697778344154
0.09023603051900864 0.09849286079406738 0.27281200885772705
0.8354491591453552 0.33481648564338684 -0.026692697778344154
0.035249583423137665 -0.45741069316864014 -0.09987873584032059
-0.4440760016441345 0.3915226459503174 0.24474464356899261
0.29933446645736694 0.02715984731912613 -0.026692697778344154
0.23960144817829132 -0.10351086407899857 -0.40706366300582886
-0.6110228896141052 -0.571496307849884 0.23276858031749725
0.1970931589603424 0.3637647330760956 0.27281200885772705
0.21508409082889557 -0.01121941115707159 0.27281200885772705
0.08982351422309875 -0.3695616126060486 -0.40706366300582886
0.5229480862617493 -0.3544238805770874 -0.1858430653810501
-0.8519078493118286 0.4111287295818329 0.13786078989505768
0.2999107837677002 -0.0025953385047614574 -0.026692697778344154
0.07889453321695328 0.015530413947999477 -0.026692697778344154
0.10724441707134247 -0.49575525522232056 -0.40706366300582886
-0.8585906624794006 0.12430919706821442 -0.026692697778344154
-0.4440760016441345 -0.05604376271367073 0.2324914038181305
0.32749083638191223 -0.18169227242469788 -0.40706366300582886
0.035249583423137665 0.36901575326919556 -0.2040788233280182
0.9989928007125854 0.2361961454153061 0.27281200885772705
0.9406331181526184 0.21235647797584534 -0.026692697778344154
-0.4522978365421295 0.3750138282775879 0.27281200885772705
-0.6056515574455261 -0.5136629343032837 -0.026692697778344154
0.13483940064907074 -0.05602612346410751 -0.40706366300582886
-0.602721095085144 -0.32261696457862854 0.27281200885772705
0.1443144679069519 0.15498723089694977 -0.40706366300582886
0.37073373794555664 -0.44230490922927856 -0.40121105313301086
0.2852219045162201 -0.259288489818573 -0.026692697778344154
0.9025511145591736 0.18924564123153687 0.20701323449611664
0.035249583423137665 -0.011367072351276875 -0.32987165451049805
0.7148044109344482 -0.014015299268066883 -0.33858177065849304
0.8342189788818359 -0.17471154034137726 -0.19690440595149994
-0.6084528565406799 -0.29462912678718567 -0.026692697778344154
0.9037191271781921 0.4349019229412079 0.09726028144359589
0.035249583423137665 0.008270062506198883 -0.3997713327407837
0.1462976187467575 0.40056461095809937 -0.026692697778344154
0.12320376187562943 -0.5852164030075073 -0.184030219912529
0.6645431518554688 -0.18019460141658783 -0.026692697778344154
0.2942263185977936 -0.10543568432331085 -0.026692697778344154
0.4230287969112396 0.08425639569759369 -0.026692697778344154
0.8373933434486389 -0.17287878692150116 -0.2632876932621002
0.04635504260659218 -0.4976271688938141 -0.026692697778344154
0.035249583423137665 -0.561485767364502 -0.3579666316509247
0.6988071203231812 -0.24800629913806915 -0.40706366300582886
-0.5058323740959167 -0.571496307849884 0.024655945599079132
0.8523266911506653 0.28097987174987793 0.27281200885772705
0.6609228849411011 0.2649877071380615 0.27281200885772705
0.9198697209358215 0.38538607954978943 0.27281200885772705
-0.4440760016441345 -0.23797087371349335 0.17702235281467438
-0.8574651479721069 0.23562979698181152 -0.026692697778344154
0.11802437901496887 -0.3052385747432709 -0.026692697778344154
-0.4440760016441345 0.007377155125141144 0.10073738545179367
-0.8200213313102722 0.4111287295818329 0.025275472551584244
0.11548300832509995 -0.5896739363670349 -0.2917042672634125
0.09082947671413422 -0.5773761868476868 -0.026692697778344154
0.46862539649009705 0.0907541960477829 -0.40706366300582886
-0.8484470844268799 0.0120582589879632 -0.026692697778344154
0.47751152515411377 0.12298581749200821 -0.07338117808103561
0.9348276853561401 0.24521984159946442 0.27281200885772705
-0.032546814531087875 0.020864535123109818 0.27281200885772705
-0.6373392343521118 0.4111287295818329 -0.0029836143366992474
0.6238747835159302 -0.042666543275117874 -0.026692697778344154
0.1568569540977478 0.3796480596065521 -0.026692697778344154
0.3233000338077545 0.1892423927783966 -0.40706366300582886
-0.8571619391441345 0.20662525296211243 0.27281200885772705
0.5358482599258423 0.18924564123153687 -0.010852665640413761
-0.8816925883293152 0.4111287295818329 0.24413783848285675
-0.11733364313840866 -0.034280925989151 0.27281200885772705
-0.919539749622345 0.3753335177898407 0.05996078997850418
0.035249583423137665 -0.18055228888988495 -0.3837682902812958
0.7803276777267456 0.4349019229412079 0.10192885249853134
0.5858452916145325 0.06043929606676102 -0.16741777956485748
-0.4689056873321533 0.12135534733533859 -0.026692697778344154
0.035249583423137665 -0.12400191277265549 -0.12203768640756607
0.5245352387428284 0.2715247869491577 0.255751371383667
-0.4440760016441345 -0.2617739140987396 0.17460134625434875
-0.5219395756721497 -0.48342442512512207 -0.026692697778344154
-0.919539749622345 -0.33711835741996765 0.010470620356500149
-0.49473175406455994 -0.023471156135201454 0.27281200885772705
0.4658679962158203 -0.2733209729194641 -0.40706366300582886
-0.5498831272125244 -0.10541165620088577 -0.026692697778344154
-0.919539749622345 -0.5176314115524292 0.039256542921066284
0.8713473081588745 -0.10439535230398178 -0.04168160259723663
0.5245352387428284 0.19390694797039032 -0.0008928292081691325
0.9999989867210388 0.43113160133361816 0.15143491327762604
0.6423752903938293 0.4349019229412079 0.03788710758090019
0.502323567867279 0.10866060107946396 -0.30783262848854065
-0.7276917099952698 -0.08023212105035782 0.27281200885772705
0.34541770815849304 -0.4569210708141327 -0.351794570684433
-0.8270118832588196 -0.5179579854011536 0.27281200885772705
-0.058814290910959244 0.4269775450229645 0.1888808161020279
0.31132739782333374 0.1338183879852295 0.21422021090984344
-0.8149014711380005 0.4111287295818329 0.15667933225631714
0.9999989867210388 0.3788488209247589 0.001484694890677929
0.4591563940048218 -0.0024383848067373037 -0.40706366300582886
-0.919539749622345 -0.2468297779560089 0.1725284606218338
0.20133690536022186 -0.11722034960985184 -0.026692697778344154
0.5245352387428284 0.2109394073486328 0.2425786554813385
0.06640727072954178 0.07927729934453964 -0.026692697778344154
0.31781914830207825 0.2151842564344406 -0.2505479156970978
0.12671536207199097 -0.114937424659729 -0.40706366300582886
0.3359944522380829 0.20469073951244354 -0.03670471906661987
0.26202481985092163 0.4269775450229645 -0.00297535234130919
-0.8191789388656616 0.2348061203956604 0.27281200885772705
0.31132739782333374 0.42397743463516235 0.07238629460334778
-0.4440760016441345 -0.17211991548538208 0.15109087526798248
0.6116535067558289 -0.06406269967556 -0.026692697778344154
-0.8541930913925171 -0.571496307849884 0.05030164122581482
0.9999989867210388 0.35643425583839417 0.02518378011882305
0.14407411217689514 0.20372089743614197 -0.40706366300582886
-0.4534035325050354 0.2161068320274353 0.27281200885772705
-0.48566246032714844 0.4111287295818329 0.2054322212934494
-0.8480331301689148 -0.05980256572365761 -0.026692697778344154
-0.4615209102630615 0.16822634637355804 -0.026692697778344154
0.035249583423137665 0.19499719142913818 -0.2555540204048157
0.5245352387428284 0.3891621232032776 0.25341588258743286
0.14318512380123138 0.27845340967178345 0.27281200885772705
-0.16413633525371552 0.3102981448173523 0.25687339901924133
0.050261735916137695 0.16624921560287476 -0.026692697778344154
0.6836135387420654 -0.26166361570358276 -0.10129207372665405
-0.16413633525371552 0.05697929114103317 -0.010647190734744072
-0.507185161113739 -0.571496307849884 0.1568760722875595
0.035249583423137665 -0.4220065176486969 -0.35737961530685425
0.31132739782333374 0.20740503072738647 0.10169398784637451
0.6818483471870422 -0.2626827359199524 -0.14942218363285065
-0.7084866762161255 -0.03000248409807682 0.27281200885772705
0.3421136438846588 -0.45882871747016907 -0.15717224776744843
0.035249583423137665 -0.6241955161094666 -0.327607125043869
-0.12360195815563202 0.4269775450229645 0.010713822208344936
-0.6484110355377197 0.4111287295818329 0.02351631596684456
0.6349999904632568 -0.07050305604934692 -0.026692697778344154
0.5701850652694702 -0.2186039537191391 -0.40706366300582886
0.20622438192367554 0.0158709604293108 -0.026692697778344154
0.23537790775299072 -0.06433499604463577 0.2545112073421478
-0.9132508039474487 -0.38839319348335266 0.27281200885772705
0.2396458089351654 0.35960498452186584 -0.026692697778344154
0.8059051036834717 0.18924564123153687 0.24311122298240662
-0.9095348119735718 0.4111287295818329 0.20966161787509918
0.31132739782333374 0.07979778945446014 0.013301903381943703
-0.919539749622345 -0.4718068838119507 0.1580164134502411
0.5953431129455566 0.05495573580265045 -0.27961793541908264
-0.4440760016441345 0.12483064830303192 0.18817611038684845
-0.6118898987770081 -0.47666510939598083 0.27281200885772705
-0.8543559312820435 0.26469913125038147 -0.026692697778344154
-0.5876715183258057 -0.462813138961792 0.27281200885772705
0.48393747210502625 0.11927579343318939 -0.03884226828813553
-0.8251892328262329 0.14506889879703522 0.27281200885772705
-0.5570856928825378 -0.571496307849884 0.26149341464042664
0.036527834832668304 -0.6352587342262268 -0.16718026995658875
-0.16413633525371552 0.4106886386871338 0.159419447183609
0.7395495772361755 -0.22936893999576569 -0.12990689277648926
0.40596145391464233 -0.3084968626499176 -0.40706366300582886
0.2675057649612427 0.26767298579216003 -0.026692697778344154
0.45644810795783997 0.13514679670333862 -0.29917576909065247
0.4180522561073303 0.13554996252059937 -0.40706366300582886
-0.7656288743019104 0.09296651184558868 0.27281200885772705
0.6640166640281677 0.27632883191108704 0.27281200885772705
0.3292976915836334 -0.4223656952381134 -0.40706366300582886
0.07226195931434631 0.3440731167793274 -0.40706366300582886
0.7405347228050232 -0.22880017757415771 -0.032870832830667496
0.16052016615867615 -0.5636717081069946 -0.23727989196777344
0.3729124069213867 -0.043380048125982285 -0.40706366300582886
0.5245352387428284 0.20445892214775085 0.0223406869918108
0.035249583423137665 0.3014860153198242 -0.07093875855207443
-0.919539749622345 0.0876852348446846 0.1747240424156189
0.14689642190933228 0.3138665556907654 -0.371893048286438
-0.4440760016441345 -0.049804747104644775 0.054181039333343506
-0.4501796364784241 -0.571496307849884 0.045043423771858215
-0.919539749622345 0.40526601672172546 0.045250553637742996
0.035249583423137665 -0.3891849219799042 -0.3282831013202667
0.33965498208999634 -0.29326358437538147 -0.026692697778344154
0.31132739782333374 0.39772194623947144 0.0017846348928287625
-0.5145477652549744 0.27860164642333984 0.27281200885772705
-0.4440760016441345 -0.11814169585704803 0.033329304307699203
-0.12756022810935974 -0.06433499604463577 0.1844998598098755
-0.1473783403635025 0.30761030316352844 0.27281200885772705
0.1820182204246521 0.2373664677143097 -0.40706366300582886
-0.8373810052871704 0.02200332283973694 0.27281200885772705
-0.7655845880508423 0.4111287295818329 0.26257556676864624
0.5964496731758118 0.05431687459349632 -0.14471931755542755
-0.919539749622345 0.3660516142845154 0.05684475973248482
0.6063993573188782 0.18924564123153687 0.12241557985544205
0.12245071679353714 0.08410722017288208 -0.026692697778344154
-0.4440760016441345 -0.2299279123544693 -0.009975584223866463
0.5305166244506836 -0.041910842061042786 -0.40706366300582886
0.1709260642528534 0.4269775450229645 0.1388622671365738
-0.021570799872279167 -0.03405196592211723 0.27281200885772705
-0.7157111167907715 0.18336576223373413 0.27281200885772705
0.16554135084152222 -0.281288206577301 -0.40706366300582886
0.8962880373001099 -0.13887590169906616 -0.07492969185113907
0.6309313774108887 0.2876056432723999 -0.026692697778344154
0.4110144078731537 0.05855364352464676 -0.40706366300582886
-0.8033949136734009 -0.0755583643913269 0.27281200885772705
0.035249583423137665 -0.29877811670303345 -0.34595170617103577
0.2613278329372406 -0.47686490416526794 -0.026692697778344154
0.035249583423137665 0.17432475090026855 -0.21111200749874115
0.3321220874786377 -0.4185129702091217 -0.026692697778344154
0.14196665585041046 -0.369926780462265 -0.026692697778344154
-0.5787099003791809 -0.13767367601394653 0.27281200885772705
0.2715890109539032 -0.14514680206775665 -0.026692697778344154
0.4626161754131317 0.13158565759658813 -0.056764401495456696
0.36690881848335266 -0.3188832998275757 -0.40706366300582886
-0.5963687896728516 -0.1612171232700348 -0.026692697778344154
-0.8340855836868286 -0.5175086259841919 -0.026692697778344154
-0.4440760016441345 -0.26961982250213623 0.11342073231935501
-0.463875949382782 0.3702382445335388 -0.026692697778344154
0.035249583423137665 0.0665987953543663 -0.2768225371837616
0.11987990140914917 0.020131513476371765 -0.026692697778344154
0.23463766276836395 0.08377543836832047 0.27281200885772705
0.22595730423927307 0.2682207524776459 -0.38815468549728394
-0.7970791459083557 -0.571496307849884 0.05625838041305542
-0.919539749622345 -0.10716957598924637 -0.014740695245563984
-0.12939518690109253 0.36741387844085693 -0.026692697778344154
-0.16413633525371552 -0.005460092332214117 0.11966852843761444
-0.906871497631073 0.01332872174680233 -0.026692697778344154
-0.4440760016441345 -0.15320542454719543 0.08119681477546692
0.6631214022636414 0.4349019229412079 0.18929727375507355
0.40133488178253174 0.16696645319461823 -0.27462708950042725
-0.4440760016441345 -0.06647283583879471 0.17577552795410156
-0.48933207988739014 -0.571496307849884 0.036057230085134506
-0.5806525945663452 0.17984099686145782 0.27281200885772705
0.20608045160770416 -0.3397718369960785 -0.026692697778344154
-0.4440760016441345 -0.289112389087677 0.14537279307842255
-0.16413633525371552 0.139751136302948 0.22724565863609314
0.07075288146734238 0.4269775450229645 0.1640111356973648
-0.017168233171105385 -0.06416869908571243 -0.026692697778344154
-0.4440760016441345 -0.0030854318756610155 0.14260701835155487
0.5245352387428284 0.39354848861694336 0.1924910992383957
0.8748610019683838 -0.1064240038394928 -0.06250914931297302
0.1569320559501648 0.3080724775791168 -0.02727814018726349
0.14724470674991608 -0.3437195420265198 -0.40706366300582886
0.8196567296981812 -0.15359821915626526 -0.40706366300582886
0.21198616921901703 0.017488492652773857 -0.026692697778344154
0.6863713264465332 0.0024005293380469084 -0.3181241750717163
-0.6104334592819214 0.07546964287757874 0.27281200885772705
0.23406730592250824 0.2635384202003479 -0.04389382526278496
0.035249583423137665 0.025672752410173416 -0.07482320070266724
0.035249583423137665 -0.2470138818025589 -0.27949798107147217
0.14436505734920502 0.3153280019760132 -0.14001798629760742
-0.04865274950861931 0.38777968287467957 -0.026692697778344154
-0.4440760016441345 -0.511193573474884 0.21089087426662445
0.04725101590156555 0.4269775450229645 0.24180720746517181
0.3055203855037689 0.28669410943984985 0.27281200885772705
0.07022028416395187 0.35813555121421814 -0.10078079253435135
0.6201112866401672 0.21512918174266815 0.27281200885772705
0.2925293743610382 0.22978530824184418 -0.34781357645988464
-0.8468072414398193 -0.40685197710990906 -0.026692697778344154
-0.4440760016441345 -0.2231776863336563 0.22722619771957397
-0.5612409710884094 -0.571496307849884 0.2200341522693634
0.035249583423137665 -0.5289072394371033 -0.11301887780427933
0.31132739782333374 0.2919017970561981 0.17248493432998657
-0.919539749622345 0.10523852705955505 0.07938338071107864
-0.16413633525371552 0.03460637107491493 0.007500692270696163
-0.8692000508308411 -0.5450101494789124 -0.026692697778344154
-0.4931541085243225 -0.026736248284578323 -0.026692697778344154
0.5245352387428284 0.33452004194259644 0.18815501034259796
0.2634584307670593 0.2465694546699524 -0.0494811125099659
0.035249583423137665 -0.49820223450660706 -0.1556171476840973
-0.05001373589038849 0.12082066386938095 -0.026692697778344154
0.6769958138465881 0.4349019229412079 0.1814957559108734
-0.16413633525371552 0.412296861410141 0.2665001153945923
0.25022071599960327 -0.03911785036325455 -0.026692697778344154
0.1356888711452484 -0.016534650698304176 -0.026692697778344154
0.31132739782333374 -0.04309564456343651 0.16844549775123596
-0.4636169373989105 -0.21043075621128082 0.27281200885772705
0.3431403934955597 -0.44880592823028564 -0.026692697778344154
-0.8788038492202759 -0.4998108148574829 -0.026692697778344154
0.5081710815429688 -0.36295539140701294 -0.40522095561027527
0.6307276487350464 -0.2654235363006592 -0.40706366300582886
-0.5501734018325806 -0.4728657901287079 -0.026692697778344154
0.21031588315963745 -0.3583923876285553 -0.026692697778344154
0.2567782998085022 0.4269775450229645 0.22691790759563446
-0.4440760016441345 -0.40857216715812683 0.14254096150398254
0.5639705657958984 -0.3198162317276001 -0.40706366300582886
-0.919539749622345 -0.001330654718913138 0.2065667062997818
0.035249583423137665 -0.23836424946784973 -0.397223562002182
0.035249583423137665 0.2657265365123749 -0.09151828289031982
0.52022784948349 -0.32842957973480225 -0.026692697778344154
-0.6267889738082886 -0.0422319695353508 0.27281200885772705
0.035249583423137665 0.3057883083820343 -0.3654324412345886
-0.919539749622345 -0.08576351404190063 0.10978299379348755
-0.505836009979248 -0.48827365040779114 -0.026692697778344154
0.4257916212081909 0.1528463363647461 -0.1373576670885086
0.8045945763587952 0.43464019894599915 -0.026692697778344154
0.283926397562027 -0.06315654516220093 -0.026692697778344154
