0.3055242896080017 -0.23589089512825012 0.2859572768211365
-0.018973615020513535 0.7738542556762695 -0.1948140412569046
0.5909254550933838 0.35189253091812134 0.09095796942710876
0.1401209533214569 -0.377189040184021 0.03234099596738815
0.37634411454200745 0.29782795906066895 0.22109265625476837
0.267592191696167 -0.001651809667237103 0.1601743847131729
0.5577064156532288 -0.15146003663539886 0.04492875561118126
0.6503040194511414 0.03966207429766655 0.1693577617406845
-0.18577514588832855 0.03984770551323891 -0.4432128667831421
-0.23850063979625702 -0.48031508922576904 0.45716455578804016
0.05380528047680855 -0.39764878153800964 0.010336555540561676
-0.27381184697151184 0.17582349479198456 -0.34084552526474
0.1123443990945816 0.2689293622970581 -0.28656673431396484
0.6503040194511414 0.10576269775629044 -0.3425340950489044
0.6503040194511414 -0.0807340070605278 0.1764490008354187
-0.39140522480010986 -0.552880048751831 -0.69336998462677
-0.0977860689163208 -0.2948399782180786 0.8540706038475037
0.5635013580322266 0.34882986545562744 0.10563796758651733
0.6503040194511414 0.21088096499443054 0.28900042176246643
-0.2736445367336273 -0.1996595710515976 -0.7129403352737427
-0.06873302906751633 -0.02649988979101181 -0.03342703729867935
-0.018995024263858795 0.5437338352203369 -0.21420297026634216
0.6503040194511414 -0.23130284249782562 -0.12945471704006195
0.3482482135295868 0.15863646566867828 0.029777489602565765
-0.3631892204284668 0.8295832872390747 0.17465312778949738
0.0017630808288231492 0.9863872528076172 -0.06549729406833649
0.4813711941242218 -0.36271554231643677 -0.020008180290460587
0.05110648646950722 -0.1709880381822586 -0.6724992990493774
0.05110648646950722 -0.3994986414909363 -0.8329935073852539
0.27099505066871643 -0.30007192492485046 0.21890577673912048
0.16514050960540771 -0.1532132774591446 -0.03745141252875328
-0.44176411628723145 0.5631571412086487 -0.029820527881383896
-0.15001219511032104 -0.3497374653816223 -0.8741835355758667
-0.2148163914680481 -0.5830903053283691 0.6924146413803101
0.5364018082618713 -0.19434228539466858 -0.30531468987464905
0.3282301425933838 -0.09829074144363403 -0.12346993386745453
-0.28175485134124756 -0.07204163074493408 0.5441581010818481
0.05110648646950722 -0.41336023807525635 0.29085391759872437
0.2695174217224121 -0.335103839635849 0.1597517430782318
0.05760142579674721 -0.08091744780540466 0.45073652267456055
0.6472347974777222 -0.023907247930765152 0.3592621088027954
0.3178693652153015 -0.015172026120126247 0.37129074335098267
-0.4013908803462982 0.8934114575386047 -0.035703789442777634
0.46482521295547485 0.26960158348083496 -0.24891792237758636
0.2505269944667816 -0.12477316707372665 -0.09642559289932251
0.5409142374992371 -0.14448939263820648 0.33304667472839355
0.2536989450454712 0.3699059784412384 0.06343261152505875
0.05110648646950722 -0.2961171865463257 -0.5303363800048828
-0.10488425940275192 0.8931642174720764 0.16790220141410828
-0.45463666319847107 -0.13613466918468475 0.37879976630210876
0.05110648646950722 0.61110919713974 -0.15582993626594543
0.05320245027542114 -0.1853848248720169 -0.4351719915866852
-0.2242259383201599 0.0941697433590889 -0.3982446491718292
0.13771562278270721 0.06933341175317764 -0.37483811378479004
0.285232275724411 0.1532175987958908 0.05183035507798195
-0.17842788994312286 -0.4377940893173218 0.33717548847198486
-0.22711612284183502 0.31151753664016724 -0.27402636408805847
-0.04754047468304634 0.9141042232513428 0.15865521132946014
0.08852817863225937 0.11313088238239288 -0.0772816613316536
-0.3566994369029999 -0.07082986831665039 -0.5359518527984619
-0.32933664321899414 -0.16970624029636383 -0.6615982055664062
-0.4536682665348053 0.4187459647655487 0.005296779330819845
0.05110648646950722 -0.2174869179725647 -0.5352769494056702
0.6503040194511414 -0.059501711279153824 -0.1971127688884735
0.3232952654361725 -0.15473231673240662 -0.030264567583799362
-0.46415579319000244 0.08598943799734116 -0.20239587128162384
0.05110648646950722 -0.43746304512023926 0.8383751511573792
0.4257104992866516 -0.3010651767253876 -0.2069500833749771
-0.05931844934821129 -0.5767700672149658 0.6185141801834106
0.04882598668336868 -0.16805385053157806 -0.6946364045143127
-0.06873302906751633 0.04076150804758072 -0.03952617943286896
0.08759807050228119 -0.00613259756937623 -0.13455592095851898
0.04287208244204521 -0.35051342844963074 0.8858098983764648
0.5850442051887512 -0.00633404403924942 -0.3610287308692932
0.311477392911911 -0.3250408172607422 0.1765703558921814
-0.14454206824302673 -0.4804579019546509 0.4454467296600342
0.012267087586224079 -0.055699754506349564 0.12334920465946198
0.05251694843173027 -0.10992191731929779 -0.4649495780467987
-0.1709837168455124 -0.583772599697113 -0.6652072072029114
-0.2828710079193115 -0.39728328585624695 0.8745785355567932
0.06324854493141174 -0.4066866636276245 0.14153756201267242
0.3877713978290558 -0.048037122935056686 0.15216206014156342
-0.06809347122907639 0.3281295597553253 0.2772218883037567
-0.42386266589164734 -0.21827150881290436 -0.6605629920959473
0.05110648646950722 0.8691327571868896 -0.17675037682056427
0.6503040194511414 0.1652621626853943 0.23676656186580658
0.3728407323360443 0.22813093662261963 0.2923051118850708
0.08289629966020584 0.4154369533061981 0.03629177808761597
0.30829283595085144 -0.0873585119843483 -0.35985657572746277
0.6503040194511414 -0.3099230229854584 -0.03942003846168518
0.07119322568178177 0.10581909865140915 0.08742199838161469
-0.4560575783252716 -0.06317547708749771 0.37599343061447144
-0.465469628572464 -0.06943366676568985 0.16613808274269104
-0.22908583283424377 -0.4359050393104553 0.34009042382240295
-0.35545483231544495 0.370246022939682 -0.24359972774982452
0.4807111918926239 0.3615841269493103 -0.06394035369157791
0.5030875205993652 0.2565935254096985 -0.26018816232681274
-0.38131117820739746 0.694252073764801 0.17610540986061096
-0.058526359498500824 -0.20918256044387817 0.7524075508117676
-0.16770464181900024 -0.38677978515625 0.04001554474234581
-0.051412396132946014 -0.07095452398061752 -0.1139414981007576
-0.10002565383911133 -0.39387431740760803 0.0972098857164383
0.0503825843334198 -0.39832600951194763 0.041223328560590744
0.05110648646950722 -0.2941705882549286 -0.6166290640830994
0.05110648646950722 -0.43310847878456116 -0.37274134159088135
-0.2688746154308319 -0.5749485492706299 0.6481326222419739
0.38008370995521545 -0.06070789322257042 0.36412373185157776
0.02939499169588089 -0.39656010270118713 -0.8898119330406189
0.04902747645974159 -0.5948594212532043 0.7201170921325684
-0.05628662183880806 -0.24027621746063232 0.8059036135673523
0.46783286333084106 0.2654155492782593 0.2542867362499237
0.32845303416252136 0.06019168347120285 -0.36549949645996094
-0.1015319675207138 0.04080681502819061 0.44928449392318726
-0.09129596501588821 -0.04277605563402176 -0.5265181064605713
-0.1199566200375557 0.6896103024482727 0.1921074092388153
0.5907673835754395 -0.1338769644498825 0.08434068411588669
-0.27972739934921265 -0.060944441705942154 0.5324298739433289
0.6503040194511414 -0.24792538583278656 -0.05983462184667587
0.4321497976779938 -0.026955729350447655 -0.15645141899585724
-0.1519613415002823 0.3104185461997986 -0.2787882685661316
-0.25294724106788635 -0.38352859020233154 0.06568266451358795
0.11963200569152832 -0.10453782230615616 -0.372643381357193
-0.21053165197372437 0.5938169956207275 -0.19565726816654205
-0.46477171778678894 -0.18541298806667328 -0.07566510885953903
0.5474132895469666 -0.33853331208229065 -0.12541213631629944
-0.3716796040534973 -0.3940116763114929 -0.20271655917167664
-0.3561266362667084 -0.5045075416564941 0.5210000276565552
0.40639111399650574 -0.2652309834957123 0.2536432147026062
0.05110648646950722 0.6716506481170654 -0.09619531780481339
-0.18801352381706238 -0.45882299542427063 -0.39748483896255493
-0.46555548906326294 -0.07729776203632355 0.15941108763217926
-0.2373114377260208 0.9793691039085388 0.04585765674710274
-0.32108503580093384 0.9772131443023682 -0.03613470122218132
0.37114107608795166 -0.040913213044404984 0.36732447147369385
0.6503040194511414 0.16937892138957977 -0.08605291694402695
-0.2559269368648529 0.4014427661895752 -0.23836758732795715
0.5839827060699463 0.12484309822320938 0.34079766273498535
0.05110648646950722 -0.463622510433197 0.49975237250328064
0.6503040194511414 -0.0824538841843605 -0.2817249596118927
0.6503040194511414 0.14595969021320343 0.13877853751182556
-0.43016770482063293 -0.3928079903125763 -0.5456204414367676
-0.4564635157585144 0.3764367699623108 0.008761496283113956
0.05110648646950722 0.729545533657074 0.06033077836036682
-0.08289618790149689 -0.14761869609355927 0.6538806557655334
0.194580540060997 0.3529280126094818 0.13327674567699432
-0.4358731806278229 0.012343225069344044 0.4306240677833557
-0.21853485703468323 0.4063907265663147 0.2399243414402008
-0.22983312606811523 0.7005318999290466 -0.18462389707565308
-0.011557245627045631 -0.3358674645423889 -0.8775380849838257
0.1246117576956749 -0.1429128646850586 -0.35686302185058594
-0.4504883289337158 -0.18234838545322418 0.42229577898979187
0.5984116792678833 -0.19287081062793732 0.3046736419200897
-0.18380971252918243 0.46285492181777954 0.22504091262817383
-0.3987344205379486 -0.4602823853492737 0.7840312123298645
-0.05644906312227249 -0.19635635614395142 0.7306264638900757
0.329424649477005 -0.33190232515335083 -0.16032303869724274
-0.03256724029779434 -0.5925085544586182 -0.68156498670578
-0.37751102447509766 -0.25657919049263 0.7913112044334412
0.4770677983760834 -0.1358238309621811 0.08108891546726227
0.5072625875473022 -0.09468471258878708 0.12767699360847473
-0.4390125274658203 0.5644115805625916 -0.13828223943710327
0.021926546469330788 -0.09888937324285507 0.09139497578144073
0.5701501965522766 0.08918731659650803 -0.3510333001613617
-0.4554789066314697 -0.323743999004364 0.21529841423034668
-0.07056201249361038 0.9645760655403137 0.10331840068101883
0.4708123505115509 0.13349318504333496 0.09107868373394012
-0.12604618072509766 0.9901570081710815 -0.019429625943303108
0.6392399072647095 0.05834311991930008 0.14995667338371277
0.6251537799835205 0.17796212434768677 0.31481465697288513
0.36342427134513855 0.2958064079284668 -0.2232426404953003
0.08351844549179077 0.3632875084877014 -0.20247529447078705
0.6370947957038879 0.08841636776924133 -0.13343875110149384
0.5739561915397644 -0.03295709192752838 -0.15526250004768372
0.2636781334877014 0.15893210470676422 0.027873817831277847
-0.265938401222229 0.27798008918762207 -0.2868695557117462
-0.460154265165329 -0.28521421551704407 -0.1165490671992302
-0.09256410598754883 0.22905899584293365 0.3227274715900421
-0.41269758343696594 -0.15630650520324707 0.6163073182106018
0.6503040194511414 -0.19679822027683258 0.2832146883010864
-0.2821269929409027 -0.5532036423683167 -0.5967480540275574
-0.4228089451789856 -0.26962754130363464 0.6846016049385071
-0.171340212225914 -0.5059456825256348 -0.8448545932769775
-0.46335309743881226 0.24147723615169525 0.02284843660891056
0.05110648646950722 0.6430959105491638 -0.09331107884645462
-0.3577115535736084 0.020963234826922417 0.44853341579437256
0.6503040194511414 -0.30784642696380615 -0.08873013406991959
-0.016652274876832962 -0.018379701301455498 -0.13362906873226166
-0.39403223991394043 -0.3754529654979706 0.05320347100496292
0.14330413937568665 0.12774600088596344 -0.09705720096826553
-0.15793775022029877 0.9386860132217407 0.1291845142841339
0.29895561933517456 -0.1214095801115036 -0.10046059638261795
0.6503040194511414 0.22254908084869385 -0.17237931489944458
-0.2177155613899231 0.4423638582229614 -0.22776587307453156
0.039399903267621994 -0.22074754536151886 0.7841075658798218
0.5301275849342346 0.2751961350440979 0.24052900075912476
-0.15173420310020447 -0.36773818731307983 -0.8777378797531128
0.5983149409294128 0.05241596698760986 -0.1508476734161377
-0.43327680230140686 -0.42250123620033264 0.4783591330051422
-0.1598016321659088 0.6315173506736755 0.19475561380386353
-0.011513892561197281 -0.41753292083740234 -0.22452609241008759
0.48110663890838623 -0.1317169964313507 0.08801773935556412
-0.41578221321105957 -0.48450276255607605 -0.5517066717147827
-0.2699313163757324 0.9165024757385254 -0.14089323580265045
0.07515843957662582 0.12174747884273529 -0.3962382376194
-0.2805776298046112 -0.5787774920463562 -0.7109867930412292
0.09798908233642578 0.0914294645190239 0.13248498737812042
0.05110648646950722 -0.41349732875823975 0.562884509563446
-0.43574702739715576 -0.3715658187866211 0.4988366365432739
0.05110648646950722 -0.1858837604522705 0.705708384513855
0.06011953204870224 0.26023417711257935 0.3150660991668701
-0.329570472240448 -0.1919781118631363 -0.69521564245224
-0.4625248908996582 0.22485408186912537 0.1350470781326294
-0.008823023177683353 -0.47439390420913696 -0.4114606976509094
-0.3659440279006958 0.4716488718986511 0.21291008591651917
-0.46094733476638794 0.15304593741893768 -0.2518910765647888
-0.44589030742645264 0.4619852602481842 0.16544725000858307
0.5873784422874451 -0.13368268311023712 0.33590370416641235
0.08564545959234238 0.02578166127204895 -0.1330362856388092
0.4989047050476074 0.0625690221786499 -0.14703498780727386
0.6503040194511414 0.21844661235809326 -0.23375028371810913
-0.46246737241744995 -0.11640650779008865 -0.23287633061408997
0.3606710433959961 -0.36505818367004395 0.04337280988693237
0.05847473815083504 -0.251913458108902 0.37906283140182495
-0.015875423327088356 -0.4362219572067261 0.302420437335968
-0.46504104137420654 -0.13598254323005676 -0.1360846906900406
0.5118961334228516 0.14946262538433075 0.3336135447025299
0.34747785329818726 -0.15697336196899414 -0.01272227056324482
0.6503040194511414 -0.01954060047864914 0.16653436422348022
0.562740683555603 -0.06506077945232391 0.14539191126823425
-0.27352485060691833 0.958328366279602 0.0931057408452034
-0.36747899651527405 -0.4873492121696472 -0.4871375858783722
0.31113797426223755 0.13895642757415771 -0.3444923162460327
0.31581515073776245 -0.050987981259822845 0.15124794840812683
0.05621340125799179 0.44568121433258057 0.13126635551452637
-0.4654944837093353 0.09318620711565018 0.15508799254894257
0.6503040194511414 -0.03959595039486885 0.31789013743400574
0.04973587021231651 -0.4538625180721283 0.3479243218898773
-0.4463626742362976 -0.3596251904964447 -0.18081647157669067
0.12010820209980011 -0.3829503357410431 -0.04932418838143349
-0.4380255341529846 -0.3589295744895935 -0.02144903875887394
0.4341171979904175 -0.13640689849853516 0.07999749481678009
-0.19625122845172882 0.8737660646438599 0.17238721251487732
0.5352568626403809 -0.04495086520910263 -0.15172798931598663
0.09952720254659653 -0.021617697551846504 -0.39856642484664917
-0.2802622616291046 -0.05542759224772453 0.5264997482299805
-0.41924843192100525 -0.4582127034664154 0.48877206444740295
-0.4450794458389282 -0.19909875094890594 0.486341655254364
-0.20288115739822388 -0.5784798860549927 0.6488451361656189
0.4697970747947693 0.15247893333435059 -0.051890239119529724
-0.19422194361686707 -0.3859218955039978 0.052291467785835266
0.5834614038467407 0.1994410902261734 -0.3024952709674835
0.4251047670841217 -0.039549171924591064 0.3654575049877167
-0.4281790256500244 -0.39582061767578125 0.5659521818161011
0.5016329884529114 -0.027929572388529778 0.3639659583568573
-0.450754314661026 -0.33886682987213135 0.30460888147354126
-0.46082839369773865 0.2986464500427246 0.0004583259578794241
-0.41200584173202515 -0.36670711636543274 -0.7303224802017212
0.14747054874897003 -0.10801917314529419 -0.11523209512233734
-0.07084552198648453 0.9940484166145325 0.004354650620371103
0.2069225162267685 0.12858863174915314 -0.09654900431632996
-0.4156312048435211 -0.3767990171909332 0.6960002779960632
-0.4576554596424103 0.13733942806720734 0.3008827567100525
-0.4460693299770355 -0.1548929512500763 0.4904358983039856
0.05110648646950722 -0.5100048184394836 -0.5323421359062195
0.4660637676715851 0.2170579433441162 0.29649195075035095
-0.4079747498035431 -0.421095073223114 0.7347983717918396
-0.42864349484443665 -0.4411100149154663 0.48532921075820923
0.40225157141685486 0.10887610912322998 0.352806955575943
-0.06873302906751633 0.02178586646914482 -0.022608226165175438
-0.20569750666618347 0.8505255579948425 -0.17884786427021027
-0.439660906791687 -0.2795780301094055 -0.5111134648323059
0.4618581235408783 -0.28890788555145264 0.22279731929302216
0.23477569222450256 -0.3267752230167389 -0.17774789035320282
0.05110648646950722 -0.2774677872657776 0.6892916560173035
0.05110648646950722 0.6538436412811279 -0.11096112430095673
0.01439962349832058 -0.3967643678188324 -0.04905127361416817
-0.45640262961387634 -0.31991901993751526 0.19433297216892242
-0.3802421987056732 0.4017723500728607 -0.2313593477010727
-0.395770788192749 -0.2253698855638504 -0.7233786582946777
-0.11448138952255249 0.38579198718070984 0.2526448965072632
-0.3614695072174072 -0.3759929835796356 -0.006187755614519119
-0.4615061283111572 -0.10574053227901459 0.261936217546463
0.2805788516998291 0.06306247413158417 -0.3667129576206207
0.05770714208483696 0.45737215876579285 0.051792677491903305
0.09921713918447495 0.2713148295879364 0.29714235663414
-0.03102923184633255 -0.3945959210395813 0.05372855067253113
0.5346985459327698 -0.040183793753385544 0.15416647493839264
0.43770831823349 -0.3195403218269348 -0.1761486828327179
-0.37093544006347656 -0.5071589946746826 0.8201696872711182
0.23664520680904388 0.21365272998809814 0.3087412714958191
-0.3137803077697754 0.039923734962940216 0.4356023967266083
-0.4358300566673279 0.6123356223106384 -0.11804665625095367
-0.4595284163951874 -0.06157071888446808 0.31630831956863403
-0.27888205647468567 -0.39590132236480713 -0.1855030208826065
-0.1038624495267868 0.9869258999824524 -0.04498472437262535
-0.23238365352153778 -0.5809805393218994 -0.7110404968261719
-0.4334225654602051 -0.3640875816345215 -0.06913818418979645
-0.25060898065567017 0.9559906125068665 0.09905768185853958
-0.3596172034740448 0.6055671572685242 -0.18616890907287598
0.0017635379917919636 -0.5275918841362 0.8404855132102966
0.6485106348991394 0.3612748086452484 -0.0041276635602116585
0.5945196151733398 -0.21332699060440063 0.290820449590683
0.11279183626174927 -0.2747495770454407 -0.27640122175216675
0.20732523500919342 -0.3467307388782501 -0.13706281781196594
0.05110648646950722 -0.4984341859817505 -0.5061199069023132
-0.4680973291397095 -0.030079497024416924 0.011206856928765774
0.5785761475563049 -0.15760844945907593 -0.006290334276854992
0.06350348144769669 -0.09527447819709778 -0.4323088228702545
0.44507449865341187 -0.34380412101745605 0.12256056070327759
0.3975622355937958 0.1603645235300064 0.021079109981656075
-0.45749035477638245 -0.24319814145565033 0.2612866163253784
-0.05839401111006737 -0.10934151709079742 0.6055805683135986
-0.43874844908714294 -0.33787626028060913 0.48677870631217957
-0.4563848078250885 -0.17398931086063385 -0.33130818605422974
-0.0669630914926529 0.19625940918922424 0.3425196707248688
0.03147682175040245 0.014651816338300705 0.4812285304069519
-0.4388382136821747 0.1902732402086258 0.3081003427505493
-0.3973386883735657 -0.4415181279182434 0.8051608204841614
-0.03444712609052658 -0.4427050054073334 -0.8808186054229736
0.31462910771369934 0.07464747130870819 -0.14131931960582733
-0.41456687450408936 -0.40565577149391174 0.6887527704238892
-0.46743226051330566 -0.08205439895391464 0.0440160296857357
-0.4475719928741455 0.48969027400016785 0.09439581632614136
0.3422297239303589 -0.2433226853609085 0.27795860171318054
0.5318314433097839 0.3654462993144989 -0.0032834894955158234
-0.022885382175445557 0.041033703833818436 -0.12887315452098846
-0.4622364342212677 0.2450377345085144 -0.10988527536392212
0.6503040194511414 -0.11082972586154938 -0.12136632949113846
0.2235618382692337 0.3086029589176178 -0.21388903260231018
-0.4566117823123932 0.37284159660339355 0.03138918802142143
0.06695733964443207 0.35999032855033875 -0.2498546838760376
-0.4469050168991089 -0.34929221868515015 -0.03656160831451416
-0.29183846712112427 -0.42265617847442627 -0.30654510855674744
0.09264326840639114 -0.02602582611143589 0.1578027755022049
-0.379475474357605 -0.032798636704683304 -0.49512046575546265
-0.17712600529193878 0.025174718350172043 0.45739850401878357
-0.01889544166624546 0.25757452845573425 0.3122681677341461
-0.20574581623077393 -0.03394460305571556 -0.5090179443359375
-0.28583914041519165 0.5772547721862793 0.19531075656414032
-0.4370717704296112 -0.36995184421539307 0.16939465701580048
-0.41984912753105164 -0.4317314326763153 -0.6230267882347107
-0.46735531091690063 -0.03179096803069115 0.09446144104003906
0.09897816926240921 -0.2285560965538025 -0.3270067870616913
-0.39622238278388977 -0.5292745232582092 -0.5966478586196899
-0.06873302906751633 -0.021541163325309753 0.06285307556390762
-0.4198673963546753 -0.2515453100204468 0.6991206407546997
-0.46424028277397156 -0.0019244118593633175 0.218131422996521
0.46360498666763306 -0.25105321407318115 0.26504480838775635
-0.3098944425582886 0.7398694157600403 -0.17935501039028168
-0.4575706720352173 -0.17848126590251923 0.3077673017978668
0.07829594612121582 0.39702075719833374 -0.14353571832180023
0.05110648646950722 -0.1697540581226349 0.6229408979415894
-0.28996941447257996 0.13171826303005219 0.3689502477645874
0.46431490778923035 0.15674051642417908 0.0394401028752327
-0.19871032238006592 0.10457117855548859 -0.3923678696155548
0.05169125646352768 -0.21063630282878876 0.43676266074180603
-0.4294348955154419 -0.329465389251709 -0.593681275844574
0.3057539165019989 0.37145018577575684 -0.03685459867119789
-0.4503401219844818 0.06800071895122528 -0.36621585488319397
0.5397219061851501 0.3047049045562744 0.2013629823923111
0.23332270979881287 -0.1575750857591629 -0.004027192946523428
-0.10326632112264633 0.9923089742660522 -0.004164945799857378
-0.0405038483440876 -0.5406679511070251 -0.5512080192565918
0.04430662468075752 -0.20474229753017426 0.7554866671562195
-0.3580513000488281 -0.41551706194877625 0.29496774077415466
0.014391280710697174 -0.056057948619127274 0.12313476204872131
-0.02724592201411724 -0.41964125633239746 0.23943373560905457
0.008467359468340874 -0.3973999321460724 -0.06696437299251556
0.17320188879966736 0.34321561455726624 -0.15729296207427979
0.1326475292444229 -0.24182584881782532 0.2961046099662781
-0.4029984474182129 0.15421873331069946 0.3473351299762726
0.006848662160336971 0.6229686737060547 0.20455589890480042
-0.06873302906751633 -0.09504665434360504 0.055833689868450165
-0.002250404329970479 -0.019549768418073654 -0.1334608495235443
0.6503040194511414 -0.180289164185524 -0.10196822136640549
0.05110648646950722 -0.1520477533340454 0.4788840711116791
0.14960163831710815 -0.15739159286022186 -0.01137179508805275
0.05110648646950722 -0.33253782987594604 0.49958518147468567
0.3669125735759735 0.1568833738565445 -0.037876907736063004
-0.4674791991710663 0.09367846697568893 0.011667902581393719
0.16453559696674347 0.06342536211013794 -0.14652018249034882
-0.19373835623264313 -0.3929400146007538 -0.8779497742652893
0.13617463409900665 0.35296520590782166 0.15065576136112213
-0.3865668773651123 -0.3746834993362427 -0.010989537462592125
-0.29007402062416077 0.7166109681129456 0.1820143610239029
0.6503040194511414 0.043009012937545776 -0.21426430344581604
0.3226379156112671 -0.11357714980840683 -0.35193565487861633
0.15824384987354279 0.1612423062324524 -0.0015176529996097088
0.05110648646950722 -0.20952610671520233 -0.6450749039649963
-0.03506450727581978 0.11299330741167068 -0.076866015791893
0.5245478749275208 -0.34098193049430847 0.12218054383993149
-0.44550132751464844 -0.14929145574569702 0.49907416105270386
-0.43590307235717773 0.6222857236862183 0.030774729326367378
-0.20740962028503418 -0.49081191420555115 0.476059228181839
-0.4629853069782257 0.24579620361328125 -0.05255370959639549
-0.4644382894039154 0.18957120180130005 -0.0980280339717865
-0.1989818811416626 -0.2257208526134491 -0.7659428715705872
0.2806285321712494 -0.1292257457971573 0.09126110374927521
-0.029152091592550278 -0.588317334651947 0.7350881695747375
-0.46285274624824524 0.11602616310119629 -0.22476635873317719
-0.15403078496456146 -0.4242865741252899 0.28642717003822327
-0.13049174845218658 -0.21466079354286194 0.7544248104095459
0.027412401512265205 0.9300420880317688 0.15079675614833832
0.5516594648361206 -0.1791202872991562 0.3151427209377289
-0.26305484771728516 -0.2235342115163803 -0.7548677921295166
0.6503040194511414 0.06536363065242767 0.3424103558063507
0.05110648646950722 -0.2029537558555603 0.6908039450645447
0.05110648646950722 -0.5032355189323425 0.829757809638977
-0.453603059053421 -0.26950904726982117 0.3181690573692322
-0.4483579099178314 0.48607417941093445 0.054120708256959915
-0.28619465231895447 -0.47863414883613586 -0.45844677090644836
-0.44428303837776184 -0.2189740687608719 0.4875147342681885
0.647083580493927 0.138800710439682 0.08237005770206451
0.0733184814453125 0.11002989858388901 -0.4045897126197815
0.3334125280380249 0.18405009806156158 -0.32201334834098816
0.6264074444770813 0.18344105780124664 0.31166958808898926
-0.05166558176279068 -0.1043749451637268 0.5999652743339539
0.02750527858734131 -0.5567095279693604 0.5724840760231018
-0.40756645798683167 0.8448030352592468 -0.11045302450656891
0.05110648646950722 0.6769546270370483 0.12511353194713593
-0.09190527349710464 -0.16057509183883667 0.6714687347412109
-0.21210981905460358 0.38803738355636597 -0.24526861310005188
0.2563902735710144 -0.11207915842533112 -0.3547585606575012
0.613518238067627 -0.04361845925450325 0.35846033692359924
-0.39600324630737305 0.9189294576644897 -0.06196676939725876
0.44308891892433167 -0.014225443825125694 0.1595153659582138
-0.03075539693236351 -0.27741673588752747 -0.8452751040458679
-0.4640934467315674 0.12572742998600006 0.18423977494239807
-0.43216028809547424 -0.16873376071453094 0.5940961837768555
0.6037395000457764 0.3528825640678406 0.08545823395252228
-0.21740606427192688 0.16611741483211517 0.3513767123222351
0.2805258631706238 0.3564950227737427 -0.11333191394805908
0.33313998579978943 -0.12655901908874512 0.09501946717500687
-0.25613754987716675 -0.08065629005432129 0.5556859374046326
0.05110648646950722 0.6351972222328186 -0.15477034449577332
-0.4611659348011017 -0.11225035786628723 0.26702412962913513
-0.4647751450538635 -0.122390016913414 0.16011042892932892
0.05110648646950722 -0.3536408245563507 0.670956015586853
0.3166063129901886 -0.11442175507545471 0.10991685092449188
0.18473097681999207 0.0009834871161729097 0.1602126657962799
-0.15228134393692017 0.03088575415313244 -0.4530731439590454
0.05620250478386879 0.44423526525497437 0.1365232616662979
0.05110648646950722 0.7141632437705994 -0.0042324429377913475
-0.0836755558848381 -0.5515484809875488 0.5751243829727173
-0.12720133364200592 -0.5191962718963623 -0.5219194293022156
0.3874865174293518 -0.041057486087083817 0.15433669090270996
-0.3358006179332733 -0.3818770945072174 0.10179898142814636
0.17372086644172668 0.07257477194070816 0.14363102614879608
-0.37988340854644775 -0.1050567552447319 0.5739489197731018
-0.34117716550827026 0.45134350657463074 -0.21851980686187744
-0.1730438619852066 0.4858119487762451 -0.21856389939785004
0.5465945601463318 0.3641730546951294 0.02494574710726738
-0.06801880151033401 0.9387972950935364 -0.13488039374351501
0.020753800868988037 0.11962520331144333 0.06801328808069229
0.11719096451997757 0.378789484500885 -0.09663935750722885
0.38892221450805664 0.06738337129354477 0.3632562458515167
0.34570613503456116 -0.27995428442955017 -0.23919783532619476
-0.05332900211215019 0.9888291954994202 -0.04797349125146866
0.6503040194511414 -0.23899047076702118 -0.2650671899318695
0.36971694231033325 0.07416275888681412 0.142679363489151
0.05110648646950722 0.8278815746307373 0.19526928663253784
-0.06789148598909378 -0.04517972469329834 -0.12652388215065002
-0.45312929153442383 -0.25198692083358765 -0.33961591124534607
-0.018057482317090034 0.7742800712585449 -0.1948709934949875
0.05110648646950722 -0.4285278022289276 0.7582801580429077
0.6503040194511414 -0.1683453619480133 -0.01985214836895466
0.05110648646950722 -0.3455131947994232 -0.47315770387649536
0.05110648646950722 -0.12375769764184952 -0.5761433839797974
-0.4154902696609497 -0.41985809803009033 0.34605684876441956
0.2780466675758362 -0.05881420522928238 -0.14715158939361572
0.4809061586856842 -0.21987368166446686 0.2909344434738159
0.06634970754384995 -0.30132532119750977 0.31633731722831726
-0.3586556613445282 -0.3920007050037384 -0.18752145767211914
0.05854631960391998 -0.2599388659000397 -0.37130987644195557
0.05110648646950722 -0.5720019340515137 -0.6249382495880127
-0.39054983854293823 -0.4089678227901459 -0.275473028421402
0.26344338059425354 -0.24056045711040497 -0.2827032506465912
0.005103334318846464 0.06038457527756691 0.1228102520108223
0.040667012333869934 0.4737231135368347 -0.23322436213493347
0.05869527533650398 -0.26800671219825745 0.3661024570465088
0.1898876428604126 -0.12148863077163696 -0.10069075971841812
0.6503040194511414 -0.027131857350468636 -0.2806839644908905
-0.18595923483371735 0.46522021293640137 -0.22314506769180298
-0.2788853943347931 -0.5734963417053223 0.6450607180595398
0.20274865627288818 -0.10047956556081772 -0.1220286637544632
0.2940254807472229 -0.3686462938785553 -0.02999982237815857
-0.4592929780483246 -0.24636603891849518 0.21252350509166718
0.29031917452812195 -0.155979722738266 -0.0236233901232481
-0.237828329205513 -0.3824600279331207 0.005609031300991774
0.25642919540405273 -0.3485754430294037 -0.12756465375423431
0.3572142720222473 -0.3388144373893738 0.1440683752298355
0.05110648646950722 0.5732302665710449 0.13675367832183838
-0.4674535095691681 0.09608126431703568 -0.004844550509005785
-0.17061494290828705 -0.5498135685920715 -0.8016379475593567
-0.06873302906751633 0.03476419299840927 -0.12774352729320526
-0.11841487884521484 0.9436041116714478 0.12706515192985535
0.05110648646950722 0.8748975992202759 -0.06292536854743958
0.05110648646950722 -0.3666868507862091 0.3952908217906952
-0.46442222595214844 -0.02975977584719658 -0.2093871533870697
-0.23500922322273254 0.004709640517830849 -0.4703159034252167
-0.29686829447746277 0.16720913350582123 0.3458452820777893
-0.46273306012153625 0.00335688516497612 0.256357878446579
0.11735371500253677 -0.3520967960357666 0.16270135343074799
-0.061893280595541 -0.15667368471622467 0.6685229539871216
0.19813272356987 -0.21814019978046417 0.3043273985385895
-0.2692301273345947 0.3903866708278656 -0.2413005828857422
-0.04772135615348816 -0.13262127339839935 0.016526730731129646
-0.4440402090549469 0.5269182324409485 -0.11436422169208527
0.05110648646950722 -0.2970984876155853 0.39778003096580505
-0.3754003643989563 0.02632286213338375 0.4427156150341034
0.4969901442527771 -0.17083123326301575 -0.32079261541366577
-0.4639604389667511 0.12472600489854813 0.18915976583957672
-0.308077335357666 -0.4969753324985504 0.8433891534805298
0.3773553669452667 -0.08543047308921814 -0.1329050064086914
0.36280491948127747 0.272497296333313 0.25220808386802673
0.2506667375564575 0.16982148587703705 0.33406302332878113
-0.07969246804714203 0.4430099427700043 0.23626898229122162
0.4253493845462799 0.016727615147829056 0.3676096498966217
-0.4158779978752136 0.7849140167236328 0.10488069802522659
0.05110648646950722 0.7947108745574951 -0.16358207166194916
-0.4040904939174652 0.03719491884112358 0.4306275546550751
-0.07774500548839569 -0.48301270604133606 -0.4413527846336365
-0.4647240936756134 -0.02160404995083809 0.202911838889122
-0.25717824697494507 0.9320642948150635 0.1289054900407791
-0.06885165721178055 0.3543139100074768 -0.2655840516090393
0.2472878098487854 0.00919658038765192 0.16009306907653809
0.19383320212364197 0.36492103338241577 -0.09475524723529816
-0.11152201890945435 -0.3085017800331116 -0.8604618310928345
-0.07819011807441711 -0.523591935634613 -0.5247387290000916
0.6503040194511414 0.1364234983921051 -0.3221891522407532
-0.45774605870246887 -0.09571100026369095 0.34036147594451904
-0.43523919582366943 0.6238209009170532 0.08360547572374344
0.4240271747112274 -0.29371169209480286 0.21864424645900726
0.47680458426475525 -0.33357474207878113 0.1453401893377304
-0.4186229705810547 -0.32776179909706116 -0.6942741870880127
-0.4516047537326813 0.4138045012950897 -0.16737064719200134
0.023016013205051422 -0.5242440700531006 0.5158799290657043
-0.18519921600818634 -0.35934925079345703 0.8757917284965515
-0.38826194405555725 -0.536374568939209 0.7584189772605896
-0.1149979755282402 -0.3932819664478302 -0.09809412807226181
0.374184250831604 0.09812891483306885 0.3569190502166748
-0.46207886934280396 -0.26845642924308777 0.01058260165154934
-0.19100207090377808 -0.1238371878862381 -0.6114981174468994
-0.17922379076480865 0.42396116256713867 0.23652437329292297
-0.36603477597236633 -0.4279744029045105 -0.33747369050979614
-0.1540154665708542 0.8853821158409119 -0.16823837161064148
0.033818960189819336 -0.4621286690235138 0.37432780861854553
-0.17870652675628662 0.40545156598091125 -0.24126048386096954
0.08304803818464279 0.1283571422100067 -0.048076726496219635
-0.29360347986221313 -0.4295940697193146 0.33127883076667786
0.05110648646950722 -0.26240846514701843 0.5738584399223328
-0.35372209548950195 0.5925126075744629 0.1894238144159317
0.05110648646950722 -0.37979161739349365 -0.6365997195243835
0.3934744596481323 0.12693840265274048 0.3470774292945862
0.05994958430528641 0.4473991096019745 -0.07343211770057678
-0.24066311120986938 0.9834148287773132 0.024139953777194023
0.15906260907649994 0.15866053104400635 0.030195260420441628
0.3911289572715759 0.3084188401699066 0.20525580644607544
-0.4514866769313812 -0.35032370686531067 -0.23171567916870117
-0.057214103639125824 0.5997453927993774 0.20411136746406555
-0.42050230503082275 -0.29592365026474 -0.6925449967384338
-0.345478892326355 0.5032487511634827 -0.2051863968372345
0.28161540627479553 0.1614941954612732 0.0040690237656235695
0.49370887875556946 -0.09662522375583649 -0.3507872223854065
-0.4595975875854492 0.18683063983917236 -0.26139795780181885
-0.29011213779449463 -0.397361695766449 0.19844169914722443
0.2809949517250061 0.13305263221263885 -0.3479279577732086
-0.06622562557458878 -0.32132312655448914 -0.8689321279525757
-0.1460716277360916 0.5363306403160095 0.20998747646808624
-0.4606827199459076 -0.26828816533088684 -0.12914326786994934
0.05110648646950722 0.953730046749115 0.03167520835995674
0.40347036719322205 -0.35250499844551086 -0.0988665297627449
0.6503040194511414 0.03035040944814682 0.19818022847175598
0.36006954312324524 0.053094372153282166 0.3665814995765686
0.04612776264548302 -0.47078779339790344 -0.8765267133712769
0.45144522190093994 -0.24306164681911469 -0.27185261249542236
-0.37750715017318726 0.20921525359153748 0.31646624207496643
0.539302408695221 0.1470899134874344 -0.06503356993198395
-0.24222886562347412 -0.403479665517807 -0.8755207657814026
-0.32764196395874023 0.1721252202987671 0.34097543358802795
0.6503040194511414 0.11195728927850723 0.1689278483390808
-0.4421570301055908 -0.19095838069915771 -0.5228886008262634
0.03094218298792839 0.6311044692993164 -0.2036915272474289
0.14390338957309723 -0.12776784598827362 -0.0919550284743309
-0.4393899142742157 -0.25145256519317627 0.5298165678977966
0.4405282437801361 -0.12908542156219482 -0.09079456329345703
-0.04453889653086662 -0.3938058018684387 0.05237667262554169
-0.3783619999885559 -0.5004140138626099 0.5192579030990601
0.11024294793605804 0.3654141128063202 0.14974960684776306
0.3442232310771942 0.34040454030036926 0.15044435858726501
0.10530045628547668 -0.1442965716123581 -0.06328397989273071
-0.32897502183914185 -0.4004025459289551 -0.22384975850582123
0.39516139030456543 0.1581062525510788 0.03402399271726608
-0.06616117060184479 -0.07324370741844177 -0.5612127184867859
0.33162063360214233 0.13663165271282196 0.34577909111976624
-0.12372080236673355 -0.4565604627132416 -0.3819533884525299
0.006744431797415018 -0.40682703256607056 0.1598227620124817
-0.38651806116104126 -0.49446484446525574 0.8104687929153442
-0.32212910056114197 -0.39640241861343384 0.8725482225418091
-0.297675758600235 0.9802230000495911 0.0274030938744545
-0.0428466722369194 -0.3949119746685028 -0.07026483863592148
0.21975389122962952 -0.007841823622584343 -0.3737874925136566
-0.4485786557197571 -0.3335793912410736 0.3498833179473877
0.6503040194511414 -0.19563908874988556 -0.24968193471431732
0.6503040194511414 0.17585501074790955 -0.01679726503789425
-0.23464524745941162 -0.4161570072174072 -0.8748881816864014
0.17580193281173706 0.2831566333770752 -0.2490643560886383
-0.11106479167938232 -0.4337324798107147 -0.31076231598854065
-0.35794714093208313 -0.46958568692207336 0.44843608140945435
0.6503040194511414 -0.10050893574953079 0.3401910066604614
-0.46463891863822937 -0.2041247934103012 -0.004461013246327639
0.322215735912323 0.034768082201480865 -0.15543197095394135
0.05110648646950722 -0.07239694148302078 -0.5024305582046509
-0.41738781332969666 0.7799415588378906 0.0310809426009655
0.05110648646950722 0.8309834599494934 -0.13898709416389465
0.5178200006484985 0.05272410809993744 0.36104583740234375
0.2865664064884186 -0.0475248359143734 -0.1510215550661087
-0.06618067622184753 -0.5655164122581482 0.7884519100189209
0.6503040194511414 -0.16893702745437622 0.1953098028898239
-0.2355758547782898 -0.5694327354431152 0.7600415945053101
0.4240422546863556 -0.11489392071962357 0.10932457447052002
-0.3625740706920624 -0.3529478907585144 0.8614184856414795
0.42480120062828064 -0.3603394627571106 -0.06034579873085022
-0.4502536654472351 0.4565908908843994 0.089012511074543
0.05110648646950722 -0.584550678730011 -0.7295317649841309
-0.2992822825908661 0.49299395084381104 0.21119578182697296
0.16125865280628204 0.11119861900806427 0.3612055480480194
-0.4634532034397125 0.2338012009859085 -0.05413097143173218
0.3471696972846985 -0.16409730911254883 -0.33012276887893677
-0.4629001319408417 0.1464618742465973 -0.2053440511226654
0.11612260341644287 -0.23012946546077728 0.31379300355911255
0.6503040194511414 0.06526122242212296 -0.2524878680706024
0.18410688638687134 0.105754055082798 -0.3604540228843689
0.5269468426704407 0.029309608042240143 0.3632477819919586
-0.11356274783611298 -0.24767999351024628 -0.8096010088920593
-0.4632284343242645 -0.23582671582698822 -0.052922505885362625
0.05110648646950722 -0.4135243892669678 0.6799709796905518
-0.4594394266605377 -0.2062845230102539 0.2484135925769806
0.17980057001113892 -0.1377648562192917 0.07771428674459457
0.05110648646950722 0.8147315979003906 -0.09118194133043289
0.3375953137874603 -0.04266117513179779 -0.15247124433517456
0.5197738409042358 0.31319287419319153 0.18921740353107452
0.09095211327075958 -0.06058625876903534 0.12112577259540558
-0.2757301330566406 -0.5767671465873718 0.657835066318512
0.44709718227386475 0.1672063022851944 -0.3264674246311188
0.05110648646950722 -0.1326165646314621 0.5897684693336487
0.05559883639216423 -0.38962802290916443 -0.25022515654563904
-0.46700170636177063 -0.09106211364269257 -0.07375938445329666
-0.06960748136043549 -0.04993455857038498 -0.5356355309486389
0.19756722450256348 -0.08175063133239746 0.36629530787467957
-0.18123412132263184 -0.39694198966026306 -0.1592065691947937
-0.17013439536094666 0.22649571299552917 -0.31832510232925415
0.09105298668146133 -0.08511131256818771 -0.1063024178147316
0.055720895528793335 -0.09597236663103104 0.09451982378959656
0.4071298837661743 0.11131874471902847 -0.3506794273853302
0.09563924372196198 0.11751072853803635 -0.10957849025726318
0.5327906012535095 0.2725878357887268 0.24333074688911438
0.6503040194511414 -0.11410869657993317 -0.13777732849121094
-0.05342470109462738 0.9903215765953064 -0.04194245487451553
-0.4556741714477539 -0.0074366251938045025 -0.38634103536605835
-0.18494504690170288 0.1305682212114334 0.37635841965675354
0.4397445023059845 -0.15597505867481232 0.0246737040579319
-0.4489881098270416 -0.2049304097890854 -0.4317159950733185
-0.17456412315368652 0.6175584197044373 0.19561676681041718
-0.43536263704299927 -0.15461571514606476 -0.5661776065826416
-0.3587743639945984 -0.21888196468353271 0.7376948595046997
-0.10909279435873032 0.8818860650062561 -0.17250490188598633
-0.2717360854148865 -0.05497187748551369 -0.525520920753479
-0.11577680706977844 -0.40212756395339966 -0.1703987419605255
0.25086602568626404 -0.20907966792583466 0.3086356222629547
-0.1464204341173172 -0.5468153953552246 0.5736031532287598
-0.07969818264245987 0.4871605932712555 0.2244550585746765
-0.02891513518989086 -0.5927689075469971 0.684144139289856
-0.19391168653964996 -0.3214132487773895 -0.8615524172782898
-0.30657124519348145 -0.5231877565383911 -0.5487143993377686
0.44588610529899597 0.1743593066930771 -0.32288071513175964
-0.443313330411911 -0.28355008363723755 0.46529367566108704
-0.16661334037780762 0.35143107175827026 -0.26120221614837646
0.012221334502100945 -0.5889586806297302 -0.7404140830039978
0.05110648646950722 0.5867316126823425 0.0131790516898036
-0.4600175619125366 0.3140026032924652 -0.02153240516781807
-0.46219170093536377 0.10255981236696243 0.2489510327577591
-0.4598035514354706 0.17986172437667847 0.26256972551345825
0.06778005510568619 0.42973095178604126 -0.08193230628967285
-0.4616151750087738 -0.18442128598690033 0.21040940284729004
0.2839606702327728 0.3729267120361328 0.03069370798766613
-0.4585104286670685 0.2655833065509796 -0.21455438435077667
0.23132793605327606 -0.25765079259872437 0.26999977231025696
-0.40985190868377686 -0.19327270984649658 0.6648446321487427
0.06319893896579742 0.3182689845561981 -0.2870197296142578
-0.13787010312080383 0.41160139441490173 -0.24152922630310059
-0.45832428336143494 0.32859084010124207 -0.10616538673639297
0.3269904851913452 0.239890456199646 -0.28365692496299744
0.6503040194511414 -0.05934758856892586 -0.27874189615249634
-0.20504164695739746 -0.43881604075431824 0.8740354180335999
-0.46584609150886536 -0.1580154299736023 0.05006156489253044
0.3114619255065918 -0.15698696672916412 -0.01485164649784565
-0.42164862155914307 -0.3959605097770691 -0.6297166347503662
0.09137238562107086 0.3070802092552185 0.26980942487716675
0.36199697852134705 -0.13561178743839264 -0.0807211846113205
-0.08510278165340424 -0.5732863545417786 -0.6131582260131836
-0.4576076865196228 0.0013150940649211407 0.35648059844970703
-0.03178596869111061 -0.19282913208007812 -0.7260936498641968
-0.1757352650165558 -0.4207744598388672 0.27759164571762085
-0.06854483485221863 0.38157349824905396 -0.2555024325847626
-0.29128167033195496 -0.1807740330696106 -0.6815587282180786
-0.09597148001194 -0.18331287801265717 0.7055985927581787
-0.06873302906751633 0.11048770695924759 -0.023731427267193794
0.418769508600235 -0.15837544202804565 0.33126768469810486
0.380348265171051 -0.06278759986162186 -0.14541640877723694
0.02458629198372364 0.45807552337646484 -0.2365761250257492
-0.24560508131980896 -0.5332809686660767 0.5610010027885437
-0.4650256633758545 -0.14851759374141693 -0.12286874651908875
-0.27008599042892456 0.4346834123134613 -0.22715622186660767
-0.20258575677871704 0.8827471733093262 0.16800309717655182
0.05110648646950722 -0.4350092113018036 0.8719565272331238
-0.4673202633857727 -0.08976549655199051 -0.042437225580215454
-0.04280811920762062 -0.2724290192127228 -0.8404799699783325
-0.37084341049194336 0.4168228805065155 0.22824090719223022
0.216634139418602 0.022188829258084297 -0.37344586849212646
-0.3768007755279541 -0.05462663248181343 0.5184038281440735
0.35809990763664246 0.005372279789298773 0.37022510170936584
0.5548521876335144 -0.25374308228492737 0.2577962279319763
-0.09437312930822372 -0.47356346249580383 -0.42132511734962463
0.1229202151298523 -0.3095494508743286 0.229326531291008
0.5036307573318481 0.1483227163553238 -0.06291701644659042
0.37602272629737854 0.0036346535198390484 -0.3684713542461395
-0.13627707958221436 -0.56215500831604 0.7865695953369141
0.24862033128738403 0.332379549741745 -0.17344383895397186
-0.26789554953575134 0.43979451060295105 0.22695954144001007
-0.18125781416893005 -0.3910655677318573 0.11263357847929001
0.4522348642349243 0.08158519864082336 0.3582034707069397
0.5667015314102173 0.10098866373300552 0.12570208311080933
-0.41948986053466797 0.6610733270645142 -0.15262265503406525
0.2580585777759552 0.3141229450702667 0.20497086644172668
-0.06873302906751633 -0.11054331064224243 -0.013676909729838371
0.05110648646950722 -0.4203398823738098 0.8825395107269287
0.4847108721733093 0.10005587339401245 -0.1252681165933609
0.5317820310592651 -0.17017222940921783 0.32083094120025635
0.09105298668146133 -0.1317296177148819 -0.07802882045507431
-0.42325130105018616 -0.27902987599372864 0.677025318145752
-0.0337139293551445 0.21362555027008057 0.334635466337204
0.09105298668146133 -0.1363808959722519 0.0733461007475853
-0.11991090327501297 0.11613054573535919 -0.3892654478549957
-0.4546957314014435 0.39015862345695496 0.10452426224946976
-0.4039677381515503 -0.34260690212249756 0.8042593002319336
0.5037063360214233 -0.35399866104125977 0.07928770780563354
0.1581604927778244 -0.362412691116333 -0.09608463943004608
-0.4615194499492645 0.24639293551445007 -0.14091651141643524
0.05110648646950722 -0.556040346622467 0.5699257850646973
0.05110648646950722 -0.35920777916908264 0.5943986177444458
-0.011975997127592564 -0.18361704051494598 -0.7130459547042847
-0.44156739115715027 -0.09202031046152115 -0.5042691230773926
-0.14694005250930786 -0.1682363599538803 0.6775540709495544
-0.19970013201236725 -0.3891787528991699 0.10318094491958618
-0.419595330953598 0.0336773544549942 -0.42641180753707886
0.6503040194511414 -0.31134533882141113 0.16757279634475708
-0.45799070596694946 -0.25701960921287537 0.23519358038902283
0.0012851289939135313 -0.07290329784154892 -0.5661554932594299
0.06790527701377869 0.4348187744617462 0.05146591737866402
-0.4580729305744171 -0.2893180251121521 -0.1896691471338272
-0.02926005609333515 0.2968279719352722 -0.291853129863739
-0.25200992822647095 -0.33194372057914734 0.8640341758728027
-0.12752529978752136 0.05666225031018257 -0.43337246775627136
-0.42571011185646057 -0.34592780470848083 -0.6209240555763245
-0.44470375776290894 -0.3531811237335205 -0.025671333074569702
0.06664959341287613 0.017116205766797066 -0.4364437460899353
0.5313164591789246 -0.04884890094399452 0.1519947201013565
-0.45602062344551086 -0.07905888557434082 0.3734641969203949
0.006413606461137533 0.4426717162132263 0.24105411767959595
-0.01171412505209446 -0.48504993319511414 0.8680536150932312
-0.1949346363544464 0.7636900544166565 -0.18540172278881073
-0.2543368339538574 -0.3932366967201233 0.16127058863639832
0.029736939817667007 0.13505887985229492 -0.02537183277308941
0.29920801520347595 -0.07862943410873413 0.13833270967006683
0.05110648646950722 0.5984047055244446 0.14381033182144165
-0.014889880083501339 -0.08914399147033691 -0.5836395025253296
-0.14192450046539307 -0.3197895288467407 0.8652353286743164
-0.2859192192554474 0.11756378412246704 -0.37764012813568115
0.05110648646950722 0.7821124792098999 -0.13490977883338928
0.05110648646950722 -0.29585784673690796 -0.6912475824356079
0.3775300681591034 0.07287388294935226 0.3626452684402466
0.4546785354614258 -0.36425188183784485 0.0033267515245825052
0.5771857500076294 -0.012768464162945747 -0.1583675593137741
-0.31696054339408875 -0.39392492175102234 -0.1856716126203537
0.3282117247581482 0.07853920012712479 0.1405036896467209
0.49024397134780884 0.2873026132583618 0.22827821969985962
0.05110648646950722 -0.27596962451934814 0.8413218855857849
0.35077616572380066 -0.31089138984680176 -0.19688460230827332
-0.45840710401535034 0.01631179265677929 0.3425271213054657
-0.12877637147903442 -0.5701135993003845 -0.7711379528045654
0.3777330815792084 -0.15285710990428925 -0.33437496423721313
0.05110648646950722 0.86501145362854 0.032878726720809937
0.48628291487693787 0.02894379012286663 0.3647022843360901
0.5798366069793701 -0.013750206679105759 0.3622036874294281
0.23384863138198853 -0.014990020543336868 0.3742513954639435
