0.014605894684791565 -0.18819847702980042 0.11705593019723892
0.6529999375343323 0.19083935022354126 -0.04330325499176979
0.6942687630653381 -0.13832509517669678 -0.46507734060287476
-0.8882712125778198 -0.18819847702980042 -0.5595545768737793
-0.3497949242591858 -0.06514807045459747 0.2977381646633148
0.22981934249401093 0.14096596837043762 0.13157379627227783
-0.5287550091743469 -0.040389012545347214 0.20276498794555664
0.4287059009075165 0.14096596837043762 0.1964583396911621
0.8813981413841248 0.08226526528596878 -0.22762897610664368
0.3463703691959381 -0.18819847702980042 0.17456473410129547
-0.022355444729328156 0.19083935022354126 0.17852401733398438
0.14422425627708435 0.06095336005091667 0.3550514280796051
0.9062707424163818 0.12115597724914551 -0.27171868085861206
-0.327034592628479 -0.06347740441560745 0.3065219223499298
-0.3039354979991913 0.19083935022354126 0.30590155720710754
-0.35255900025367737 0.14096596837043762 0.2599148154258728
0.27659860253334045 -0.18819847702980042 0.17191967368125916
-0.49767225980758667 0.19083935022354126 -0.0871104821562767
-0.7016984820365906 0.19083935022354126 -0.23611627519130707
0.16888806223869324 -0.13832509517669678 0.10341399908065796
0.7296303510665894 0.1552082598209381 -0.5818667411804199
-0.2970469295978546 0.19083935022354126 0.3271924555301666
-0.7249484062194824 -0.18819847702980042 -0.25803783535957336
-0.4863639771938324 -0.1271854043006897 0.22984224557876587
-0.5669386982917786 -0.13186998665332794 0.23704497516155243
0.8851869702339172 -0.1496046930551529 -0.5818667411804199
-0.7547277808189392 -0.13832509517669678 -0.10433562099933624
-0.6179083585739136 0.19083935022354126 -0.15192587673664093
0.8828248381614685 -0.0018541252939030528 -0.11283386498689651
0.8685585260391235 -0.18819847702980042 -0.5116147994995117
0.5875891447067261 -0.18819847702980042 0.1696815937757492
0.35340452194213867 0.11779419332742691 0.35185423493385315
0.32533684372901917 0.19083935022354126 0.1262199580669403
0.6303289532661438 0.16806912422180176 0.19319936633110046
-0.6597219109535217 -0.04362812265753746 0.16397343575954437
0.7084236145019531 -0.13832509517669678 -0.3200913667678833
-0.35483741760253906 0.03068089298903942 0.2957332730293274
0.23109465837478638 0.19083935022354126 0.20226578414440155
-0.837223470211029 0.15177656710147858 -0.5818667411804199
-0.042036667466163635 -0.13832509517669678 0.36049556732177734
0.8717705011367798 -0.13832509517669678 -0.2064928561449051
-0.565061092376709 0.14096596837043762 -0.10427678376436234
0.7791150212287903 0.14096596837043762 -0.0744609460234642
0.7771267294883728 -0.09500084817409515 -0.03605199232697487
0.5836007595062256 -0.1746133416891098 0.22884921729564667
0.7725829482078552 0.12359560281038284 -0.029643166810274124
-0.8712154030799866 -0.08433273434638977 -0.21528734266757965
-0.8846438527107239 0.023463545367121696 -0.24904687702655792
-0.893764853477478 0.19083935022354126 -0.3595161736011505
-0.9718303680419922 -0.18593190610408783 -0.36874842643737793
-0.4024212956428528 0.19083935022354126 0.09079073369503021
-0.8256371021270752 -0.13832509517669678 -0.4081498980522156
0.3768307864665985 0.14096596837043762 0.06577892601490021
-0.596023678779602 0.17492923140525818 0.21600088477134705
-0.8543544411659241 0.14096596837043762 -0.4324345290660858
0.4343280494213104 -0.18819847702980042 -0.00303588155657053
0.7357970476150513 -0.13832509517669678 -0.1642097681760788
-0.6508792042732239 -0.09625622630119324 0.10439000278711319
-0.45890697836875916 -0.13273349404335022 0.24573059380054474
-0.860382080078125 0.14096596837043762 -0.33226269483566284
-0.6747573018074036 0.17934969067573547 -0.41240692138671875
0.9243794083595276 -0.18819847702980042 -0.20431558787822723
0.9090608954429626 0.03215346857905388 -0.16577306389808655
-0.7414364814758301 0.19083935022354126 -0.4231763184070587
0.21215638518333435 -0.16989897191524506 0.08408733457326889
-0.9664451479911804 -0.18819847702980042 -0.5062293410301208
0.7807340025901794 0.14096596837043762 -0.4075634181499481
0.5030112862586975 0.14210070669651031 -0.09505375474691391
0.6780605316162109 0.16949111223220825 0.1520155370235443
0.7648048996925354 -0.18819847702980042 -0.3928678333759308
-0.691365122795105 0.19083935022354126 -0.4468737840652466
0.8716001510620117 0.19083935022354126 -0.4355369210243225
-0.13233695924282074 0.0509975329041481 0.4064134657382965
-0.4937669634819031 0.19083935022354126 0.28077438473701477
-0.6157198548316956 0.19083935022354126 0.0193914957344532
0.9240259528160095 0.06022219359874725 -0.20013025403022766
0.914255678653717 -0.13832509517669678 -0.3582201600074768
-0.8569673895835876 -0.18819847702980042 -0.26555052399635315
-0.8716521859169006 0.19083935022354126 -0.547277569770813
0.4419327974319458 -0.13832509517669678 0.07690827548503876
-0.7894143462181091 -0.13832509517669678 -0.06341405212879181
0.8101688027381897 0.017287593334913254 0.0034956620074808598
-0.2993721663951874 0.1697957068681717 0.04766334965825081
0.44326770305633545 -0.026136310771107674 0.2569830119609833
-0.730065107345581 0.19083935022354126 -0.19895555078983307
0.49626198410987854 0.14096596837043762 0.061388153582811356
0.9299801588058472 -0.13832509517669678 -0.5719274878501892
-0.8354818224906921 0.19083935022354126 -0.1431410014629364
-0.45526066422462463 -0.04560988396406174 0.2477523535490036
-0.14680416882038116 0.19083935022354126 0.3580809235572815
0.09187829494476318 0.19083935022354126 0.3414033353328705
-0.6099113821983337 -0.13832509517669678 0.1023685410618782
-0.785427451133728 -0.08977150917053223 -0.05556848272681236
-0.9394349455833435 0.17244954407215118 -0.2539561092853546
-0.41920751333236694 0.14584381878376007 0.32199206948280334
-0.7661439180374146 0.06223530322313309 0.05377652123570442
-0.22138656675815582 -0.04498470574617386 0.39011886715888977
-0.6735383868217468 -0.18819847702980042 -0.35721319913864136
0.7293281555175781 0.14096596837043762 -0.06113576516509056
-0.3909451365470886 -0.18819847702980042 0.33260008692741394
0.7022128105163574 0.007766537833958864 0.12903514504432678
-0.46038582921028137 -0.16170138120651245 0.0693996474146843
0.8320766687393188 0.14096596837043762 -0.5441471934318542
0.6991493105888367 -0.17797379195690155 -0.534569501876831
-0.42194363474845886 0.19083935022354126 -0.023938005790114403
0.45220592617988586 0.14096596837043762 0.15423882007598877
-0.1541612148284912 0.14096596837043762 0.10406744480133057
-0.2258663773536682 0.19083935022354126 0.20287854969501495
-0.7405633926391602 0.19083935022354126 -0.08139603585004807
0.7629342675209045 -0.18819847702980042 -0.5503072738647461
0.4362623989582062 0.14096596837043762 0.08955269306898117
-0.08224634826183319 0.19083935022354126 0.24862325191497803
0.9256917238235474 -0.18819847702980042 -0.38338467478752136
-0.8071104884147644 0.19083935022354126 -0.47061887383461
0.6102555394172668 -0.07174783945083618 0.20906566083431244
-0.12748536467552185 0.11811000108718872 0.3567475974559784
0.8569050431251526 -0.13832509517669678 -0.3513091802597046
-0.35580626130104065 0.05538440868258476 0.2953101694583893
0.5528576970100403 0.14096596837043762 0.12748317420482635
0.366184264421463 -0.13832509517669678 0.050197746604681015
-0.653985857963562 -0.13832509517669678 -0.3030824661254883
-0.06729664653539658 0.03167896717786789 0.3631378412246704
0.9251070022583008 -0.02017052285373211 -0.27171868085861206
0.810523271560669 -0.11935368925333023 -0.08681177347898483
0.8067581057548523 0.01586146093904972 -0.08071831613779068
-0.7899091243743896 -0.08530343323945999 0.02386723831295967
-0.6544705033302307 -0.13832509517669678 0.0547349713742733
-0.8983291983604431 -0.07062284648418427 -0.15367430448532104
-0.7359363436698914 -0.1432417780160904 -0.5818667411804199
0.37591445446014404 0.17340868711471558 0.34305891394615173
-0.8539854288101196 0.14096596837043762 -0.5504599809646606
-0.0809096246957779 0.14096596837043762 0.2029876559972763
0.998693585395813 -0.1711527556180954 -0.5307359099388123
-0.12628072500228882 -0.13832509517669678 0.11980532109737396
-0.09837674349546432 0.008894842118024826 0.36030322313308716
-0.10972288250923157 0.14096596837043762 0.3387943506240845
-0.5565814971923828 -0.18819847702980042 0.03261744976043701
0.23715615272521973 0.19083935022354126 0.20362983644008636
-0.13970698416233063 -0.0086517920717597 0.3549697697162628
0.8514431118965149 -0.18819847702980042 -0.40431657433509827
0.11577107757329941 0.18754473328590393 0.4090976119041443
0.20267672836780548 0.19083935022354126 0.33320435881614685
-0.1392778903245926 -0.13832509517669678 0.19365715980529785
0.3336736261844635 0.14096596837043762 0.2005031853914261
-0.299612432718277 -0.13832509517669678 0.08611521124839783
0.25112295150756836 -0.13832509517669678 0.22330446541309357
-0.5651930570602417 -0.13832509517669678 -0.08137835562229156
-0.5771670341491699 0.19083935022354126 0.20692811906337738
-0.5212771892547607 0.16755640506744385 -0.12028332054615021
-0.16001057624816895 0.19083935022354126 0.25666260719299316
0.6083343625068665 -0.13832509517669678 0.05117453262209892
0.6064541339874268 0.08385787904262543 0.148295596241951
-0.23824548721313477 0.12040203809738159 0.33460748195648193
-0.8434321880340576 -0.13832509517669678 -0.25335636734962463
-0.8719648718833923 0.19083935022354126 -0.3676808178424835
-0.0900680273771286 -0.13832509517669678 0.24436424672603607
0.3068569302558899 -0.18819847702980042 0.16841472685337067
-0.8027777671813965 0.14096596837043762 -0.45889145135879517
0.5912874341011047 0.14096596837043762 -0.1122705414891243
-0.7278023958206177 -0.18819847702980042 -0.3429049551486969
-0.5708895325660706 0.19083935022354126 -0.1382274329662323
0.6355082392692566 -0.18819847702980042 -0.07592615485191345
-0.5442547798156738 0.18883810937404633 0.2523326575756073
-0.32629409432411194 -0.18819847702980042 0.04721417650580406
-0.42599642276763916 0.07170797139406204 0.318838506937027
0.8233886361122131 0.14096596837043762 -0.20519521832466125
0.17778964340686798 0.05214637517929077 0.3493459224700928
-0.013965150341391563 -0.08622663468122482 0.3655640780925751
0.12526340782642365 0.14096596837043762 0.17883464694023132
-0.7565581202507019 0.14096596837043762 -0.5558587908744812
0.9171473979949951 0.14096596837043762 -0.4235197901725769
-0.0032046681735664606 0.19083935022354126 0.27351126074790955
-0.8924267888069153 0.016940457746386528 -0.1415567249059677
-0.7892725467681885 0.14096596837043762 -0.09248403459787369
0.13700689375400543 0.013673230074346066 0.3561338782310486
0.3648693859577179 0.19083935022354126 0.17347805202007294
-0.43347734212875366 -0.18819847702980042 0.01818191260099411
-0.12614816427230835 -0.09299474954605103 0.35691598057746887
-0.31606221199035645 0.19083935022354126 0.14687544107437134
0.5550546646118164 -0.18819847702980042 0.13156211376190186
-0.8613691926002502 0.19083935022354126 -0.4209219217300415
0.6345789432525635 -0.16717413067817688 -0.28515714406967163
-0.21211488544940948 0.14096596837043762 0.14188599586486816
0.7934238910675049 -0.0014353054575622082 -0.060003720223903656
0.23871785402297974 -0.007741553243249655 0.3357962667942047
0.6658588647842407 0.19083935022354126 0.016494393348693848
0.6838821768760681 0.19083935022354126 -0.4204466938972473
-0.676659345626831 0.14096596837043762 -0.415242999792099
0.677815318107605 -0.14285463094711304 -0.404353529214859
-0.6724734306335449 -0.18819847702980042 0.023886773735284805
-0.19750109314918518 -0.05490553751587868 0.34435003995895386
0.7248106002807617 0.19083935022354126 -0.2357254922389984
-0.03513104468584061 -0.17138467729091644 0.29805514216423035
-0.6793742179870605 0.17105333507061005 -0.4320041537284851
0.8043484687805176 -0.1133079081773758 -0.07687640190124512
0.5524368286132812 0.19083935022354126 0.14600268006324768
0.3149873912334442 0.17481042444705963 0.042501021176576614
0.20052197575569153 0.14096596837043762 0.26484692096710205
0.9263488054275513 0.1808169186115265 -0.2057098150253296
-0.24320334196090698 -0.15844504535198212 0.38482728600502014
-0.3062973916530609 -0.13832509517669678 0.24357256293296814
-0.7300516963005066 -0.05140174180269241 0.09499473124742508
-0.28189077973365784 -0.04321799427270889 0.3741740584373474
0.9495606422424316 -0.1724582016468048 -0.5818667411804199
0.6428975462913513 0.10817734897136688 0.11658871918916702
-0.6146180033683777 -0.18819847702980042 0.10618915408849716
0.7130876183509827 -0.18819847702980042 -0.09637842327356339
-0.5727787017822266 0.14459674060344696 0.23290209472179413
-0.8039379715919495 0.19083935022354126 -0.4742000997066498
0.8462969064712524 -0.10642336308956146 -0.15064363181591034
-0.6420382261276245 -0.18819847702980042 0.12183469533920288
0.6144008040428162 0.19083935022354126 0.06271590292453766
-0.9525676369667053 0.19083935022354126 -0.5451564788818359
-0.38471782207489014 0.15228649973869324 -0.000926571839954704
-0.6821906566619873 -0.18819847702980042 -0.32836636900901794
0.6874328851699829 0.14096596837043762 -0.3319494128227234
-0.8514479994773865 -0.18819847702980042 -0.2208942323923111
0.2188287228345871 0.19083935022354126 0.20958212018013
-0.4325624406337738 0.028648963198065758 0.31563401222229004
0.7110503315925598 0.19083935022354126 0.10220962762832642
0.5175544023513794 0.14096596837043762 0.20853576064109802
-0.8133057951927185 -0.09957311302423477 -0.1000199019908905
0.9277435541152954 -0.00786539725959301 -0.20918427407741547
0.021495088934898376 -0.18819847702980042 0.36782360076904297
0.6750868558883667 0.19083935022354126 0.07080996781587601
-0.6433467864990234 -0.18819847702980042 0.03946256265044212
0.7028511762619019 -0.18819847702980042 -0.05122756212949753
0.44447922706604004 -0.18819847702980042 -0.02842034213244915
0.8872894644737244 -0.06357982754707336 -0.12129369378089905
0.2712755799293518 -0.17709657549858093 0.06253619492053986
0.46794188022613525 0.14096596837043762 0.18120265007019043
0.746059775352478 0.19083935022354126 -0.1306481510400772
0.46532580256462097 -0.13832509517669678 0.02884051389992237
-0.6893107295036316 -0.10195489972829819 0.13663612306118011
0.19875679910182953 0.10110422968864441 0.34514808654785156
-0.33867383003234863 0.011308731511235237 0.30213463306427
-0.6213955879211426 0.14096596837043762 -0.08364235609769821
-0.9250908493995667 0.09157934039831161 -0.21530681848526
-0.4087914824485779 0.14096596837043762 0.22699661552906036
0.7809827327728271 0.19083935022354126 -0.19571515917778015
0.3630043864250183 -0.18819847702980042 0.19983762502670288
0.7548762559890747 -0.13832509517669678 -0.5379412770271301
0.44463035464286804 0.01870161108672619 0.3122642934322357
-0.3741701543331146 -0.15128310024738312 0.005964622367173433
0.5370011329650879 0.1156916692852974 0.26031479239463806
-0.1568375825881958 -0.18819847702980042 0.11516006290912628
0.061884213238954544 0.19083935022354126 0.3459673523902893
-0.5408138632774353 0.05228966847062111 0.19440864026546478
0.813209056854248 -0.12419283390045166 -0.000711272528860718
0.9332929253578186 0.19083935022354126 -0.2322475016117096
0.844736635684967 0.14096596837043762 -0.43701520562171936
0.2655133605003357 0.14096596837043762 0.14899440109729767
-0.877541720867157 0.14096596837043762 -0.5167572498321533
0.6020176410675049 0.06218327581882477 0.21534547209739685
0.24328571557998657 0.19083935022354126 0.15545901656150818
0.6961227059364319 0.06385323405265808 0.13497862219810486
0.7729328870773315 -0.14297601580619812 -0.5818667411804199
0.44181907176971436 -0.13832509517669678 0.03540046140551567
0.46171602606773376 -0.055292535573244095 0.3036268651485443
-0.41810503602027893 0.19083935022354126 0.041168298572301865
-0.13121022284030914 -0.18819847702980042 0.3765341341495514
-0.8701956868171692 -0.18819847702980042 -0.5575059652328491
-0.8287373781204224 -0.18819847702980042 -0.15529777109622955
-0.6884536743164062 -0.07683742046356201 0.06652195751667023
0.3026025593280792 -0.18819847702980042 0.16539724171161652
0.7085888981819153 0.14096596837043762 -0.06369329243898392
-0.41587376594543457 0.19083935022354126 0.005827701184898615
-0.9058446884155273 0.17925065755844116 -0.16989640891551971
-0.228236585855484 -0.13832509517669678 0.29217201471328735
0.18993408977985382 0.1785878837108612 0.09070342779159546
0.3915526270866394 0.07164259999990463 0.28215450048446655
-0.2044493705034256 0.19083935022354126 0.31217512488365173
0.736449658870697 0.19083935022354126 -0.030725955963134766
-0.7670144438743591 0.08452214300632477 -0.02902243658900261
-0.8584454655647278 0.17422917485237122 -0.5818667411804199
0.18270249664783478 -0.18819847702980042 0.12435410916805267
0.7057268619537354 0.19083935022354126 -0.37655380368232727
0.9127629399299622 -0.0076540494337677956 -0.27171868085861206
-0.1548061966896057 -0.13832509517669678 0.15719039738178253
-0.7239431738853455 0.19083935022354126 -0.11511760205030441
0.5296480059623718 -0.10899179428815842 0.2649208605289459
0.8626058101654053 0.19083935022354126 -0.4442375898361206
-0.8046452403068542 -0.18819847702980042 -0.49248751997947693
-0.579929769039154 0.19083935022354126 0.06554067879915237
-0.2618049383163452 -0.08982674032449722 0.3799215257167816
0.04789835587143898 -0.16357764601707458 0.24598675966262817
0.8380578756332397 -0.16230134665966034 -0.3599693477153778
-0.06424286961555481 0.19083935022354126 0.3376694917678833
0.752377450466156 0.12378055602312088 -0.002504374599084258
0.6683499813079834 -0.08226252347230911 0.1608455628156662
0.3305346965789795 0.14096596837043762 0.06075417995452881
-0.9265390038490295 0.19083935022354126 -0.37024396657943726
-0.8399813771247864 0.19083935022354126 -0.3707534372806549
-0.4358955919742584 -0.09702610224485397 0.2581554353237152
-0.8809384703636169 -0.18819847702980042 -0.4557930827140808
0.759769082069397 -0.13832509517669678 -0.563637375831604
0.3703303635120392 0.15229147672653198 0.01159326359629631
0.5424633622169495 0.14096596837043762 0.15757125616073608
-0.9591327905654907 -0.15711820125579834 -0.3172371983528137
0.04622782766819 -0.16908107697963715 0.11497334390878677
0.44567301869392395 -0.18819847702980042 0.18273994326591492
0.8531127572059631 0.14618851244449615 -0.5818667411804199
0.294329971075058 0.14096596837043762 0.22010433673858643
0.7307488918304443 0.14096596837043762 -0.0867563784122467
0.9999637007713318 0.17167630791664124 -0.5726106762886047
0.6365013122558594 -0.18819847702980042 -0.21807125210762024
0.4038034677505493 -0.13832509517669678 0.014403479173779488
-0.46951380372047424 0.14096596837043762 0.13630685210227966
0.9925554990768433 -0.18819847702980042 -0.47192221879959106
0.9303768277168274 0.08621348440647125 -0.21579833328723907
-0.1793556809425354 -0.18819847702980042 0.24799665808677673
0.20816132426261902 -0.13832509517669678 0.19765952229499817
0.17127686738967896 -0.18819847702980042 0.1117325872182846
0.8856134414672852 -0.18819847702980042 -0.3576422333717346
-0.706815779209137 0.0625247210264206 0.1193622574210167
0.7159773707389832 -0.13832509517669678 -0.18888027966022491
-0.5987198948860168 -0.18819847702980042 0.2048056274652481
-0.5455241799354553 -0.1317589282989502 0.25152233242988586
0.7004770040512085 0.14096596837043762 -0.32274794578552246
0.7000334858894348 -0.010939433239400387 0.13117070496082306
-0.6299372911453247 0.19083935022354126 0.10363306850194931
-0.8117198944091797 0.14096596837043762 -0.49792200326919556
-0.4505390524864197 0.14096596837043762 0.1993425488471985
0.44678568840026855 0.01597597822546959 0.2551380693912506
-0.7564224600791931 0.19083935022354126 -0.07518264651298523
0.7265979647636414 0.012464059516787529 0.02939862571656704
-0.5964231491088867 0.08336643129587173 0.1523701548576355
0.17304721474647522 -0.18819847702980042 0.3233005702495575
-0.8915071487426758 0.19083935022354126 -0.3425329327583313
-0.7595192193984985 0.06901953369379044 -0.01871713437139988
-0.6784224510192871 0.11574307084083557 0.07706323266029358
0.3334486484527588 0.1461230367422104 0.03291310369968414
-0.5564303398132324 0.19083935022354126 0.09235505759716034
0.18359699845314026 0.19083935022354126 0.15176045894622803
0.40216758847236633 -0.1260521560907364 0.3320311903953552
0.05427996814250946 0.1338220089673996 0.4142460227012634
-0.7386810779571533 -0.13832509517669678 -0.022643575444817543
-0.30114397406578064 -0.18819847702980042 0.23607154190540314
-0.9384415149688721 0.19083935022354126 -0.4391095042228699
-0.27002158761024475 -0.18819847702980042 0.31554698944091797
-0.7804681658744812 0.1567981094121933 0.036019694060087204
-0.7121641039848328 0.006119763944298029 0.11391494423151016
0.6037431359291077 -0.18272754549980164 -0.22692497074604034
0.1023181825876236 0.14096596837043762 0.1093711256980896
-0.9351931810379028 -0.18819847702980042 -0.523737370967865
-0.45438840985298157 -0.13832509517669678 -0.032941628247499466
-0.7944491505622864 0.19083935022354126 -0.14854301512241364
-0.5456722974777222 -0.13832509517669678 0.10845749825239182
-0.47695982456207275 -0.13832509517669678 0.03197670355439186
0.8672464489936829 0.19083935022354126 -0.4743489623069763
0.7084716558456421 -0.13832509517669678 -0.5779798626899719
0.6764403581619263 0.19083935022354126 -0.06066837161779404
-0.4457230865955353 0.0708266869187355 0.3091839551925659
-0.10641489923000336 -0.18819847702980042 0.20960351824760437
0.11740440875291824 -0.1120641827583313 0.358730286359787
0.04888177290558815 -0.034500475972890854 0.36459052562713623
-0.7989139556884766 0.049822501838207245 -0.07641122490167618
0.9088327288627625 -0.08577299863100052 -0.16528761386871338
0.4466848373413086 0.027430614456534386 0.3112269341945648
-0.3523637056350708 -0.18819847702980042 0.024960333481431007
-0.4361899793148041 0.11516033113002777 0.2580229640007019
-0.10755613446235657 0.19083935022354126 0.24743284285068512
0.16003282368183136 -0.09922614693641663 0.35254383087158203
-0.7066806554794312 0.039144355803728104 0.1194734126329422
0.1089504212141037 -0.1546245515346527 0.40988361835479736
-0.698274552822113 -0.17192275822162628 -0.5818667411804199
0.8466936945915222 0.19083935022354126 -0.22595538198947906
-0.5703707337379456 -0.12756237387657166 0.2346419245004654
0.058112818747758865 -0.18819847702980042 0.15804146230220795
-0.582974910736084 0.12732301652431488 0.22564244270324707
-0.17431379854679108 0.19083935022354126 0.228517547249794
0.5486245155334473 0.08515871316194534 0.19251547753810883
-0.6521122455596924 -0.08633968234062195 0.1706954687833786
-0.6542559862136841 -0.18819847702980042 0.020355157554149628
0.7908095121383667 0.19083935022354126 -0.47286131978034973
0.3306083083152771 -0.13967961072921753 0.03439706936478615
-0.6925079822540283 0.19083935022354126 -0.2576410174369812
0.5915125012397766 0.14096596837043762 0.15106655657291412
-0.8754790425300598 0.14096596837043762 -0.29324549436569214
0.5574681758880615 -0.13832509517669678 -0.0022882362827658653
0.9425605535507202 -0.13832509517669678 -0.36661767959594727
0.45200327038764954 -0.13832509517669678 0.050920043140649796
-0.7916322946548462 0.10670830309391022 0.021629996597766876
-0.09285213053226471 -0.13832509517669678 0.2546342611312866
-0.9620676040649414 -0.18819847702980042 -0.4767278730869293
-0.9245790243148804 -0.18819847702980042 -0.2675909996032715
-0.9898203015327454 0.14907778799533844 -0.4815267026424408
0.6021244525909424 -0.18819847702980042 0.01955382339656353
0.7820767164230347 -0.18819847702980042 -0.14490464329719543
-0.8390061855316162 -0.0005623966571874917 -0.14638367295265198
-0.6340457201004028 0.026210593059659004 0.1859978884458542
0.8235927224159241 0.14096596837043762 -0.25935792922973633
-0.906463623046875 -0.16162630915641785 -0.5818667411804199
0.45312583446502686 -0.13832509517669678 0.0795736014842987
-0.929781436920166 -0.15028980374336243 -0.5818667411804199
-0.8540250062942505 0.14096596837043762 -0.42794644832611084
-0.9259218573570251 -0.18819847702980042 -0.2607557475566864
0.17466816306114197 0.19083935022354126 0.12606200575828552
-0.38330328464508057 -0.18819847702980042 0.1774168461561203
-0.4428706169128418 -0.09861212968826294 0.2544519007205963
0.9326587915420532 0.15409907698631287 -0.221662700176239
0.14446112513542175 0.14664342999458313 0.4054224193096161
-0.38141104578971863 -0.13832509517669678 0.07192397862672806
0.044445622712373734 -0.09517885744571686 0.3647819757461548
-0.6476137638092041 -0.13832509517669678 0.08316256105899811
0.7059363722801208 0.14096596837043762 -0.2541576623916626
-0.5999319553375244 -0.13832509517669678 -0.08911001682281494
0.7221279740333557 -0.13832509517669678 -0.3215513229370117
0.09005240350961685 0.01640894263982773 0.3616650104522705
-0.6046165823936462 -0.0015414514346048236 0.20946036279201508
0.6814892888069153 0.19083935022354126 0.006240982096642256
0.7802797555923462 0.11387740075588226 -0.04056680575013161
-0.6820825338363647 -0.04320837929844856 0.14348584413528442
0.5770233273506165 -0.061955954879522324 0.1717035323381424
-0.930138349533081 0.19083935022354126 -0.467711478471756
0.7023005485534668 0.14096596837043762 -0.27906835079193115
-0.9334517121315002 -0.18819847702980042 -0.41366899013519287
-0.7496019601821899 0.19083935022354126 -0.22196674346923828
0.8498955368995667 -0.15676195919513702 -0.5818667411804199
0.8106709122657776 -0.13832509517669678 -0.15940460562705994
0.03973732516169548 0.14096596837043762 0.3226569592952728
-0.36381733417510986 -0.13832509517669678 0.10312888771295547
-0.7220565676689148 -0.13832509517669678 -0.24632729589939117
-0.7192293405532837 -0.13832509517669678 -0.39644044637680054
0.8380836844444275 -0.08648663759231567 -0.13496039807796478
-0.14989660680294037 0.12582248449325562 0.3533690273761749
0.5393901467323303 0.07241689413785934 0.19894586503505707
-0.6441022157669067 -0.13973836600780487 -0.318527489900589
0.5684933066368103 -0.13832509517669678 0.04877849668264389
-0.6754986047744751 0.19083935022354126 -0.3610466718673706
-0.0011884317500516772 -0.18819847702980042 0.35821428894996643
0.3198709785938263 -0.13832509517669678 0.3014547526836395
0.8658943772315979 0.19083935022354126 -0.4759657084941864
-0.6549818515777588 -0.13832509517669678 -0.02357637882232666
0.7344971895217896 -0.18819847702980042 -0.1587398499250412
-0.738787829875946 -0.13832509517669678 -0.15135906636714935
-0.03946817293763161 -0.16303150355815887 0.4146609306335449
0.4025105834007263 0.08189188688993454 0.2771475613117218
0.48132824897766113 0.10014227777719498 0.23582813143730164
-0.7307334542274475 0.03201773762702942 0.09431120753288269
0.6535404324531555 -0.18819847702980042 -0.09896344691514969
-0.8629487156867981 -0.18819847702980042 -0.2332371175289154
-0.6802476644515991 -0.18819847702980042 -0.33668744564056396
-0.7173504829406738 -0.18819847702980042 -0.1890106201171875
0.9440550804138184 0.14096596837043762 -0.28189247846603394
0.43740114569664 -0.09555000066757202 0.3158027231693268
0.8091382384300232 0.14096596837043762 -0.4836941063404083
0.12224439531564713 0.14096596837043762 0.2758074700832367
-0.3040620982646942 -0.0649515762925148 0.3147102892398834
-0.8583353161811829 0.11549581587314606 -0.18591685593128204
-0.7640118598937988 -0.17129197716712952 -0.2900007367134094
-0.3330206274986267 -0.18819847702980042 0.0451221838593483
0.011588930152356625 0.19083935022354126 0.3337008059024811
-0.8512629866600037 -0.18819847702980042 -0.26930251717567444
0.028906814754009247 0.19083935022354126 0.3375052511692047
0.3663927912712097 0.19083935022354126 0.34351640939712524
0.8438383936882019 -0.07792513817548752 -0.14585545659065247
0.7665594220161438 -0.13832509517669678 -0.5294597148895264
-0.3047733008861542 0.19083935022354126 0.21242259442806244
-0.6156836152076721 0.01765381544828415 0.13626129925251007
0.6729012131690979 -0.18049892783164978 -0.38670647144317627
-0.47389495372772217 0.19083935022354126 0.21924056112766266
-0.9891871809959412 -0.18292278051376343 -0.4753936231136322
0.009051239117980003 -0.17864321172237396 0.31475573778152466
0.19290152192115784 0.14096596837043762 0.10741426050662994
0.44353675842285156 -0.18819847702980042 0.2542360723018646
-0.08750411868095398 -0.14568139612674713 0.41151803731918335
0.08465904742479324 0.19083935022354126 0.1959666758775711
-0.8913903832435608 -0.13832509517669678 -0.43168696761131287
-0.8897063732147217 0.17940059304237366 -0.5818667411804199
-0.8853047490119934 0.03976067900657654 -0.12729336321353912
0.789523184299469 0.14096596837043762 -0.23860156536102295
-0.7165176272392273 0.19083935022354126 -0.1709633469581604
0.6797510385513306 -0.18819847702980042 -0.3106482923030853
-0.6602063179016113 -0.18819847702980042 -0.04714304953813553
0.22657085955142975 -0.14888782799243927 0.3901069164276123
0.859836757183075 0.19083935022354126 -0.5238248705863953
0.6319757103919983 0.14096596837043762 0.08169238269329071
0.938629150390625 -0.13832509517669678 -0.3764023780822754
-0.8786989450454712 -0.08118283748626709 -0.11464610695838928
-0.6546146869659424 0.14096596837043762 -0.31152060627937317
0.3773452043533325 0.19083935022354126 0.1476302146911621
0.30096521973609924 0.0030441172420978546 0.3698967695236206
-0.4371890723705292 0.14096596837043762 0.14741180837154388
-0.0844627395272255 0.14096596837043762 0.3056737184524536
-0.08244051039218903 -0.07545719295740128 0.3618577718734741
-0.7191426157951355 -0.18350784480571747 -0.5818667411804199
0.6942389607429504 -0.18819847702980042 -0.07471423596143723
0.6438152194023132 0.19083935022354126 -0.026095492765307426
-0.8364025950431824 -0.003647950943559408 -0.04235721006989479
0.31171801686286926 0.19083935022354126 0.15442824363708496
-0.9835036396980286 -0.18397289514541626 -0.43165841698646545
-0.15217171609401703 0.029698196798563004 0.35300278663635254
0.8609544038772583 0.19083935022354126 -0.1416226625442505
-0.5785219073295593 0.08451567590236664 0.16662287712097168
0.7316640019416809 -0.18819847702980042 -0.19570358097553253
-0.635355532169342 -0.13832509517669678 0.09989070892333984
0.5458000898361206 -0.06548445671796799 0.1945226788520813
0.4353516697883606 -0.1683923602104187 -0.034044068306684494
0.7911888957023621 -0.009393963031470776 0.028844108805060387
-0.6701268553733826 -0.00948126520961523 0.08552917838096619
0.7143691182136536 0.19083935022354126 0.06579601019620895
0.42014437913894653 -0.13832509517669678 0.028051523491740227
0.8516870141029358 0.19083935022354126 -0.11122142523527145
-0.2907869219779968 0.14096596837043762 0.224479541182518
-0.15584203600883484 -0.01389097236096859 0.40293410420417786
-0.761849045753479 -0.16137680411338806 -0.2934165894985199
-0.7109462022781372 0.14096596837043762 -0.2362067550420761
-0.4465070366859436 -0.18819847702980042 0.16547897458076477
0.2482897937297821 -0.13832509517669678 0.1727626472711563
-0.2897550165653229 0.19083935022354126 0.05436992645263672
-0.25985395908355713 -0.18819847702980042 0.20479249954223633
-0.7337282299995422 -0.18819847702980042 -0.21706819534301758
-0.20870740711688995 -0.18551763892173767 0.39296597242355347
-0.3927675485610962 -0.18819847702980042 0.28940480947494507
0.3350527584552765 0.14096596837043762 0.213252454996109
0.8304022550582886 0.1324838548898697 -0.02548387087881565
0.11052644997835159 -0.14467234909534454 0.107907235622406
0.7551510334014893 -0.1681659072637558 -0.5818667411804199
-0.616460382938385 0.024495059624314308 0.20025509595870972
0.23561149835586548 0.19083935022354126 0.3015240728855133
0.8894720673561096 0.14096596837043762 -0.5476535558700562
0.10285869985818863 0.19083935022354126 0.13006843626499176
-0.922661304473877 -0.00996938906610012 -0.20919382572174072
-0.3066001534461975 -0.13832509517669678 0.3008083701133728
0.867006778717041 0.19083935022354126 -0.4872978627681732
-0.65651535987854 -0.10066596418619156 0.09891626238822937
-0.5700832009315491 -0.13832509517669678 -0.0670643150806427
0.8677972555160522 0.19083935022354126 -0.16029702126979828
0.050614651292562485 0.19083935022354126 0.2561874985694885
-0.9445054531097412 0.08264242857694626 -0.2688302993774414
-0.836959958076477 -0.18652041256427765 -0.35596558451652527
0.0019868225790560246 0.03287239745259285 0.41555556654930115
0.3359353244304657 -0.0543052963912487 0.35822927951812744
0.9401711821556091 0.028804713860154152 -0.24169808626174927
-0.28123483061790466 -0.13832509517669678 0.30952873826026917
0.7183546423912048 -0.13832509517669678 -0.1969926804304123
-0.8794664144515991 -0.01690215803682804 -0.11612656712532043
-0.885753333568573 0.18074975907802582 -0.12816080451011658
0.3230021893978119 0.14096596837043762 0.051345549523830414
0.47954994440078735 -0.01337952259927988 0.29414087533950806
0.5391032099723816 -0.13832509517669678 0.04314068704843521
-0.8038042187690735 0.14096596837043762 -0.10208442062139511
-0.5147436857223511 -0.007390640210360289 0.27096590399742126
0.0579732209444046 0.07892914116382599 0.36409705877304077
-0.9270407557487488 -0.13832509517669678 -0.3538314700126648
0.7605582475662231 -0.18012240529060364 -0.3308541476726532
-0.6365808844566345 -0.13107658922672272 0.11772777140140533
0.5287253856658936 -0.18819847702980042 0.2556193172931671
0.40463194251060486 0.11833926290273666 0.3309071362018585
0.36879846453666687 0.19083935022354126 0.14516887068748474
0.5997614860534668 -0.13832509517669678 -0.15351751446723938
0.5692834854125977 -0.18819847702980042 0.03999706730246544
0.7743445038795471 -0.13832509517669678 -0.2085409164428711
-0.7396456003189087 0.08101393282413483 0.08447011560201645
0.7323852777481079 -0.13832509517669678 0.003872930072247982
-0.6587257385253906 0.17733880877494812 0.16485781967639923
0.23791711032390594 -0.18819847702980042 0.19474822282791138
0.7031128406524658 0.19083935022354126 -0.32830876111984253
0.9356529712677002 -0.05927448347210884 -0.27171868085861206
-0.30729469656944275 -0.14903287589550018 0.3662462830543518
-0.06999290734529495 0.19083935022354126 0.1488734781742096
-0.942179799079895 0.14096596837043762 -0.4154224991798401
0.8098381161689758 0.10914884507656097 -0.0857284739613533
0.653042197227478 0.18190941214561462 0.1742720901966095
-0.130354642868042 0.14096596837043762 0.3542688488960266
0.08331502228975296 0.19083935022354126 0.3705933690071106
0.5124198794364929 0.19083935022354126 -0.07898840308189392
0.2728254795074463 -0.18819847702980042 0.13994674384593964
-0.9010531306266785 -0.08245664089918137 -0.15947771072387695
-0.4448785185813904 0.19083935022354126 -0.01711452379822731
-0.9415867924690247 0.00606709998100996 -0.26023057103157043
0.8685914278030396 -0.18819847702980042 -0.5398013591766357
-0.22641579806804657 -0.18819847702980042 0.16191889345645905
-0.4163423180580139 -0.18819847702980042 0.24555711448192596
0.264116108417511 -0.13832509517669678 0.2823449373245239
0.08224491029977798 -0.18819847702980042 0.1434996873140335
-0.0547679178416729 -0.06264334917068481 0.36396726965904236
-0.6120091676712036 0.19083935022354126 -0.014682475477457047
-0.7396631836891174 -0.13832509517669678 -0.27309489250183105
0.06994973868131638 0.14096596837043762 0.23841214179992676
0.43020352721214294 0.15095824003219604 -0.02997022122144699
0.9636935591697693 0.14096596837043762 -0.3366967737674713
-0.4230356216430664 0.19083935022354126 0.20572303235530853
-0.651864767074585 0.15123268961906433 -0.3385217785835266
-0.611134946346283 -0.18819847702980042 -0.029102012515068054
0.4321281313896179 0.14096596837043762 0.2554084360599518
-0.6912086606025696 -0.13832509517669678 -0.34073084592819214
0.7470025420188904 -0.13832509517669678 -0.4083097279071808
0.2841704785823822 0.19083935022354126 0.07959026098251343
0.025255709886550903 0.07747338712215424 0.41530197858810425
-0.0049885776825249195 -0.024831663817167282 0.36568450927734375
-0.21419686079025269 0.19083935022354126 0.11277337372303009
-0.6953118443489075 -0.18819847702980042 -0.31857648491859436
0.8413119912147522 0.19083935022354126 -0.09692727774381638
-0.31691768765449524 -0.13832509517669678 0.17700499296188354
-0.7911434173583984 0.1477150171995163 0.022238921374082565
0.27572864294052124 0.08832300454378128 0.3254765272140503
-0.40205132961273193 0.14096596837043762 0.042647771537303925
0.6395166516304016 0.19083935022354126 0.15332549810409546
0.20132485032081604 -0.18819847702980042 0.14191380143165588
-0.22324775159358978 -0.18819847702980042 0.2059275507926941
0.10478717088699341 -0.0618613101541996 0.3601670265197754
0.840456485748291 0.1884688287973404 -0.04080253839492798
0.4428275227546692 -0.18819847702980042 0.03951948881149292
0.17439785599708557 -0.18819847702980042 0.1327752321958542
-0.2483202964067459 -0.13832509517669678 0.18407230079174042
-0.12077876925468445 0.19083935022354126 0.33879002928733826
-0.737375795841217 -0.13832509517669678 -0.5745934844017029
0.1472175568342209 -0.18819847702980042 0.3647538721561432
-0.9009732604026794 -0.18819847702980042 -0.484972208738327
-0.7329347133636475 0.19083935022354126 -0.09415888786315918
0.6368498206138611 -0.16977663338184357 -0.29008811712265015
0.6646645069122314 -0.18819847702980042 0.052697326987981796
-0.3333422541618347 -0.13832509517669678 0.2552945911884308
-0.3455352187156677 0.012182729318737984 0.3528820872306824
0.8172578811645508 0.14096596837043762 -0.4795019328594208
0.792499840259552 0.14096596837043762 -0.2690720856189728
0.8838869333267212 0.0666806772351265 -0.11477907747030258
-0.7835896015167236 -0.14289282262325287 -0.36528536677360535
-0.7596566081047058 0.14096596837043762 -0.28213104605674744
0.5717684626579285 -0.09797357022762299 0.17569732666015625
-0.8960986733436584 -0.13832509517669678 -0.2765003442764282
-0.22943709790706635 0.19083935022354126 0.2226293832063675
-0.8617805242538452 -0.14328284561634064 -0.08408212661743164
0.6577070951461792 0.14096596837043762 -0.020647218450903893
-0.5116291642189026 0.14096596837043762 0.08573908358812332
0.7652580738067627 -0.18819847702980042 -0.3541018068790436
-0.29332461953163147 0.0845203623175621 0.3706703186035156
-0.6637082695960999 0.08639581501483917 0.09191678464412689
0.8067879676818848 0.19083935022354126 -0.4954012632369995
0.057515811175107956 0.14096596837043762 0.1742471605539322
-0.057043157517910004 -0.01405168417841196 0.36383724212646484
0.9038781523704529 -0.13832509517669678 -0.5792298316955566
0.46984291076660156 -0.18544843792915344 0.299355685710907
0.8205003142356873 -0.018737617880105972 -0.011034252122044563
0.8339295983314514 -0.14182902872562408 -0.36227428913116455
-0.7763590216636658 -0.18819847702980042 -0.44731560349464417
0.4545292258262634 0.19083935022354126 0.21766161918640137
0.9431484341621399 0.0791405737400055 -0.27171868085861206
-0.8839823007583618 -0.18819847702980042 -0.32032498717308044
0.9135498404502869 0.14096596837043762 -0.5088885426521301
-0.6426752805709839 0.14096596837043762 -0.21504178643226624
0.9154725670814514 -0.07825801521539688 -0.18006086349487305
-0.17415082454681396 0.011398580856621265 0.3998137414455414
0.8942174315452576 -0.024072863161563873 -0.13483747839927673
0.6127901673316956 0.19083935022354126 -0.030025828629732132
-0.8230899572372437 0.14096596837043762 -0.1495097279548645
-0.6200122237205505 -0.18819847702980042 0.03138863295316696
-0.01690058968961239 -0.0710458979010582 0.3654717206954956
-0.43064653873443604 -0.18819847702980042 0.017512764781713486
0.24164599180221558 -0.16931477189064026 0.07410543411970139
0.8650088906288147 -0.18819847702980042 -0.3055381774902344
-0.20406019687652588 -0.13832509517669678 0.09851723909378052
0.9436741471290588 -0.18819847702980042 -0.4517842233181
0.8069777488708496 -0.045668330043554306 -0.08116890490055084
-0.6691611409187317 0.08550955355167389 0.15551701188087463
-0.6820687055587769 0.1758410781621933 -0.4449237585067749
-0.8366988897323608 0.14096596837043762 -0.2314518392086029
0.5433744788169861 0.10645940899848938 0.19616201519966125
-0.4184357225894928 0.19083935022354126 0.26348868012428284
-0.6526201367378235 0.14096596837043762 -0.18135185539722443
-0.3998521566390991 -0.08828956633806229 0.276006817817688
0.1015021800994873 -0.11580682545900345 0.41062334179878235
0.1838580071926117 -0.13832509517669678 0.2723432779312134
0.7637501955032349 0.029270103201270103 -0.017529422417283058
0.6744958162307739 0.008722865954041481 0.15528877079486847
-0.5788010358810425 -0.025723859667778015 0.16642531752586365
0.28763547539711 0.046527933329343796 0.3739505708217621
0.8726787567138672 -0.18819847702980042 -0.35299763083457947
0.4472067058086395 0.10261064022779465 0.3109932243824005
-0.16004472970962524 -0.18819847702980042 0.1949010193347931
0.09047727286815643 0.1627163141965866 0.11078006774187088
-0.6809399127960205 -0.06366365402936935 0.14461566507816315
-0.6440858244895935 -0.019463595002889633 0.11079864948987961
-0.4320231080055237 -0.18819847702980042 0.05162191018462181
0.866838276386261 0.10499683022499084 -0.08397956937551498
-0.2967512905597687 0.19083935022354126 0.26995494961738586
-0.14017640054225922 -0.0988406240940094 0.4053235352039337
-0.8509543538093567 0.19083935022354126 -0.2267133891582489
0.6807361245155334 0.14096596837043762 -0.32954737544059753
0.9349625706672668 0.14096596837043762 -0.46095794439315796
0.3275747299194336 0.19083935022354126 0.28308382630348206
-0.11379145830869675 -0.05304105207324028 0.35853368043899536
0.28737011551856995 -0.11902923136949539 0.3218928873538971
0.39243775606155396 0.14096596837043762 0.20020902156829834
-0.6882925629615784 -0.16887114942073822 0.13757281005382538
0.45679423213005066 0.16513513028621674 -0.05165300890803337
0.3447539508342743 0.043376535177230835 0.3017308712005615
-0.7743242979049683 -0.14680400490760803 -0.2807075083255768
-0.6709310412406921 -0.13832509517669678 0.012512524612247944
-0.48543328046798706 -0.13832509517669678 0.2218024730682373
-0.8451389670372009 0.19083935022354126 -0.40237605571746826
-0.6714689135551453 0.19083935022354126 0.04826676473021507
-0.29898980259895325 0.14096596837043762 0.06633242964744568
-0.931460440158844 -0.13832509517669678 -0.5777226686477661
-0.7101081013679504 -0.18819847702980042 -0.4972632825374603
0.8401561379432678 -0.08941779285669327 -0.1387815624475479
-0.7390617728233337 -0.13832509517669678 -0.40174469351768494
-0.189597949385643 0.179341122508049 0.08936333656311035
0.16674232482910156 0.14096596837043762 0.24748432636260986
-0.5426316857337952 0.19083935022354126 -0.10226325690746307
-0.7654631733894348 0.11470826715230942 0.05457384139299393
-0.7731390595436096 0.07976476848125458 -0.037638962268829346
0.9142112135887146 0.19083935022354126 -0.4358080327510834
-0.9902237057685852 -0.18819847702980042 -0.5322542190551758
0.019789163023233414 -0.18819847702980042 0.14514298737049103
0.646446704864502 0.14096596837043762 -0.06954999268054962
-0.018537145107984543 0.19083935022354126 0.24386905133724213
0.801516592502594 0.07158194482326508 0.015274803154170513
-0.7250231504440308 -0.13832509517669678 -0.20190702378749847
0.4081091582775116 0.05278199911117554 0.32936570048332214
0.525420069694519 0.17202894389629364 -0.11916131526231766
0.36709973216056824 0.16460342705249786 0.013624254614114761
0.787646472454071 0.02984577789902687 0.03333399444818497
-0.11427844315767288 -0.1609763354063034 0.1064695343375206
-0.7644620537757874 -0.13832509517669678 -0.12184856832027435
-0.6591251492500305 -0.13832509517669678 0.08794612437486649
-0.5983636975288391 0.0879911407828331 0.21426178514957428
-0.2940564453601837 -0.13832509517669678 0.06973754614591599
0.273012638092041 -0.13832509517669678 0.2626747488975525
-0.08156204968690872 -0.13832509517669678 0.24421527981758118
-0.7418273687362671 -0.18819847702980042 -0.2077082097530365
0.3006559908390045 -0.18819847702980042 0.3031207025051117
0.48011189699172974 -0.13832509517669678 0.17449109256267548
-0.446811705827713 -0.15817202627658844 0.11215503513813019
0.11920879781246185 -0.10752870887517929 0.40873754024505615
0.2955992519855499 0.19083935022354126 0.07675853371620178
0.7689481973648071 0.16899430751800537 0.05653885751962662
-0.324747771024704 -0.18819847702980042 0.05377136543393135
0.14364702999591827 0.14096596837043762 0.20045416057109833
-0.1457217037677765 -0.13832509517669678 0.2317066490650177
-0.759165346622467 -0.17165131866931915 0.062088821083307266
0.727746844291687 0.19083935022354126 -0.44092437624931335
0.9679425358772278 0.19083935022354126 -0.4036823809146881
-0.18759210407733917 0.14096596837043762 0.21254298090934753
0.6900438666343689 0.19083935022354126 -0.07161849737167358
0.22140389680862427 0.14096596837043762 0.2433721274137497
-0.2558837831020355 -0.09540881216526031 0.32975679636001587
-0.9590378999710083 -0.14675621688365936 -0.5818667411804199
0.6387718319892883 0.06747091561555862 0.12032166868448257
0.5308856964111328 0.1013566106557846 0.20473234355449677
-0.7164860367774963 -0.18819847702980042 -0.06481077522039413
0.056983523070812225 0.19083935022354126 0.16572542488574982
-0.39096513390541077 0.11616737395524979 0.28015708923339844
0.8307064771652222 -0.13832509517669678 -0.16226722300052643
0.35023796558380127 -0.13832509517669678 0.2845698297023773
0.1104072630405426 0.19083935022354126 0.23875190317630768
-0.5379222631454468 -0.18819847702980042 0.2521926164627075
0.8621523380279541 0.08537375181913376 -0.0759386196732521
-0.7931223511695862 0.03834284096956253 0.019620995968580246
-0.9485530853271484 -0.18819847702980042 -0.40809667110443115
0.4378487467765808 0.026538733392953873 0.25982168316841125
-0.8393144607543945 -0.04513474926352501 -0.04693913459777832
0.2870335280895233 -0.13832509517669678 0.2228381633758545
-0.7959617972373962 0.05414561927318573 -0.07167242467403412
0.3730916380882263 0.12328185141086578 0.2902616560459137
-0.1655263900756836 -0.13832509517669678 0.31874755024909973
-0.2783035635948181 -0.18819847702980042 0.07588091492652893
-0.49602219462394714 -0.18819847702980042 -0.04861646890640259
-0.4709720015525818 -0.10206473618745804 0.2389354407787323
0.7414671778678894 -0.13832509517669678 -0.2649420201778412
-0.10643289238214493 -0.18819847702980042 0.3436632752418518
-0.18189775943756104 0.19083935022354126 0.23686173558235168
-0.9110994935035706 -0.13832509517669678 -0.3253915309906006
-0.9536352753639221 0.14259950816631317 -0.29799342155456543
-0.8889450430870056 -0.18599055707454681 -0.13456596434116364
0.2606559991836548 -0.13832509517669678 0.07972274720668793
0.6397128701210022 -0.13832509517669678 -0.24444526433944702
-0.8613904714584351 -0.18819847702980042 -0.2420443445444107
0.7073549628257751 0.14096596837043762 -0.41390925645828247
-0.21555766463279724 0.14340493083000183 0.08134974539279938
0.08683986216783524 0.11076980829238892 0.3619431257247925
-0.250468373298645 0.11120475083589554 0.3312875032424927
0.9467029571533203 0.17146790027618408 -0.2601645886898041
0.9986168742179871 0.18028508126735687 -0.5296616554260254
-0.7131683230400085 -0.18819847702980042 -0.22670282423496246
-0.06817597895860672 0.14096596837043762 0.27528536319732666
-0.10955923795700073 -0.13832509517669678 0.11923624575138092
-0.044699329882860184 -0.011637329123914242 0.3645368218421936
0.2664013206958771 -0.18819847702980042 0.14880259335041046
-0.8285694122314453 0.11376950144767761 -0.12675069272518158
-0.7805431485176086 0.19083935022354126 -0.2521245777606964
0.6604824066162109 0.19083935022354126 -0.19312605261802673
0.5721787810325623 0.10967383533716202 0.23694664239883423
0.10577171295881271 -0.18819847702980042 0.1495385468006134
-0.7833078503608704 0.19083935022354126 -0.30493107438087463
0.7087657451629639 0.19083935022354126 -0.3867347240447998
-0.48081645369529724 0.14096596837043762 -0.07746866345405579
0.8453283309936523 -0.16460758447647095 -0.0483948178589344
0.7465874552726746 0.1113855391740799 0.004922401625663042
0.20763398706912994 -0.18819847702980042 0.168318971991539
0.3251304626464844 0.19083935022354126 0.25390860438346863
-0.11243491619825363 -0.18819847702980042 0.1918022781610489
0.5607502460479736 0.09835337102413177 0.24477729201316833
-0.4715169668197632 0.14096596837043762 0.10920826345682144
