0.9999989867210388 -0.25089356303215027 -0.19540627300739288
0.9925783276557922 0.4321771264076233 -0.38157474994659424
-0.567501962184906 -0.1342029869556427 -0.10399743169546127
0.4511062204837799 -0.09366205334663391 0.353828102350235
-0.5242539048194885 0.1167418360710144 -0.38157474994659424
-0.17657272517681122 -0.1927059292793274 0.12352865189313889
0.16950924694538116 0.21280813217163086 -0.04497931897640228
-0.06817048043012619 -0.4817732274532318 0.4392447769641876
0.11317276954650879 0.6089695692062378 0.34154632687568665
0.027180230244994164 -0.5766277313232422 0.24552883207798004
0.9999989867210388 -0.417542040348053 -0.2682161033153534
-0.0873539000749588 0.3969162106513977 -0.38157474994659424
0.030995352193713188 -0.6462152600288391 0.46928805112838745
0.5110639929771423 -0.481873482465744 -0.10399743169546127
0.34428533911705017 -0.33729732036590576 0.41671860218048096
-0.83135986328125 -0.3797518014907837 -0.10399743169546127
-0.5992953181266785 -0.2531985938549042 0.5205879211425781
-0.8880826830863953 0.5001217126846313 -0.3549105226993561
0.9999989867210388 -0.30915358662605286 -0.1667422503232956
0.01670190878212452 -0.4471515417098999 -0.38157474994659424
-0.6005189418792725 -0.4989076554775238 -0.3388513922691345
0.3473173975944519 0.5365744829177856 0.41330552101135254
0.12406493723392487 -0.16235549747943878 -0.07114627957344055
-0.10442723333835602 0.4102315604686737 0.051778603345155716
0.4564458131790161 0.042807687073946 0.34809616208076477
-0.0808398425579071 -0.4989076554775238 -0.1962878704071045
0.4197143614292145 -0.07332435250282288 0.28639844059944153
-0.5290972590446472 -0.3479956388473511 0.3965989649295807
-0.0416482612490654 -0.4686679244041443 -0.10399743169546127
-0.3478304445743561 0.018308138474822044 -0.0025046411901712418
-0.4886266589164734 -0.19187967479228973 0.5484135746955872
-0.06869799643754959 0.5001217126846313 -0.2808467149734497
-0.9855027198791504 -0.4989076554775238 -0.2747693359851837
0.48919105529785156 0.267730176448822 0.5484135746955872
-0.42907121777534485 0.24691195785999298 0.48727717995643616
-0.20514947175979614 -0.3284440040588379 -0.38157474994659424
0.4833732843399048 -0.10607331991195679 -0.38157474994659424
0.23785044252872467 0.499494731426239 0.20124170184135437
0.7858417630195618 -0.4817422330379486 -0.38157474994659424
0.9420109391212463 0.22482557594776154 -0.10399743169546127
0.8177669644355774 -0.42057284712791443 -0.38157474994659424
0.08829725533723831 0.11953751742839813 -0.38157474994659424
0.34143391251564026 -0.42076730728149414 0.5484135746955872
0.20365752279758453 -0.20083269476890564 -0.03802488371729851
0.9066746830940247 -0.3664618730545044 -0.10399743169546127
-0.43540024757385254 -0.09547027200460434 -0.10399743169546127
-0.7625018358230591 0.2893419861793518 -0.38157474994659424
0.10491672158241272 -0.42003998160362244 -0.38157474994659424
0.3226874768733978 -0.46993520855903625 0.2311922013759613
0.1640455722808838 -0.12865735590457916 0.0944482833147049
0.4813191592693329 -0.2141696959733963 0.5484135746955872
-0.43890249729156494 -0.1509244292974472 -0.38157474994659424
-0.9980598092079163 -0.25051116943359375 -0.18702583014965057
-0.2191164195537567 -0.4326131045818329 0.43333202600479126
0.5998375415802002 0.5001217126846313 -0.2558845281600952
0.4854297935962677 0.2732299268245697 -0.38157474994659424
0.48383674025535583 0.06889525800943375 0.4404962956905365
-0.9839675426483154 -0.15954014658927917 -0.10399743169546127
0.35138651728630066 0.1666489839553833 0.0238663163036108
-0.8495936989784241 0.42497989535331726 -0.38157474994659424
-0.39296096563339233 0.3924432396888733 -0.38157474994659424
0.7765533328056335 -0.4331579804420471 -0.38157474994659424
0.04194427281618118 -0.018791090697050095 0.051546625792980194
0.9369679689407349 0.029005620628595352 -0.38157474994659424
0.4870631992816925 -0.41510429978370667 0.4199654459953308
0.5538590550422668 -0.13223516941070557 0.22869184613227844
0.28469160199165344 -0.19324032962322235 0.18603457510471344
-0.020509902387857437 0.5817351341247559 0.2528834640979767
-0.33962154388427734 0.3105819821357727 0.35539376735687256
0.038086388260126114 0.6497217416763306 0.49562904238700867
0.49737170338630676 0.046376973390579224 0.5192304849624634
-0.7346680760383606 0.49542176723480225 -0.10399743169546127
0.6527547240257263 -0.37197813391685486 -0.10399743169546127
0.233879953622818 -0.6058593988418579 0.5484135746955872
-0.339462012052536 -0.19969508051872253 -0.38157474994659424
-0.8942558765411377 0.4648958742618561 -0.38157474994659424
-0.9980598092079163 0.050188999623060226 -0.1612832397222519
-0.38136160373687744 -0.32638588547706604 -0.10399743169546127
0.18465042114257812 -0.4989076554775238 -0.25006163120269775
-0.4479019045829773 -0.16322195529937744 -0.10399743169546127
0.1648816615343094 -0.19010257720947266 -0.38157474994659424
0.12561559677124023 0.23078449070453644 -0.04913865029811859
0.3176755905151367 0.35244348645210266 0.38930022716522217
0.4610966444015503 0.2726367712020874 0.5484135746955872
-0.20616167783737183 0.4342372417449951 0.41249406337738037
0.2792339026927948 0.37420666217803955 -0.38157474994659424
-0.38361650705337524 -0.2665506601333618 -0.10399743169546127
0.32158440351486206 -0.3349922299385071 0.364240825176239
0.9149613380432129 0.5001217126846313 -0.306004136800766
-0.9163283109664917 0.10895092040300369 -0.10399743169546127
0.5619600415229797 -0.4989076554775238 -0.2710224390029907
-0.26261311769485474 -0.4989076554775238 -0.20824092626571655
-0.5837622284889221 0.5001217126846313 -0.30972328782081604
0.6151383519172668 0.26931312680244446 -0.10399743169546127
-0.5918793678283691 -0.23506125807762146 0.41229793429374695
-0.5511134266853333 -0.37182703614234924 -0.10399743169546127
-0.05231306329369545 -0.4880467355251312 0.46060997247695923
0.6111099123954773 0.047870706766843796 0.32254499197006226
0.25525251030921936 -0.5759438872337341 0.37966257333755493
0.3199598491191864 0.28360435366630554 0.05477248877286911
-0.2214507758617401 0.5191343426704407 0.2210448533296585
0.16738907992839813 -0.4989076554775238 -0.31535011529922485
-0.3816940486431122 0.3640827238559723 0.16520653665065765
-0.4306579828262329 0.12040410935878754 -0.10399743169546127
0.33251842856407166 -0.4989076554775238 -0.13449281454086304
0.9418814778327942 -0.4989076554775238 -0.15423187613487244
-0.3950978219509125 -0.13551001250743866 0.04822218790650368
-0.43554744124412537 0.1928367167711258 -0.38157474994659424
-0.06780353933572769 -0.40393391251564026 -0.10399743169546127
0.25922736525535583 0.4508588910102844 0.5484135746955872
-0.04776475951075554 -0.6106504201889038 0.3258167803287506
-0.7592766284942627 0.060839924961328506 -0.38157474994659424
-0.43034666776657104 -0.005563254468142986 0.2969071865081787
0.37765029072761536 -0.45270439982414246 0.268871009349823
0.43027952313423157 0.451709508895874 0.5484135746955872
0.5745139122009277 -0.020602243021130562 -0.38157474994659424
0.5113384127616882 0.11860162019729614 0.5484135746955872
0.32765790820121765 -0.17269541323184967 -0.10399743169546127
0.45964306592941284 -0.19042962789535522 0.4987187385559082
0.2861670255661011 0.18992018699645996 0.18480131030082703
0.7859858274459839 0.04479769617319107 -0.10399743169546127
0.5099664926528931 -0.18633997440338135 -0.10399743169546127
0.11691760271787643 -0.6353819370269775 0.46118098497390747
-0.10961080342531204 -0.25204628705978394 -0.38157474994659424
0.5109590888023376 0.37918150424957275 -0.10399743169546127
0.24627479910850525 -0.3459828794002533 -0.10399743169546127
-0.4558493494987488 -0.1388835459947586 0.4024965465068817
-0.20878015458583832 -0.4868159890174866 0.16897781193256378
-0.46793341636657715 0.36485832929611206 -0.10399743169546127
-0.19053615629673004 0.3634915053844452 -0.38157474994659424
-0.45334485173225403 0.1289997398853302 0.3854241967201233
-0.35343828797340393 -0.4989076554775238 -0.1815895438194275
-0.8402888774871826 0.5001217126846313 -0.17724277079105377
0.09080380946397781 -0.2053094357252121 0.1023605689406395
-0.40397098660469055 0.11869441717863083 0.28106868267059326
0.7829840779304504 -0.058026302605867386 -0.10399743169546127
0.32100096344947815 -0.23769745230674744 0.032342974096536636
0.24748609960079193 0.5001217126846313 -0.33033934235572815
0.05343760922551155 -0.5709266662597656 0.23834365606307983
-0.358877956867218 -0.0784095749258995 -0.10399743169546127
0.09060917049646378 -0.5153031945228577 0.1594790816307068
-0.9460915327072144 -0.2793782651424408 -0.10399743169546127
-0.2591542601585388 -0.18624480068683624 0.1653042584657669
-0.30648526549339294 0.42653608322143555 -0.38157474994659424
-0.8491742014884949 -0.4989076554775238 -0.11713534593582153
0.008696644566953182 -0.1262734830379486 -0.0914357379078865
-0.4398711323738098 0.20927856862545013 0.44092828035354614
0.5464792847633362 -0.15925298631191254 0.22841386497020721
0.2687208354473114 0.16223978996276855 0.15912410616874695
0.9153891205787659 -0.02577376365661621 -0.38157474994659424
-0.15068122744560242 0.24439990520477295 -0.03735395520925522
0.5354763865470886 -0.11196541041135788 0.19177016615867615
-0.13545078039169312 0.5001217126846313 -0.14431634545326233
-0.23136232793331146 0.07159966230392456 0.11206867545843124
0.14106141030788422 0.4797970950603485 0.5342308282852173
0.9999989867210388 -0.24805545806884766 -0.318031370639801
-0.8661115169525146 -0.2815617322921753 -0.38157474994659424
0.2442266047000885 -0.55921471118927 0.5484135746955872
-0.3313569724559784 -0.27012234926223755 -0.10399743169546127
0.1700974404811859 0.030502675101161003 -0.10399743169546127
0.20327162742614746 -0.36624643206596375 -0.10399743169546127
0.3395855724811554 0.17461855709552765 0.22530734539031982
-0.8187370300292969 -0.3959907591342926 -0.10399743169546127
-0.5511907339096069 0.3252306878566742 0.4247966408729553
-0.01250959001481533 0.5862056016921997 0.2614079415798187
0.2104521542787552 -0.015191398561000824 -0.06910653412342072
-0.03117772378027439 0.40429872274398804 0.25614362955093384
-0.056256186217069626 0.5769695043563843 0.24831071496009827
-0.9980598092079163 -0.4578040540218353 -0.31337642669677734
0.2026478797197342 0.4880949556827545 0.16482014954090118
-0.3457570970058441 -0.08500615507364273 0.19934770464897156
-0.26262715458869934 -0.4989076554775238 -0.1610599011182785
0.49125775694847107 0.03665418550372124 0.46062153577804565
0.8595936298370361 -0.309742271900177 -0.10399743169546127
-0.5039345026016235 0.013456896878778934 0.5484135746955872
-0.1092468649148941 -0.6155029535293579 0.3646296262741089
0.17738226056098938 0.47373637557029724 0.13543324172496796
0.6015215516090393 0.19077715277671814 0.3788211941719055
-0.39650774002075195 -0.12002216279506683 -0.10399743169546127
-0.20051562786102295 0.5001217126846313 -0.17182907462120056
0.20236580073833466 0.6188561320304871 0.49676835536956787
-0.6848230957984924 -0.14599160850048065 -0.10399743169546127
0.0291383545845747 0.39209508895874023 0.027407962828874588
0.04888283088803291 -0.38568681478500366 0.024933498352766037
-0.4668869972229004 -0.3608216345310211 -0.10399743169546127
0.3462902307510376 0.14461562037467957 0.014063292182981968
-0.47070273756980896 -0.3689601719379425 0.29056286811828613
-0.47731131315231323 -0.11603520065546036 0.4644165337085724
-0.010095346719026566 0.5667094588279724 0.22442106902599335
0.14632490277290344 -0.18052758276462555 0.10631301999092102
0.9999989867210388 0.47724413871765137 -0.19114483892917633
-0.22156694531440735 0.5001217126846313 -0.11710228025913239
0.37684178352355957 0.18492084741592407 -0.10399743169546127
-0.575378954410553 0.13476134836673737 -0.38157474994659424
-0.3785165250301361 -0.0051422519609332085 0.22382871806621552
-0.7881541848182678 -0.2832028567790985 -0.38157474994659424
0.4758325219154358 -0.4124085307121277 0.3768099248409271
-0.09989751130342484 0.41105687618255615 -0.10399743169546127
-0.42224571108818054 0.02179320529103279 -0.10399743169546127
-0.8439754843711853 -0.03979535773396492 -0.10399743169546127
-0.06790579110383987 -0.15713998675346375 -0.08078642934560776
0.42740797996520996 0.32739290595054626 -0.38157474994659424
-0.9980598092079163 0.10729517787694931 -0.31597432494163513
-0.6953923106193542 -0.4989076554775238 -0.19956421852111816
0.33698201179504395 0.54198157787323 0.40846073627471924
-0.8342769742012024 -0.26906663179397583 -0.10399743169546127
0.03737516701221466 -0.507932186126709 0.1414419561624527
0.560221254825592 0.5001217126846313 -0.28430455923080444
0.03521347790956497 0.6214394569396973 0.3510056436061859
0.20600631833076477 -0.2358897477388382 0.15926630795001984
-0.9980598092079163 -0.3185438811779022 -0.2143307775259018
0.5480741858482361 0.10394245386123657 0.20853935182094574
-0.41430866718292236 -0.2764084041118622 0.5355695486068726
-0.6593592166900635 0.1656104475259781 -0.10399743169546127
0.08821439743041992 -0.4581134617328644 0.09286388754844666
-0.9980598092079163 -0.4302919805049896 -0.3545452654361725
0.3666098117828369 -0.5254002809524536 0.425323486328125
-0.3591161072254181 0.48563438653945923 0.5484135746955872
0.4226692318916321 -0.2657642960548401 0.5242875218391418
0.009354528971016407 0.25721654295921326 -0.38157474994659424
-0.501951277256012 0.23406308889389038 -0.38157474994659424
-0.19482403993606567 -0.13918517529964447 -0.38157474994659424
-0.09121245890855789 -0.29944127798080444 -0.10399743169546127
0.077642522752285 0.05413882061839104 -0.09717755019664764
-0.9980598092079163 -0.06894909590482712 -0.19396410882472992
-0.19343501329421997 0.5837575793266296 0.32993394136428833
-0.3192444145679474 -0.43328458070755005 0.18130910396575928
-0.07349291443824768 -0.08281972259283066 0.06161206215620041
-0.4630076289176941 -0.17797522246837616 0.12603579461574554
-0.1259841024875641 0.18349885940551758 0.10138212144374847
0.22135505080223083 0.23424483835697174 -0.10399743169546127
0.3404686152935028 -0.29050904512405396 -0.10399743169546127
-0.09433744102716446 -0.504501461982727 0.5484135746955872
-0.26422080397605896 -0.44293665885925293 0.15030941367149353
-0.35066869854927063 0.5001217126846313 -0.3295760154724121
0.3128703534603119 -0.3892528712749481 0.5362679362297058
-0.9980598092079163 0.4021652042865753 -0.3812699317932129
-0.29977014660835266 -0.28543707728385925 -0.10399743169546127
-0.14879150688648224 0.46866029500961304 0.45966479182243347
-0.4307498037815094 0.07824870198965073 0.06560875475406647
-0.8189191818237305 0.46487149596214294 -0.38157474994659424
-0.20653828978538513 -0.4989076554775238 -0.3425694406032562
-0.07196995615959167 0.2758532166481018 -0.03848132863640785
0.2013874650001526 0.6105084419250488 0.43260088562965393
-0.13397808372974396 -0.22364652156829834 -0.04909568279981613
0.4998461604118347 0.0866759717464447 -0.10399743169546127
0.20808950066566467 -0.4904896020889282 0.5484135746955872
-0.6579087376594543 -0.4989076554775238 -0.32051390409469604
-0.32247307896614075 0.3646518588066101 0.4376298189163208
0.054727982729673386 0.5567825436592102 0.21182824671268463
-0.5453298687934875 -0.4989076554775238 -0.21375755965709686
0.9638555645942688 0.3589615523815155 -0.38157474994659424
-0.7489098906517029 -0.2811758816242218 -0.38157474994659424
-0.4695810079574585 -0.31273722648620605 -0.10399743169546127
-0.09503769129514694 -0.5115601420402527 0.1559107005596161
-0.692265510559082 0.4899913966655731 -0.10399743169546127
-0.18005190789699554 -0.27646222710609436 -0.013726378791034222
0.17209389805793762 0.2926765978336334 -0.009202041663229465
0.2951638400554657 -0.5001209378242493 0.25131216645240784
-0.3725273013114929 -0.39527130126953125 -0.10399743169546127
0.44535282254219055 0.3195902705192566 -0.38157474994659424
0.32074350118637085 0.329000860452652 -0.10399743169546127
-0.40969550609588623 0.4489220976829529 -0.10399743169546127
-0.10078657418489456 -0.307013601064682 -0.38157474994659424
0.2842111885547638 0.07367735356092453 -0.03465864062309265
-0.18868571519851685 0.6201367378234863 0.4727253019809723
-0.49869677424430847 -0.3813423812389374 -0.10399743169546127
-0.6049025654792786 0.41502803564071655 -0.10399743169546127
-0.40860605239868164 0.36704573035240173 0.5484135746955872
-0.2071436047554016 0.21693018078804016 0.14932943880558014
-0.44503331184387207 -0.23479177057743073 0.13473840057849884
-0.7715538740158081 0.18529905378818512 -0.10399743169546127
0.4988950490951538 -0.035263143479824066 -0.10399743169546127
0.25917676091194153 0.3088913857936859 -0.10399743169546127
0.36037468910217285 0.3797174394130707 0.15773139894008636
-0.5175340175628662 -0.2511328458786011 -0.38157474994659424
0.2567850649356842 0.29152199625968933 -0.10399743169546127
0.2768753468990326 0.29633253812789917 -0.10399743169546127
-0.4218740165233612 -0.13543149828910828 0.3200650215148926
-0.014560362324118614 0.43799272179603577 0.3079147934913635
0.8053385615348816 -0.3911779522895813 -0.10399743169546127
-0.14261403679847717 0.5565518140792847 0.5484135746955872
0.08674881607294083 0.47976604104042053 -0.38157474994659424
0.8717858791351318 0.40521347522735596 -0.10399743169546127
-0.6206024885177612 -0.18570420145988464 0.48162493109703064
-0.41387835144996643 -0.5002049803733826 0.49741339683532715
0.5034275054931641 -0.36963751912117004 0.5484135746955872
-0.5708526968955994 0.19961118698120117 -0.10399743169546127
-0.4632876515388489 -0.1563546061515808 0.45236921310424805
-0.3923146724700928 -0.06509097665548325 -0.38157474994659424
0.2321774959564209 -0.0730484277009964 -0.38157474994659424
0.016090650111436844 -0.04778634011745453 0.05184531211853027
0.1279090940952301 0.04581456258893013 -0.08983714878559113
0.5730460286140442 -0.2586534321308136 0.37223485112190247
0.3948414623737335 -0.4204353988170624 -0.38157474994659424
0.6244422793388367 -0.09436275064945221 0.3818313479423523
-0.37797272205352783 0.49974632263183594 0.3672596216201782
0.015992524102330208 0.18773742020130157 0.0856759324669838
-0.15315376222133636 -0.5739170908927917 0.5484135746955872
0.7045656442642212 0.22056585550308228 -0.10399743169546127
-0.5777840614318848 0.1222422868013382 0.27332237362861633
-0.9980598092079163 0.27553272247314453 -0.24686220288276672
0.5452325344085693 -0.20246735215187073 0.5484135746955872
0.12054648250341415 0.32280027866363525 -0.38157474994659424
-0.33022257685661316 0.43724992871284485 0.1946592628955841
0.19364792108535767 0.3824828863143921 0.055812984704971313
0.32345110177993774 -0.14800980687141418 0.0012116599828004837
-0.5503002405166626 0.4944416582584381 -0.10399743169546127
-0.0035429871641099453 -0.49416813254356384 0.4806597828865051
-0.6354892253875732 -0.08428004384040833 0.4332192838191986
0.43217968940734863 -0.4989076554775238 -0.20656603574752808
-0.4455293118953705 -0.008431348949670792 0.3247673809528351
-0.30260732769966125 0.4007950723171234 0.13228009641170502
-0.5213552117347717 -0.387859046459198 0.5057412385940552
-0.0695679634809494 0.5001217126846313 -0.23071235418319702
0.0736866295337677 -0.2591468095779419 0.12820546329021454
-0.03288546949625015 0.05485186353325844 -0.10067694634199142
-0.19563639163970947 -0.5699215531349182 0.5484135746955872
-0.4312884211540222 0.4355342388153076 -0.10399743169546127
-0.4795296788215637 -0.002619293285533786 0.10730043053627014
0.23565880954265594 0.6080065965652466 0.5096651315689087
-0.15582610666751862 -0.264755517244339 -0.02648977003991604
0.06294532865285873 0.20824284851551056 0.09846577793359756
-0.08630445599555969 -0.21513709425926208 -0.060957420617341995
0.35784295201301575 0.3347511887550354 -0.38157474994659424
0.961061418056488 -0.03225761651992798 -0.38157474994659424
0.12110181897878647 0.15404145419597626 -0.10399743169546127
-0.21240244805812836 -0.11264120042324066 -0.05760134384036064
0.2760973274707794 0.14834611117839813 0.15861958265304565
-0.18453849852085114 0.41957852244377136 0.34966835379600525
0.25016266107559204 0.48361775279045105 0.18776406347751617
0.22828713059425354 -0.07410937547683716 -0.10399743169546127
-0.9980598092079163 0.034329235553741455 -0.12248241901397705
0.2113407701253891 0.31702932715415955 0.22444289922714233
-0.9495633840560913 0.2505473494529724 -0.10399743169546127
-0.25536227226257324 -0.3791245222091675 -0.10399743169546127
-0.5690926909446716 0.05409066006541252 0.23594054579734802
-0.23276586830615997 -0.4857812821865082 -0.10399743169546127
-0.9980598092079163 0.27527540922164917 -0.26296523213386536
0.3693493604660034 0.5175107717514038 0.39794111251831055
0.3560345768928528 0.4196532070636749 0.19641460478305817
0.2990627586841583 -0.38241761922836304 0.4306846857070923
-0.65160071849823 -0.01616366021335125 -0.10399743169546127
-0.2401956170797348 0.09196911752223969 0.12077832221984863
-0.2821566164493561 -0.5195708274841309 0.5484135746955872
0.3764702379703522 0.4366499185562134 0.24133044481277466
0.3717966675758362 0.3445090353488922 0.13640759885311127
0.3276355564594269 0.2972894310951233 0.3146531879901886
-0.0502808578312397 -0.6130193471908569 0.33309775590896606
-0.48485589027404785 0.5001217126846313 -0.1763387769460678
0.7434454560279846 0.04317152127623558 -0.10399743169546127
-0.257861852645874 0.423479825258255 -0.10399743169546127
-0.9005393385887146 -0.4767570197582245 -0.10399743169546127
0.4885236620903015 -0.2505888044834137 -0.10399743169546127
-0.45543891191482544 0.5001217126846313 -0.1366608589887619
-0.2895512580871582 -0.4123067259788513 0.5484135746955872
-0.18422962725162506 -0.07369918376207352 -0.10399743169546127
0.13473771512508392 0.2730071544647217 -0.028991203755140305
-0.2952733635902405 -0.05341742932796478 -0.03023577854037285
-0.10479088872671127 0.23168569803237915 0.1185237467288971
-0.9980598092079163 0.42422929406166077 -0.11637815088033676
-0.5773001313209534 0.02163202129304409 -0.38157474994659424
-0.3600344955921173 0.5001217126846313 -0.2124127894639969
-0.26993539929389954 0.5892019867897034 0.4731149971485138
0.9999989867210388 -0.1845497041940689 -0.14922218024730682
-0.3929937779903412 -0.24415405094623566 0.3632849454879761
-0.04316553473472595 -0.285208523273468 -0.10399743169546127
-0.2035258710384369 0.020839763805270195 -0.07070524245500565
-0.10591588169336319 -0.24432851374149323 0.12646251916885376
-0.9980598092079163 -0.3416016399860382 -0.26063603162765503
-0.08214607834815979 0.6457803845405579 0.5006998181343079
0.06174546480178833 -0.4989076554775238 -0.1895790845155716
0.9109323620796204 0.48789680004119873 -0.38157474994659424
0.9999989867210388 0.18032285571098328 -0.3147469162940979
-0.8432797193527222 0.001416725805029273 -0.10399743169546127
0.1458178013563156 -0.04371357709169388 -0.10399743169546127
-0.5465490818023682 -0.16947752237319946 -0.10399743169546127
-0.004235493019223213 -0.17467357218265533 -0.38157474994659424
0.5325456261634827 -0.1283216029405594 0.5484135746955872
0.05198654159903526 0.13868778944015503 -0.08710793405771255
0.05986562371253967 0.6257349848747253 0.5484135746955872
0.4917279779911041 0.043648529797792435 0.46656638383865356
0.05588560923933983 0.5001217126846313 -0.29860883951187134
-0.9980598092079163 0.3084675967693329 -0.25157222151756287
-0.24853329360485077 -0.2887844145298004 -0.10399743169546127
0.46417802572250366 -0.4989076554775238 -0.20785152912139893
0.9999989867210388 0.06725211441516876 -0.3293074667453766
0.4790395498275757 -0.13542433083057404 0.49988633394241333
-0.012728534638881683 0.37686917185783386 0.015709539875388145
-0.23034074902534485 -0.37717029452323914 0.06952467560768127
-0.29472577571868896 -0.19091415405273438 -0.38157474994659424
0.27842795848846436 0.11193136870861053 -0.03140057995915413
-0.6935150623321533 0.20394013822078705 -0.38157474994659424
-0.22236193716526031 0.06646975874900818 0.10660769045352936
0.9321157336235046 0.5001217126846313 -0.3031778633594513
-0.06659787893295288 -0.06151320040225983 -0.09739534556865692
-0.6553171873092651 -0.2242247760295868 -0.38157474994659424
0.29941701889038086 0.5001217126846313 -0.27865657210350037
0.9999989867210388 0.1483854502439499 -0.314245343208313
0.5984328985214233 -0.4026891887187958 -0.10399743169546127
0.34165459871292114 -0.39726707339286804 0.15967437624931335
0.5975402593612671 -0.03658131882548332 0.2872031331062317
0.9999989867210388 -0.23822778463363647 -0.14991222321987152
-0.03424844518303871 0.2384423464536667 -0.38157474994659424
0.4642890393733978 0.061256278306245804 -0.38157474994659424
-0.8888930082321167 -0.16202755272388458 -0.38157474994659424
0.03885402902960777 0.4258667826652527 -0.10399743169546127
-0.11447996646165848 0.40445661544799805 0.27816241979599
-0.7145103216171265 0.5001217126846313 -0.313403844833374
-0.9853841066360474 -0.2830677330493927 -0.10399743169546127
-0.9862270355224609 0.40218180418014526 -0.10399743169546127
-0.19570551812648773 -0.499176561832428 0.1781182736158371
0.29534628987312317 0.5263919830322266 0.2985118329524994
-0.029354091733694077 0.35338157415390015 -0.38157474994659424
-0.9124231338500977 -0.3971342444419861 -0.38157474994659424
0.19316135346889496 0.0028262219857424498 0.08743669837713242
0.21965113282203674 -0.40089529752731323 -0.38157474994659424
-0.388957142829895 0.11839126795530319 -0.38157474994659424
-0.3768056333065033 0.29007473587989807 0.3969041705131531
-0.32649511098861694 -0.5056029558181763 0.5484135746955872
-0.05587043613195419 -0.4928332269191742 0.4966318607330322
-0.7765287756919861 0.4178566634654999 -0.10399743169546127
0.3778516352176666 0.5001217126846313 -0.2289372831583023
0.6516690254211426 0.5001217126846313 -0.3210080862045288
-0.12399262189865112 -0.4989076554775238 -0.1819804161787033
0.25162452459335327 -0.4171029329299927 -0.38157474994659424
0.5947796702384949 0.018870197236537933 -0.10399743169546127
0.4437713325023651 0.18115080893039703 0.4047001898288727
0.9999989867210388 -0.2431195229291916 -0.3483445644378662
0.22216181457042694 0.1799328774213791 -0.38157474994659424
0.14401587843894958 -0.6256294250488281 0.4349585175514221
0.7071141600608826 0.5001217126846313 -0.18801984190940857
0.09722612053155899 0.34897488355636597 0.00535938935354352
-0.5791882872581482 0.05486273765563965 0.5484135746955872
-0.12970101833343506 0.04292009398341179 -0.08924461901187897
-0.6231043338775635 0.5001217126846313 -0.17640848457813263
0.31287628412246704 0.4387533664703369 0.5484135746955872
-0.3941352069377899 -0.4327833950519562 0.26279523968696594
-0.09842932224273682 -0.11270193755626678 -0.08621921390295029
-0.20893588662147522 0.01065074373036623 -0.38157474994659424
-0.24974223971366882 0.42709946632385254 0.4800964891910553
0.5124073624610901 -0.0765623226761818 0.5484135746955872
-0.40786969661712646 0.4807348847389221 0.3814329206943512
0.031235789880156517 -0.4339584410190582 0.30425238609313965
0.33324873447418213 -0.2762015163898468 0.2985341548919678
0.5429586172103882 0.2853328287601471 -0.10399743169546127
0.126516655087471 -0.28565022349357605 -0.02417474053800106
-0.3489549160003662 0.09307993948459625 0.20440709590911865
-0.9469500780105591 -0.10143154859542847 -0.10399743169546127
-0.05838781222701073 -0.4989076554775238 -0.3605056405067444
0.31385737657546997 -0.051290880888700485 -0.38157474994659424
0.3911193609237671 -0.5172356963157654 0.47674432396888733
0.42945948243141174 0.5001217126846313 -0.288158118724823
-0.4838574528694153 -0.4707558751106262 -0.10399743169546127
0.30416491627693176 0.4089556932449341 0.13990455865859985
-0.5584258437156677 -0.3700087070465088 -0.10399743169546127
0.4066148102283478 0.5001217126846313 -0.1821897327899933
0.5277190208435059 0.2767012417316437 0.2804013788700104
-0.029102325439453125 -0.421212762594223 -0.38157474994659424
0.2300168126821518 -0.4989076554775238 -0.2987479567527771
0.31845811009407043 0.4015185832977295 -0.38157474994659424
-0.31003686785697937 0.5164753794670105 0.5484135746955872
0.7235080003738403 0.37578126788139343 -0.38157474994659424
-0.2883056700229645 -0.3983817398548126 0.46764057874679565
0.5824974775314331 0.19338685274124146 -0.10399743169546127
-0.9080878496170044 0.2849505543708801 -0.10399743169546127
-0.2944459617137909 0.1974395513534546 0.0011397817870602012
0.9261220693588257 -0.41400855779647827 -0.38157474994659424
0.15518681704998016 -0.2556212544441223 -0.38157474994659424
-0.14155313372612 0.4766429364681244 0.4991835057735443
0.9823423624038696 -0.22329063713550568 -0.10399743169546127
-0.07521941512823105 -0.3414258360862732 -0.0018387017771601677
0.9999989867210388 0.4265105426311493 -0.22412601113319397
-0.6286423206329346 -0.006602887064218521 -0.38157474994659424
0.3472117483615875 0.23967087268829346 0.2795344889163971
0.3421057164669037 -0.22613491117954254 0.04073914885520935
0.3386427164077759 -0.5556286573410034 0.5027939081192017
0.4815893769264221 0.3004876971244812 0.22506320476531982
-0.42178115248680115 -0.381234347820282 -0.10399743169546127
-0.19008958339691162 0.1557498276233673 -0.05567765608429909
-0.7085825800895691 -0.4989076554775238 -0.21788229048252106
-0.6855677366256714 -0.2567775845527649 -0.38157474994659424
0.4047062397003174 0.46296167373657227 0.3277159035205841
0.8305470943450928 0.3840791881084442 -0.38157474994659424
-0.168688103556633 0.20968779921531677 0.1276913285255432
0.3761013448238373 -0.013971366919577122 0.014944302849471569
0.9233184456825256 -0.4989076554775238 -0.2268606275320053
0.667504072189331 0.0662175863981247 -0.38157474994659424
0.23898109793663025 0.020275617018342018 -0.05865718796849251
-0.5162959694862366 -0.3527708649635315 -0.10399743169546127
-0.4538898169994354 -0.24885942041873932 -0.38157474994659424
0.378368079662323 -0.33840513229370117 -0.10399743169546127
-0.19949907064437866 0.3030312657356262 0.006329983007162809
-0.17146942019462585 0.14186006784439087 -0.38157474994659424
0.802888810634613 0.5001217126846313 -0.21317487955093384
-0.19740156829357147 -0.4541521370410919 0.49138399958610535
-0.9980598092079163 -0.4809817373752594 -0.2434600591659546
-0.0009704157710075378 -0.004627376329153776 0.04914740100502968
0.43064162135124207 -0.36048299074172974 -0.10399743169546127
0.3249323070049286 -0.1849014163017273 -0.10399743169546127
-0.6202182769775391 0.07858150452375412 0.5484135746955872
-0.8328456282615662 -0.4618019461631775 -0.10399743169546127
0.8961253762245178 -0.17352379858493805 -0.38157474994659424
-0.1968269944190979 0.43540051579475403 -0.38157474994659424
-0.4767897427082062 0.000229582583415322 -0.10399743169546127
0.3418121635913849 -0.28787627816200256 -0.38157474994659424
0.40027889609336853 0.4844166934490204 0.3696098327636719
0.698818027973175 -0.11632196605205536 -0.10399743169546127
-0.8469365239143372 -0.3056924641132355 -0.10399743169546127
-0.11198442429304123 -0.36163994669914246 0.017819803208112717
0.08112677186727524 0.5001217126846313 -0.3607158958911896
-0.6664707064628601 -0.4989076554775238 -0.1479009985923767
-0.6085385084152222 -0.03922273591160774 0.3194501996040344
0.23042230308055878 0.16021372377872467 0.1345483809709549
0.9595020413398743 0.3949498236179352 -0.38157474994659424
-0.39223310351371765 -0.018870394676923752 -0.10399743169546127
-0.23643699288368225 -0.4989076554775238 -0.3600146770477295
-0.9937646985054016 -0.08149195462465286 -0.10399743169546127
-0.3381531536579132 0.4308532774448395 -0.38157474994659424
-0.30957797169685364 0.1897209882736206 0.2060735672712326
-0.21543994545936584 -0.41926494240760803 0.3862220048904419
0.019803142175078392 0.21862801909446716 -0.38157474994659424
-0.7356800436973572 -0.4876876473426819 -0.10399743169546127
-0.01411230769008398 -0.5005234479904175 0.1310795098543167
-0.06689630448818207 0.46394458413124084 -0.38157474994659424
-0.9980598092079163 -0.3370707631111145 -0.24049000442028046
0.24407653510570526 -0.6014522314071655 0.5484135746955872
-0.07670991867780685 -0.35438093543052673 -0.38157474994659424
-0.9980598092079163 0.011370101943612099 -0.3083382248878479
0.514523446559906 -0.40119948983192444 0.5296884775161743
-0.09950447082519531 0.5026538372039795 0.5484135746955872
0.2964887022972107 -0.0197074506431818 0.1463552862405777
-0.5941686630249023 -0.09221818298101425 0.29801687598228455
0.13207148015499115 -0.43144363164901733 0.3351922631263733
0.5100625157356262 -0.3767109215259552 0.3933938145637512
-0.14601165056228638 0.4250986576080322 -0.10399743169546127
-0.9980598092079163 -0.45600980520248413 -0.3263443112373352
-0.27108272910118103 0.42410263419151306 -0.10399743169546127
-0.4262664318084717 0.39139676094055176 0.24784724414348602
0.9999989867210388 -0.1730145961046219 -0.13890665769577026
0.9019603133201599 -0.062216393649578094 -0.38157474994659424
-0.4449765980243683 0.06480847299098969 -0.10399743169546127
0.4208853542804718 0.24986162781715393 0.44401395320892334
-0.037426628172397614 0.04750970005989075 -0.10399743169546127
-0.9105231761932373 -0.4989076554775238 -0.2830542027950287
-0.3315165340900421 -0.3132050335407257 0.34741920232772827
-0.3850448429584503 -0.4989076554775238 -0.2611009478569031
-0.34961819648742676 0.5425084829330444 0.45359721779823303
0.29441043734550476 0.4855753183364868 0.5484135746955872
-0.9980598092079163 0.45521819591522217 -0.2172442376613617
0.2894359529018402 -0.2547403573989868 0.23059697449207306
-0.616345226764679 -0.2614469528198242 -0.38157474994659424
-0.5325872898101807 -0.07362708449363708 -0.10399743169546127
-0.34175896644592285 -0.1776934117078781 0.23201638460159302
-0.15628960728645325 -0.4989076554775238 -0.1866450160741806
-0.9060187935829163 -0.23631589114665985 -0.38157474994659424
-0.009589490480720997 0.14176760613918304 -0.08832154422998428
0.7928324341773987 0.2538706362247467 -0.38157474994659424
0.16764594614505768 -0.6227854490280151 0.5484135746955872
0.13574792444705963 0.17837335169315338 -0.06453028321266174
0.9999989867210388 0.050936900079250336 -0.17812424898147583
0.3726843595504761 0.5077316164970398 0.3747458755970001
-0.3785078227519989 -0.27968665957450867 0.3848687410354614
0.311305969953537 0.1794031858444214 -0.10399743169546127
-0.035832181572914124 -0.24876302480697632 -0.38157474994659424
0.6462802886962891 0.41959553956985474 -0.10399743169546127
-0.9980598092079163 -0.4475442171096802 -0.2979869246482849
-0.5398327708244324 0.46805670857429504 -0.38157474994659424
-0.7444096803665161 0.27605652809143066 -0.10399743169546127
-0.6191504597663879 0.2316165566444397 -0.10399743169546127
0.4140031933784485 -0.09147486835718155 -0.38157474994659424
-0.04604872316122055 0.47337380051612854 0.3945692181587219
-0.020849741995334625 -0.4379388391971588 0.3105355501174927
0.24021336436271667 -0.4023588299751282 0.37604987621307373
0.7900839447975159 0.38584277033805847 -0.10399743169546127
-0.29234498739242554 0.4040587842464447 0.5235620737075806
0.2007513791322708 -0.5679807662963867 0.29876700043678284
0.007502107881009579 0.6295633912086487 0.3755283057689667
-0.28616470098495483 0.024281201884150505 -0.036883395165205
0.4548340141773224 0.2951126992702484 0.1838715672492981
-0.573309600353241 0.030497385188937187 0.24039176106452942
-0.2996971309185028 0.5731868147850037 0.4632565379142761
-0.9980598092079163 -0.13610897958278656 -0.3161393404006958
-0.33360081911087036 0.4243523180484772 0.5484135746955872
-0.13458317518234253 0.32721906900405884 -0.38157474994659424
0.9477232098579407 0.45407721400260925 -0.38157474994659424
-0.3006192743778229 -0.38899722695350647 -0.10399743169546127
-0.7233848571777344 -0.4989076554775238 -0.3359174430370331
0.24575543403625488 0.3433925211429596 -0.10399743169546127
-0.21294525265693665 -0.5738825798034668 0.32544925808906555
0.39812666177749634 0.23042505979537964 0.084723100066185
0.5515251755714417 0.5001217126846313 -0.3810570240020752
0.29284724593162537 -0.5001437067985535 0.24905633926391602
0.6189190745353699 0.20943085849285126 0.5449163913726807
-0.25458258390426636 -0.4043099582195282 0.4064079225063324
0.7463196516036987 -0.4989076554775238 -0.12541066110134125
0.343636691570282 -0.2348349243402481 0.27164119482040405
-0.8088189959526062 -0.32119137048721313 -0.38157474994659424
0.461839497089386 0.3868829011917114 -0.10399743169546127
0.5338063836097717 -0.19319559633731842 0.22578993439674377
0.4470703899860382 0.06684329360723495 0.3339212238788605
0.27468860149383545 -0.2916211485862732 0.24986125528812408
-0.8493614792823792 -0.23279540240764618 -0.38157474994659424
-0.29539477825164795 0.40094122290611267 0.5123651623725891
-0.34591832756996155 -0.0073064398020505905 -0.38157474994659424
0.6356015801429749 -0.21385826170444489 -0.10399743169546127
-0.07449188828468323 -0.027638548985123634 -0.09896773844957352
-0.10857538878917694 -0.40928369760513306 0.0529756173491478
0.860069990158081 0.4308232069015503 -0.10399743169546127
-0.7194259166717529 0.06078546494245529 -0.38157474994659424
-0.22494906187057495 0.04019071161746979 0.10479099303483963
0.36462292075157166 -0.3367842435836792 -0.10399743169546127
0.10171987116336823 0.5001217126846313 -0.35391828417778015
-0.43898123502731323 -0.4989076554775238 -0.18069766461849213
0.5186489224433899 -0.39063364267349243 0.48145201802253723
0.14429576694965363 0.07595085352659225 0.07596104592084885
0.12807293236255646 0.325149804353714 -0.38157474994659424
0.4120803773403168 -0.04010555520653725 0.2677932381629944
-0.34739434719085693 -0.14839832484722137 -0.10399743169546127
0.9999989867210388 -0.4651387929916382 -0.18890734016895294
0.47594529390335083 0.07394380122423172 0.4125838279724121
0.16440162062644958 -0.3757157623767853 0.2637706995010376
0.36877381801605225 -0.290444940328598 0.37701427936553955
0.22362323105335236 -0.4989076554775238 -0.1771901547908783
0.42715615034103394 0.05148769170045853 -0.38157474994659424
0.09327270090579987 0.3720974922180176 0.020236577838659286
0.21423843502998352 0.37205949425697327 -0.10399743169546127
0.47425082325935364 0.4946403503417969 -0.10399743169546127
-0.18311966955661774 0.27752602100372314 -0.10399743169546127
0.06719920039176941 0.24487830698490143 -0.38157474994659424
-0.5767689347267151 -0.1580982506275177 0.2905033230781555
-0.20729631185531616 0.30062270164489746 0.20780985057353973
-0.29471006989479065 -0.2680739164352417 0.03269398212432861
-0.9562273025512695 -0.4214400351047516 -0.10399743169546127
0.6288018226623535 0.15701225399971008 0.4652077555656433
0.2421519011259079 -0.49050119519233704 0.5484135746955872
-0.41511595249176025 0.26994842290878296 0.12431555986404419
0.935715913772583 0.41659700870513916 -0.10399743169546127
-0.2596806287765503 -0.32990044355392456 0.05006717890501022
-0.03316669911146164 -0.4266708791255951 0.0566600039601326
-0.06201939657330513 0.05447935312986374 -0.38157474994659424
0.26927781105041504 0.0014981705462560058 -0.38157474994659424
0.11794202774763107 0.4506254196166992 -0.10399743169546127
0.8525230884552002 -0.4306618571281433 -0.38157474994659424
-0.27779436111450195 -0.12852764129638672 0.15463677048683167
0.3115829527378082 0.19393514096736908 0.008362610824406147
0.18245534598827362 -0.46466904878616333 0.5440138578414917
-0.6500688195228577 0.03479048237204552 -0.38157474994659424
-0.38109445571899414 -0.44089579582214355 0.2574942111968994
-0.44957706332206726 -0.06188840791583061 0.08076950907707214
0.5743258595466614 0.30419737100601196 0.4808310866355896
-0.2354803830385208 0.4789244532585144 -0.10399743169546127
-0.6087343096733093 0.43531787395477295 -0.38157474994659424
-0.9304096102714539 -0.0854000672698021 -0.10399743169546127
0.03250335901975632 -0.16090698540210724 -0.38157474994659424
0.9934086799621582 0.281343013048172 -0.10399743169546127
-0.4524999260902405 0.37664082646369934 0.2681458294391632
0.1530596762895584 0.14147444069385529 -0.07007717341184616
0.12822796404361725 -0.15112367272377014 -0.38157474994659424
-0.31061261892318726 0.2774449288845062 0.046560391783714294
-0.7969830632209778 0.5001217126846313 -0.23036400973796844
0.6202043890953064 -0.1356135904788971 0.39502575993537903
0.3315623104572296 0.35563793778419495 0.11228079348802567
0.1140349730849266 -0.48174402117729187 0.12410828471183777
-0.3212113678455353 0.5576266646385193 0.44139227271080017
-0.0067574260756373405 -0.39790838956832886 0.032026391476392746
0.6141838431358337 -0.4989076554775238 -0.2708130478858948
0.5304396748542786 0.11186549067497253 -0.38157474994659424
0.07564801722764969 -0.3391663134098053 -0.0033496615942567587
-0.5177726149559021 0.2740565538406372 0.2626677453517914
0.30622127652168274 0.0022746343165636063 -0.38157474994659424
0.1611396223306656 -0.05803142115473747 -0.10399743169546127
-0.2038707137107849 -0.008259388618171215 0.09302968531847
0.1363922655582428 -0.6287448406219482 0.44303855299949646
0.38670966029167175 -0.30678391456604004 0.47037312388420105
-0.6169754266738892 0.2988995909690857 -0.38157474994659424
0.5980501770973206 -0.2618664801120758 0.5385603904724121
-0.40395358204841614 -0.38601580262184143 0.2136557549238205
0.889499843120575 -0.4989076554775238 -0.2748962640762329
0.10103539377450943 0.1271141767501831 -0.38157474994659424
-0.808758020401001 0.5001217126846313 -0.12733252346515656
-0.08563306927680969 -0.5167651772499084 0.16065160930156708
0.3548986315727234 -0.35585296154022217 -0.38157474994659424
0.2634161412715912 0.5709266066551208 0.37116941809654236
-0.2228335291147232 -0.44429507851600647 0.512557327747345
0.6422742605209351 0.02670796401798725 -0.10399743169546127
0.03659830242395401 -0.5441446304321289 0.19132983684539795
-0.7621322274208069 0.17106866836547852 -0.38157474994659424
-0.6996929049491882 -0.02470400370657444 -0.38157474994659424
0.12511397898197174 0.3775114119052887 0.24530595541000366
-0.5695521831512451 0.26861411333084106 0.5484135746955872
-0.07854747027158737 -0.11410310864448547 0.0689624473452568
-0.4105033874511719 0.1976483315229416 0.3453371822834015
0.4013194143772125 -0.06652938574552536 0.2576611042022705
0.05888500437140465 0.3275340795516968 -0.01309005357325077
-0.34228676557540894 0.3410336673259735 0.11048077791929245
-0.5350753664970398 -0.31787028908729553 0.35671865940093994
-0.20066581666469574 0.34222567081451416 0.03057890757918358
0.5470923781394958 0.5001217126846313 -0.18101133406162262
-0.246486634016037 0.28685587644577026 0.017062434926629066
-0.5818295478820801 0.06443080306053162 0.262349009513855
-0.48603641986846924 -0.024541188031435013 -0.38157474994659424
-0.1508851945400238 0.21060369908809662 -0.050303760915994644
-0.133321613073349 -0.3711133301258087 -0.38157474994659424
-0.6427214741706848 0.10607746988534927 -0.10399743169546127
-0.139202281832695 -0.261984646320343 -0.03206663206219673
-0.44605258107185364 -0.4190380275249481 -0.10399743169546127
-0.7074955105781555 0.19777671992778778 -0.10399743169546127
0.036554716527462006 0.6512202620506287 0.5181311368942261
-0.05649988725781441 -0.030804956331849098 -0.38157474994659424
-0.1366318315267563 0.31203198432922363 -0.38157474994659424
-0.22468966245651245 0.23940661549568176 -0.015179199166595936
0.9999989867210388 0.2417137175798416 -0.3116114139556885
0.4921034574508667 -0.048530906438827515 0.47222933173179626
-0.5130868554115295 0.11667872220277786 0.5484135746955872
-0.24965393543243408 -0.3267534375190735 -0.38157474994659424
-0.5838562846183777 -0.26059457659721375 0.4244905412197113
-0.08216650784015656 -0.09475947916507721 -0.10399743169546127
-0.847394585609436 -0.4989076554775238 -0.27841633558273315
0.30559495091438293 -0.070126011967659 -0.38157474994659424
-0.0263330340385437 -0.4989076554775238 -0.2291119247674942
-0.9980598092079163 -0.016814710572361946 -0.10492568463087082
-0.4261665344238281 -0.4989076554775238 -0.3049457371234894
-0.7674620747566223 0.5001217126846313 -0.128836527466774
0.48501184582710266 -0.0283033587038517 0.4288678467273712
0.22687822580337524 0.5758963823318481 0.33966898918151855
0.2163049280643463 0.43590331077575684 0.43225887417793274
-0.3323062062263489 0.20723065733909607 0.23912610113620758
0.31936368346214294 -0.5146067142486572 0.30626168847084045
-0.4084552824497223 0.2771313190460205 0.12237293273210526
0.8726785182952881 -0.12013629823923111 -0.38157474994659424
0.1827961504459381 0.5001217126846313 -0.1443708837032318
0.7471089959144592 0.17561651766300201 -0.10399743169546127
0.16933025419712067 0.046748220920562744 -0.10399743169546127
-0.3087267577648163 0.029755478724837303 -0.02500436268746853
-0.014437142759561539 0.4820795953273773 0.10857467353343964
0.9999989867210388 0.13502858579158783 -0.3182201385498047
0.024558747187256813 -0.017225898802280426 -0.38157474994659424
-0.1731918603181839 0.3445480763912201 -0.38157474994659424
0.7314821481704712 -0.4989076554775238 -0.22146300971508026
0.6492555737495422 -0.25714442133903503 -0.10399743169546127
-0.012946728616952896 -0.25531327724456787 -0.05148942396044731
0.9999989867210388 0.07590208202600479 -0.2304791957139969
-0.5647602677345276 -0.22684894502162933 0.3166847229003906
0.7148190140724182 -0.4085685908794403 -0.38157474994659424
-0.3398480713367462 -0.21163694560527802 0.25143513083457947
0.009575949050486088 0.02367544360458851 -0.10399743169546127
0.6788043975830078 -0.3513261079788208 -0.38157474994659424
-0.3908924460411072 -0.17913390696048737 0.058825988322496414
-0.5199346542358398 -0.391693651676178 -0.38157474994659424
0.09629756957292557 0.25364887714385986 -0.10399743169546127
-0.4569690525531769 0.4786226153373718 -0.38157474994659424
0.07580983638763428 0.3930203318595886 -0.10399743169546127
0.2675912082195282 0.32940855622291565 0.28346285223960876
-0.49705424904823303 -0.00046848299098201096 0.5114148259162903
0.6972670555114746 -0.2779095470905304 -0.10399743169546127
-0.5305853486061096 0.5001217126846313 -0.3813246190547943
0.9525450468063354 -0.24949689209461212 -0.10399743169546127
-0.5913069248199463 0.17750833928585052 0.5484135746955872
-0.43770983815193176 -0.2854950428009033 0.15960943698883057
0.5364071726799011 0.396122008562088 -0.10399743169546127
-0.1978183537721634 0.10276339948177338 -0.10399743169546127
0.21185195446014404 -0.003098346060141921 -0.38157474994659424
-0.6096307635307312 -0.11222536861896515 0.3485722541809082
-0.35349857807159424 0.3474538028240204 -0.38157474994659424
0.35370537638664246 0.5420240163803101 0.4594014286994934
-0.721517026424408 -0.4989076554775238 -0.13427866995334625
-0.16134624183177948 0.247422993183136 -0.033204011619091034
-0.12220253795385361 0.2661307752132416 0.14376282691955566
0.2828686237335205 -0.31123748421669006 -0.38157474994659424
-0.9980598092079163 0.24293342232704163 -0.267351895570755
-0.3385153114795685 -0.23631878197193146 0.26907262206077576
0.024026932194828987 -0.49691078066825867 0.5114628672599792
0.11240554600954056 -0.4567355215549469 0.3817344605922699
-0.07554706186056137 0.2795833349227905 0.14126747846603394
0.9999989867210388 0.21832238137722015 -0.2488352209329605
0.6192337274551392 0.11355127394199371 0.3735656142234802
-0.39424994587898254 0.40203797817230225 0.2194821536540985
0.6132510900497437 -0.19690358638763428 -0.10399743169546127
0.17139224708080292 0.4728800356388092 0.13199350237846375
0.3557768166065216 -0.20613253116607666 -0.38157474994659424
-0.31637075543403625 0.25556671619415283 -0.10399743169546127
-0.12345895171165466 -0.24594953656196594 -0.10399743169546127
-0.806842029094696 -0.4989076554775238 -0.23533739149570465
0.09753400087356567 0.25878432393074036 -0.04276178777217865
0.5134124755859375 -0.3548298478126526 0.3572586178779602
-0.651024341583252 -0.1865580826997757 -0.10399743169546127
-0.4560180604457855 0.3773204982280731 0.27487069368362427
-0.5497314929962158 0.20129506289958954 -0.10399743169546127
-0.3856143653392792 -0.3448735475540161 0.5484135746955872
0.9344617128372192 0.3311798870563507 -0.38157474994659424
-0.527568519115448 0.0476468950510025 0.16891145706176758
-0.02932562120258808 0.4007914066314697 -0.38157474994659424
-0.07726208120584488 -0.4989076554775238 -0.12463081628084183
0.9361406564712524 -0.4989076554775238 -0.2027566283941269
-0.2950432002544403 0.42723968625068665 -0.10399743169546127
