-0.5592947602272034 -0.303056925535202 -0.8327016830444336
0.49456465244293213 -0.33544981479644775 -0.2492232769727707
0.5392970442771912 -0.3077123165130615 -0.8605058789253235
-0.3110821843147278 -0.15750910341739655 -0.3539842367172241
0.19987790286540985 -0.19354864954948425 -0.3678792715072632
0.34881365299224854 -0.13248559832572937 0.8727273941040039
0.837510347366333 -0.001642101677134633 -0.9004722237586975
-0.6553384065628052 -0.19038210809230804 0.9924275875091553
-0.8979909420013428 0.5224491357803345 0.30641499161720276
-0.8337150812149048 -0.027766328305006027 -0.19601023197174072
-0.7904821038246155 0.5224491357803345 -0.8680840134620667
-0.673918604850769 -0.09398357570171356 -0.9946444630622864
-0.9163781404495239 0.12355278432369232 0.09152780473232269
-0.9910715222358704 0.3896765112876892 0.4775734543800354
0.6230577826499939 -0.24616312980651855 0.9071032404899597
0.9280485510826111 0.1851678490638733 0.22903065383434296
0.976729691028595 0.3799743056297302 0.6748169660568237
0.9711340665817261 0.34548139572143555 0.3437986373901367
-0.04947211593389511 -0.47008460760116577 0.7069882750511169
-0.7063176035881042 0.2669159770011902 0.34897130727767944
0.7386906743049622 -0.13464517891407013 -0.41516801714897156
-0.7503054141998291 0.4803732633590698 0.3360411524772644
-0.40303176641464233 -0.3631356656551361 0.9924275875091553
0.6861756443977356 0.2478729635477066 -0.9336433410644531
-0.5159592032432556 -0.021185871213674545 0.5730335116386414
0.6503546237945557 0.17062555253505707 -0.14022310078144073
0.7288509607315063 0.402260959148407 -0.3431921601295471
-0.37957432866096497 -0.3982941210269928 0.7805672287940979
-0.12077607959508896 -0.21378260850906372 -0.620181143283844
-0.685004472732544 -0.20319034159183502 -0.9340342283248901
0.4788253605365753 -0.042876534163951874 -0.000965937739238143
-0.7288287281990051 -0.15962772071361542 0.2969844937324524
0.7384691834449768 0.5120707154273987 0.9857111573219299
0.8192985653877258 0.5224491357803345 -0.25052204728126526
-0.6799944043159485 0.20390090346336365 -0.18548378348350525
0.7681652307510376 -0.09963800758123398 -0.3170536458492279
0.6072978377342224 0.09999212622642517 -0.9028770327568054
0.57166588306427 0.05238345265388489 -0.2539142072200775
-0.5723233819007874 -0.2941465973854065 -0.5355938673019409
-0.27818235754966736 -0.17126800119876862 0.17689158022403717
0.7337942719459534 0.437985360622406 -0.37908071279525757
0.30635735392570496 -0.1537753939628601 0.9233535528182983
-0.8698585033416748 0.030986741185188293 -0.23181357979774475
-0.19302813708782196 -0.4533745050430298 0.17549516260623932
-0.4210144579410553 -0.09671139717102051 0.34033432602882385
-0.21950048208236694 -0.44797012209892273 -0.4294355809688568
-0.49759167432785034 -0.03792493790388107 -0.9315927028656006
-0.1987450122833252 -0.2534828186035156 -0.9946444630622864
0.8378225564956665 0.5224491357803345 0.45023950934410095
0.1686638593673706 -0.2017458826303482 0.7134550213813782
0.34281525015830994 -0.28333669900894165 0.9924275875091553
-0.5260211229324341 -0.011620648205280304 0.08279825747013092
-0.8848147392272949 0.05824827775359154 -0.790890634059906
0.9309104681015015 0.1934080868959427 0.9769846796989441
-0.12668068706989288 -0.4637473523616791 -0.8976921439170837
-0.9939752817153931 0.5224491357803345 0.41347643733024597
0.5929422378540039 -0.2698870599269867 -0.5049773454666138
0.8025776147842407 -0.054191891103982925 -0.8856201767921448
0.5260030031204224 0.0012864497257396579 0.111358143389225
-0.9906027317047119 0.38612979650497437 0.41502615809440613
-0.5726887583732605 -0.2938448190689087 -0.8172821998596191
-0.27099594473838806 -0.17405009269714355 -0.3339141607284546
0.7985852956771851 -0.059633880853652954 0.0016867913072928786
-0.09295735508203506 -0.21766038239002228 0.95191490650177
0.3491789400577545 -0.40518295764923096 0.9867162704467773
0.22121262550354004 -0.18704262375831604 -0.19510383903980255
0.9065525531768799 0.5224491357803345 -0.8023874163627625
0.7935083508491516 -0.06671267747879028 0.972554087638855
-0.5908560156822205 0.06021924689412117 -0.5273410677909851
0.585688591003418 0.07016988843679428 -0.19591772556304932
0.4007401466369629 -0.10153739154338837 -0.7186128497123718
0.4582880139350891 -0.35561931133270264 0.11333463340997696
-0.46657758951187134 -0.0636061504483223 0.29772505164146423
-0.7288239002227783 0.3398744463920593 -0.348093181848526
-0.07082317769527435 -0.21983489394187927 -0.9837096929550171
-0.6441062092781067 0.1370639055967331 -0.6547790765762329
-0.01708402670919895 -0.470965713262558 0.6221449375152588
-0.3648550808429718 -0.13080336153507233 0.8926866054534912
-0.7369265556335449 -0.15093913674354553 0.6458841562271118
0.8489646911621094 0.3581972122192383 -0.9946444630622864
0.7476731538772583 -0.12430806457996368 0.29438668489456177
-0.704569935798645 0.26201024651527405 -0.2027006298303604
-0.4262615442276001 -0.37799301743507385 0.6486499905586243
-0.5956701636314392 -0.2774505019187927 -0.2922850549221039
0.7796634435653687 -0.08498771488666534 -0.6255500912666321
0.8303430676460266 -0.0006465822225436568 0.9924275875091553
0.6846824884414673 0.24419160187244415 0.7316475510597229
-0.11147373169660568 -0.2151845544576645 -0.7453054189682007
0.9868854880332947 0.5077294707298279 -0.5076965689659119
-0.34015631675720215 -0.1436862051486969 0.2776939272880554
0.8535090684890747 0.5224491357803345 -0.6439245343208313
0.7309490442276001 0.41567322611808777 0.3480337858200073
0.9230538606643677 0.17164669930934906 0.08491083234548569
0.6647612452507019 0.1991041898727417 0.27288490533828735
-0.45806634426116943 -0.16112591326236725 -0.9946444630622864
-0.808781623840332 -0.0634862557053566 0.22263368964195251
0.14779222011566162 -0.20644523203372955 0.7673400044441223
-0.9075157046318054 0.5224491357803345 0.08412715792655945
-0.9369451403617859 0.17422328889369965 0.2391536384820938
0.8856268525123596 0.5224491357803345 0.28134581446647644
0.5170730352401733 -0.29594314098358154 0.9924275875091553
-0.9926973581314087 0.5224491357803345 -0.7827877998352051
-0.7762856483459473 0.5224491357803345 0.9520722031593323
0.5463787913322449 -0.3030216097831726 0.7210327386856079
0.9520164132118225 0.26100775599479675 0.9132202863693237
-0.7540269494056702 -0.13190902769565582 -0.9360856413841248
0.18133443593978882 -0.4531015157699585 0.9725497364997864
-0.5654507875442505 -0.2988877296447754 -0.4853479564189911
0.019381802529096603 -0.47066402435302734 -0.8866015076637268
-0.875098705291748 0.04031266272068024 -0.4133841395378113
0.9064530730247498 0.28337663412094116 -0.9946444630622864
-0.26731276512145996 -0.43619391322135925 0.12668907642364502
0.17024679481983185 -0.20141388475894928 0.6235952973365784
0.42978325486183167 -0.3701171875 0.5955176949501038
0.5892754793167114 0.07490244507789612 -0.3246016502380371
0.24187834560871124 -0.4395381808280945 -0.9375417232513428
0.3924501836299896 -0.10690947622060776 0.19344815611839294
-0.9125314950942993 0.11502183228731155 -0.19978684186935425
0.6806411147117615 -0.04084949940443039 0.9924275875091553
-0.4545760452747345 -0.07289484143257141 -0.3844084143638611
0.52524733543396 -0.3167916238307953 -0.029489414766430855
-0.7488675713539124 0.460316002368927 -0.1411217451095581
0.0954604297876358 -0.46582314372062683 -0.3092038035392761
0.6351187229156494 0.14356142282485962 -0.3157719075679779
-0.9451940655708313 0.19715355336666107 0.8402922749519348
0.44135424494743347 -0.07308773696422577 0.23376724123954773
-0.6609159111976624 -0.03997182101011276 0.9924275875091553
-0.13453590869903564 -0.21155858039855957 -0.1730061173439026
-0.5187150239944458 -0.01863240823149681 0.24041114747524261
0.7286344766616821 0.4014965295791626 -0.23030471801757812
-0.38405641913414 -0.3964765965938568 -0.797344446182251
-0.9799573421478271 0.32404354214668274 -0.1848590224981308
0.3256095349788666 -0.14449651539325714 -0.6705989837646484
0.9862462878227234 0.4840276837348938 0.8354462385177612
-0.8532232642173767 0.002778703114017844 -0.7746939063072205
0.9483115673065186 0.24810801446437836 0.9023992419242859
0.18290625512599945 -0.19819442927837372 0.4496651887893677
-0.6794497966766357 0.20277489721775055 -0.7828502058982849
0.9770352840423584 0.3820142149925232 -0.3220313489437103
0.25340259075164795 -0.17587415874004364 0.3807642161846161
-0.06504088640213013 -0.29083573818206787 -0.9946444630622864
0.2565433382987976 -0.17466634511947632 0.5247882604598999
0.616983950138092 0.11441901326179504 0.6077330708503723
0.3437449634075165 -0.1352338194847107 -0.47380778193473816
-0.07205408066511154 -0.4387803077697754 -0.9946444630622864
0.9857788681983948 0.47355663776397705 -0.1522647589445114
0.022091438993811607 -0.47060343623161316 0.7643319964408875
-0.2168479710817337 -0.2771399915218353 -0.9946444630622864
-0.5788874626159668 -0.2895640730857849 0.6212999224662781
-0.6703346967697144 0.18404856324195862 -0.2002505362033844
0.8613619208335876 0.25735074281692505 -0.9946444630622864
-0.4586959481239319 -0.36217817664146423 0.08376456797122955
0.912259042263031 0.5224491357803345 0.0440186932682991
-0.14793996512889862 -0.4609067440032959 0.1605701595544815
0.9869869351387024 0.5134333968162537 -0.956002414226532
0.09695740044116974 -0.46564915776252747 -0.8052847981452942
0.2688838243484497 -0.16991499066352844 -0.14626187086105347
0.24870483577251434 -0.1775745302438736 0.6328631639480591
0.21125179529190063 -0.1901329904794693 -0.6005572080612183
-0.5572801232337952 0.02066970244050026 -0.7504008412361145
0.12649202346801758 -0.4620930850505829 -0.36520108580589294
-0.2597806453704834 -0.3986435830593109 0.9924275875091553
0.9244210124015808 0.5224491357803345 0.9386079907417297
0.7384989857673645 0.5095536112785339 -0.5881214141845703
-0.5614075660705566 -0.3015836477279663 -0.31017956137657166
0.9579664468765259 0.28391557931900024 -0.739810585975647
-0.3756723999977112 -0.3998866677284241 0.8648771047592163
0.04655107483267784 -0.2206810861825943 -0.8621517419815063
-0.4893456995487213 -0.345804899930954 -0.3528710901737213
-0.6627951264381409 -0.010826493613421917 -0.9946444630622864
0.519069254398346 -0.3206793963909149 -0.8596519231796265
-0.29072490334510803 -0.2413448542356491 -0.9946444630622864
0.9410608410835266 0.22378574311733246 0.714062511920929
-0.38084229826927185 -0.12174613028764725 0.06899132579565048
-0.7369434237480164 0.3756023943424225 0.5008357763290405
-0.2014668881893158 -0.19669610261917114 -0.10633447766304016
0.7134586572647095 0.33035117387771606 0.22688838839530945
0.9162752628326416 0.35760819911956787 0.9924275875091553
-0.6062231063842773 -0.2696003317832947 -0.9783404469490051
-0.2983575761318207 -0.16309979557991028 -0.705348551273346
-0.43772056698799133 -0.08519306778907776 0.5149012804031372
0.14020241796970367 -0.46015480160713196 0.025196002796292305
-0.9988771677017212 0.47609129548072815 -0.823098361492157
0.8497680425643921 0.5224491357803345 0.4188918471336365
-0.9909173250198364 0.3887209892272949 0.3720651865005493
0.28201401233673096 -0.4282149076461792 0.6253846883773804
-0.6559914350509644 0.15742535889148712 -0.310615211725235
0.545680046081543 0.022172288969159126 0.6295543313026428
0.07601552456617355 -0.21807564795017242 -0.5204994678497314
-0.1417791247367859 -0.4617983102798462 -0.18617023527622223
0.9833072423934937 0.4368238151073456 -0.969211220741272
-0.7878366112709045 -0.09114805608987808 -0.6293210387229919
-0.17026926577091217 -0.45747503638267517 -0.2451135516166687
0.9776099920272827 0.38590478897094727 -0.20909705758094788
-0.6779342293739319 -0.20979814231395721 0.3233088552951813
-0.25112342834472656 -0.1812584102153778 -0.8867023587226868
0.8534479141235352 0.024971770122647285 0.5604978799819946
-0.518584668636322 -0.3289048373699188 0.9610745906829834
0.7280570864677429 0.3976054787635803 0.727425217628479
-0.2260262668132782 -0.44649630784988403 0.3058934807777405
0.36046507954597473 -0.12599478662014008 0.7604116797447205
-0.8903849720954895 0.06902306526899338 0.891654908657074
-0.24334223568439484 -0.4423343539237976 0.9896290898323059
0.36441099643707275 -0.12383028119802475 0.812035322189331
-0.9635918736457825 0.2561850845813751 -0.21521177887916565
0.5670260190963745 0.046703021973371506 -0.10346023738384247
0.9768026471138 0.38053902983665466 -0.1642351597547531
0.18872660398483276 -0.45167726278305054 0.9495455622673035
0.8067820072174072 -0.048255257308483124 0.667242705821991
-0.6060694456100464 0.08021543174982071 -0.9211585521697998
0.9613638520240784 0.5224491357803345 0.24140723049640656
-0.8205939531326294 -0.046938180923461914 0.686151385307312
-0.6718159317970276 0.18705660104751587 -0.9560974836349487
0.17949625849723816 -0.19909785687923431 0.48717448115348816
-0.9990459084510803 0.4809066355228424 0.06413254141807556
0.05464930832386017 -0.22012875974178314 -0.27429327368736267
-0.948466420173645 0.206802636384964 -0.9302355051040649
-0.7169169187545776 0.2978551983833313 -0.012892922386527061
-0.1308523565530777 -0.4632573127746582 -0.5059415698051453
0.9864389896392822 0.48854467272758484 -0.9339100122451782
0.5720728039741516 0.0528896264731884 0.46065300703048706
-0.6211353540420532 0.1013709083199501 0.042655400931835175
0.9863435626029968 0.48527681827545166 -0.044208794832229614
-0.4621641933917999 -0.3603404462337494 -0.04889269918203354
-0.9930420517921448 0.40568968653678894 -0.0685838907957077
-0.38742294907569885 -0.39507219195365906 0.11407085508108139
-0.3524828553199768 -0.13740183413028717 -0.47485271096229553
0.5023463368415833 -0.3308776617050171 -0.5809191465377808
0.8508582711219788 0.020448194816708565 -0.019398808479309082
0.7374670505523682 0.48121657967567444 -0.7240819334983826
0.9642542004585266 0.3110680878162384 -0.7650513648986816
-0.12192132323980331 -0.46425861120224 -0.31776532530784607
0.5768280625343323 0.058849237859249115 0.3743206858634949
-0.9884274005889893 0.3713212311267853 -0.6182653903961182
-0.052295807749032974 -0.4700014889240265 -0.5785964727401733
-0.3208865821361542 -0.4199593961238861 0.23725518584251404
0.08638446033000946 -0.4666728377342224 0.16129213571548462
0.15864117443561554 -0.45723339915275574 -0.5247384309768677
-0.028534656390547752 -0.22227057814598083 0.7698972225189209
-0.8428882360458374 -0.013626869767904282 -0.29324883222579956
0.5422261953353882 -0.30576321482658386 -0.264823853969574
0.9655394554138184 0.31708666682243347 0.8560263514518738
0.4779806137084961 -0.34491753578186035 -0.9515504837036133
0.7384093999862671 0.5101525187492371 -0.2243213802576065
0.4769735336303711 -0.04449502378702164 0.7152311205863953
0.7910259366035461 -0.07004421949386597 0.7464467287063599
0.8049543499946594 -0.05081043764948845 -0.12059465050697327
-0.7405368089675903 -0.1469009518623352 -0.5953766107559204
0.6480746865272522 0.16662366688251495 0.4896438419818878
0.5754265785217285 0.05702759325504303 0.982732892036438
0.0973864272236824 -0.4656156599521637 -0.14001666009426117
-0.4616895020008087 -0.3606010377407074 0.714401364326477
0.1429419368505478 -0.45977646112442017 -0.01818718947470188
0.01304282620549202 -0.22238704562187195 0.2297263741493225
-0.2132725864648819 -0.19341517984867096 0.1610921174287796
0.2529691755771637 -0.1759451925754547 -0.09029119461774826
-0.6031598448753357 0.07621828466653824 0.12026264518499374
-0.20735643804073334 -0.45054590702056885 -0.8269023895263672
0.886985719203949 0.08794420212507248 0.9587107300758362
-0.16648775339126587 -0.2052321881055832 0.373202919960022
0.9635622501373291 0.3079369366168976 0.14209602773189545
0.8265984058380127 0.5224491357803345 -0.07941862940788269
0.10003028810024261 -0.21497386693954468 -0.7886790633201599
0.2646957039833069 -0.2357950508594513 -0.9946444630622864
-0.21404780447483063 -0.1930716186761856 0.6750725507736206
-0.24027587473392487 -0.4431213140487671 -0.3718092441558838
0.3898344039916992 -0.10854598134756088 0.2855038046836853
0.06942299753427505 -0.21872062981128693 -0.3647095859050751
0.042375996708869934 -0.22107739746570587 -0.44213852286338806
0.11898841708898544 -0.21202047169208527 -0.2110166996717453
-0.7793501019477844 0.5224491357803345 0.6983004212379456
0.2848537862300873 -0.4018821120262146 -0.9946444630622864
-0.5307090282440186 -0.07932891696691513 0.9924275875091553
-0.9972874522209167 0.45184093713760376 0.9924275875091553
-0.2554381787776947 -0.17974813282489777 -0.8336153626441956
-0.5147036910057068 -0.33114638924598694 -0.7876030802726746
0.6389918923377991 0.15032072365283966 -0.7376437187194824
0.7536990642547607 -0.11722636222839355 0.7121185660362244
-0.6505613327026367 0.14781805872917175 0.8237132430076599
0.7353516221046448 0.4525589644908905 0.8420910835266113
-0.12239039689302444 -0.21354715526103973 0.8881443738937378
-0.30710911750793457 -0.15929989516735077 0.8910189867019653
-0.9449784159660339 0.1965552121400833 0.30702584981918335
-0.8078094124794006 -0.06480489671230316 0.19285614788532257
0.9698636531829834 0.33863216638565063 0.003744678106158972
-0.5519108772277832 0.01480528898537159 -0.983426570892334
-0.892008364200592 0.5224491357803345 0.5914011597633362
-0.2501823306083679 -0.18169710040092468 0.854157567024231
0.6453173160552979 0.16140848398208618 -0.5401408076286316
0.13063019514083862 -0.4615645706653595 -0.24474170804023743
-0.6085073351860046 -0.2678273916244507 0.5979021191596985
-0.7595601081848145 0.5224491357803345 -0.4925944209098816
-0.7123275995254517 -0.17670781910419464 0.6766684055328369
0.4624204933643341 -0.35345855355262756 0.163852721452713
-0.8595616817474365 0.5224491357803345 -0.7980210185050964
-0.8094555735588074 -0.062592051923275 0.5467787981033325
0.0850653275847435 -0.3494854271411896 0.9924275875091553
-0.22647064924240112 -0.44637927412986755 0.8304741382598877
0.36862877011299133 -0.12136048823595047 0.9103520512580872
0.7119601368904114 0.3249322175979614 0.4308783710002899
0.4961261749267578 -0.027576005086302757 -0.783645749092102
-0.6654672622680664 0.1747654229402542 -0.3825283944606781
-0.4276788532733917 -0.2000189572572708 -0.9946444630622864
-0.6911115050315857 0.22833360731601715 0.756519615650177
-0.3348113000392914 -0.1686072051525116 0.9924275875091553
0.7884958982467651 0.5224491357803345 0.2582602798938751
-0.5175163149833679 -0.019825560972094536 -0.4844508767127991
0.8297362327575684 0.5224491357803345 0.2508373260498047
-0.6401675343513489 -0.24273186922073364 -0.13631629943847656
-0.35698774456977844 -0.4071728587150574 0.5009748339653015
0.7083097696304321 0.28326746821403503 -0.9946444630622864
-0.8877896666526794 0.1299111247062683 -0.9946444630622864
0.738511860370636 0.5120507478713989 -0.5141698122024536
-0.6006272435188293 0.07280758768320084 0.7947267889976501
-0.6466179490089417 0.14138416945934296 -0.3634691834449768
0.7342371344566345 0.44192954897880554 0.7611101865768433
0.43949171900749207 -0.07442890852689743 0.9548053741455078
0.834247350692749 -0.006968449801206589 -0.5962172150611877
0.6056115627288818 0.09748484939336777 -0.9181251525878906
-0.41639116406440735 -0.09974290430545807 0.7035502195358276
-0.4504459500312805 -0.07595175504684448 0.6282800436019897
-0.933933675289154 0.16630946099758148 0.6203813552856445
-0.4172157347202301 -0.09925679862499237 0.7578234076499939
0.5791459679603577 0.06179655343294144 -0.5295467376708984
0.9431003332138062 0.5224491357803345 -0.33927932381629944
0.1367146372795105 -0.2087780386209488 0.44257333874702454
-0.8260107636451721 0.037382546812295914 0.9924275875091553
-0.7104576826095581 -0.17854084074497223 -0.9940151572227478
-0.33386850357055664 -0.1468694657087326 0.42270487546920776
-0.8279324173927307 -0.03630466014146805 0.8898636102676392
0.48549169301986694 -0.3406640291213989 0.5089767575263977
0.1738567054271698 -0.24324263632297516 -0.9946444630622864
-0.7043656706809998 -0.18468062579631805 -0.47159984707832336
-0.38735783100128174 -0.1179206594824791 -0.10890491306781769
-0.28388312458992004 -0.2507455050945282 0.9924275875091553
0.633544385433197 0.14102105796337128 -0.01648816280066967
0.9846717715263367 0.45471999049186707 -0.9231457114219666
-0.9429060220718384 0.19065023958683014 0.47258102893829346
0.6458002924919128 -0.22696419060230255 -0.6325089931488037
-0.7362517714500427 0.37250983715057373 -0.5723432898521423
-0.29116272926330566 -0.1661500185728073 0.15306834876537323
0.6725223064422607 0.1566406786441803 -0.9946444630622864
0.7197374701499939 0.35571417212486267 -0.4539255201816559
0.2976182699203491 -0.42337387800216675 0.1560736745595932
-0.4639096260070801 -0.06574651598930359 0.6076244711875916
-0.4229013919830322 -0.3795495927333832 -0.6062208414077759
-0.3933853507041931 -0.11431899666786194 -0.3299435079097748
-0.9974600076675415 0.451688677072525 -0.8948510885238647
0.15748330950737 -0.2163785696029663 -0.9946444630622864
0.9672561287879944 0.32529759407043457 0.9144756197929382
-0.4333876669406891 -0.08821077644824982 -0.8059078454971313
0.07599592208862305 -0.21805693209171295 0.6436613202095032
-0.43248268961906433 -0.0888030081987381 0.5017712116241455
0.46076586842536926 -0.3543059229850769 0.5972452759742737
0.8067564368247986 -0.04822709411382675 -0.6281843781471252
0.7987815737724304 -0.059477951377630234 -0.09309201687574387
-0.24036212265491486 -0.44313520193099976 0.4530286192893982
-0.6878690123558044 0.22094567120075226 -0.5936209559440613
-0.5376541614532471 1.0258472684654407e-05 -0.4585152566432953
-0.10346198081970215 -0.4662935435771942 0.353533536195755
-0.2548876702785492 -0.1800432801246643 0.4192035496234894
0.8315889835357666 -0.01112663745880127 0.7120576500892639
0.7752428650856018 -0.09074278920888901 0.8846215605735779
0.5973449349403381 -0.266488641500473 -0.5820772051811218
-0.03242474049329758 -0.22224044799804688 0.4522634446620941
-0.5372517108917236 -0.1714175045490265 -0.9946444630622864
-0.47883832454681396 -0.3515448570251465 -0.8496293425559998
0.013346522115170956 -0.47086402773857117 0.2583034038543701
0.6698710322380066 0.20994290709495544 -0.4505537450313568
0.69460129737854 -0.18142269551753998 0.20655959844589233
-0.002054989105090499 -0.3868945240974426 -0.9946444630622864
-0.9141209721565247 0.11868134886026382 0.962215781211853
-0.01732500083744526 -0.2225629687309265 0.24158725142478943
0.7166081666946411 0.34293314814567566 0.4512789249420166
-0.5561570525169373 0.019488373771309853 -0.006012957077473402
0.8554335832595825 0.05615939199924469 -0.9946444630622864
-0.7223413586616516 0.3158814311027527 -0.5549069046974182
-0.8847070336341858 0.5224491357803345 -0.40369221568107605
0.07375983148813248 -0.35552313923835754 -0.9946444630622864
0.9851186275482178 0.4611266553401947 -0.1983715444803238
0.8844712376594543 0.0828535407781601 -0.23072028160095215
-0.13950660824775696 -0.4621118903160095 -0.48038557171821594
0.5618577003479004 0.04061325639486313 -0.5290095210075378
-0.8983794450759888 0.5224491357803345 0.051445454359054565
0.8716468214988708 0.05778970569372177 0.16513343155384064
-0.7960150241851807 -0.08060093224048615 0.7716261744499207
-0.6965152621269226 0.24163606762886047 0.14782145619392395
0.48004350066185 -0.04185199365019798 0.554344117641449
-0.48843997716903687 -0.0457911342382431 0.9032924771308899
-0.9795892834663391 0.5224491357803345 0.4074625074863434
-0.09537267684936523 -0.21729041635990143 -0.008282056078314781
-0.3655828535556793 -0.4038858413696289 -0.42667028307914734
0.3737272322177887 -0.11831875890493393 -0.38615337014198303
0.12051982432603836 -0.4628560245037079 -0.7241560816764832
0.2992260158061981 -0.4228619337081909 0.9282040596008301
-0.523383617401123 -0.32598769664764404 -0.531588613986969
-0.6886020302772522 0.22271908819675446 0.891758918762207
0.2900654077529907 -0.32764241099357605 0.9924275875091553
-0.0029211551882326603 -0.22267204523086548 0.016991835087537766
-0.3619023561477661 -0.40532001852989197 0.7326905727386475
0.25319546461105347 -0.17585574090480804 0.0427996888756752
0.6813355684280396 0.2360180914402008 0.05214392766356468
0.6425515413284302 0.15642324090003967 -0.9143123030662537
-0.7755873203277588 -0.10642236471176147 -0.29734665155410767
-0.9121963381767273 0.11414442211389542 0.3952937722206116
0.04008147493004799 -0.41303086280822754 -0.9946444630622864
0.6945357322692871 0.27001094818115234 0.32088008522987366
-0.016598010435700417 -0.47102704644203186 0.5753147006034851
0.5171840786933899 -0.2941097319126129 0.9924275875091553
-0.2966421842575073 -0.3792651891708374 0.9924275875091553
-0.6020220518112183 0.07476669549942017 -0.13800129294395447
0.9452337622642517 0.23732754588127136 0.8005493879318237
0.048658378422260284 -0.22056551277637482 0.8051326870918274
0.7331969141960144 0.43286845088005066 0.336581289768219
0.9474716186523438 0.24507839977741241 0.9898284673690796
-0.6671375036239624 -0.21958830952644348 0.4313127398490906
-0.5562217831611633 -0.3050457835197449 -0.5552170872688293
0.5013894438743591 -0.02272356115281582 -0.6512553095817566
-0.9932783246040344 0.4074675738811493 -0.23803237080574036
0.850288450717926 0.5224491357803345 0.6274217367172241
-0.04481491073966026 -0.4703213572502136 -0.6623445749282837
-0.14673112332820892 -0.20935244858264923 -0.4167589247226715
0.7388768792152405 0.5224491357803345 0.46316713094711304
0.048335302621126175 -0.469476580619812 0.6363372802734375
0.8465003967285156 0.01306157186627388 0.8797662854194641
-0.7515493631362915 0.516754150390625 0.24833068251609802
-0.26612335443496704 -0.17593318223953247 0.7961882948875427
-0.9453784227371216 0.19776007533073425 -0.0032726391218602657
0.20436221361160278 -0.4484492242336273 0.5748847723007202
-0.16891247034072876 -0.20464816689491272 -0.9626692533493042
-0.7852039337158203 -0.09442383050918579 0.4326598346233368
0.7438099980354309 -0.12877114117145538 -0.22924858331680298
0.31102246046066284 -0.15162603557109833 0.2917696237564087
0.6746371984481812 0.220392644405365 -0.29020026326179504
-0.3120255470275879 -0.1571517437696457 0.9290136694908142
-0.9472153186798096 0.20303934812545776 -0.03592875227332115
0.726367175579071 -0.14835064113140106 -0.028408881276845932
0.7314915060997009 -0.14263275265693665 0.955576479434967
0.9866688251495361 0.49487361311912537 0.617877721786499
0.9056170582771301 0.12866832315921783 -0.39319416880607605
-0.984285295009613 0.34669119119644165 0.3041975200176239
0.03816105052828789 -0.47007259726524353 -0.24741756916046143
-0.1386154592037201 -0.4621725380420685 0.5468174815177917
0.9728268384933472 0.3553392291069031 0.6865078806877136
0.674842894077301 0.22075097262859344 -0.7231956720352173
-0.5098088383674622 -0.026940874755382538 -0.4397598206996918
0.8013870120048523 0.5224491357803345 -0.4737294316291809
0.30081838369369507 -0.4223434031009674 -0.4693012535572052
-0.07824137806892395 -0.4684229791164398 -0.902258038520813
0.009909505024552345 -0.4709077477455139 0.04791489988565445
-0.7498155236244202 0.47103220224380493 -0.15794771909713745
0.026286175474524498 -0.4704890549182892 -0.8737253546714783
0.505759596824646 -0.01861722581088543 -0.2932591438293457
0.5146392583847046 -0.3233751058578491 -0.07817269116640091
-0.9506617188453674 0.5224491357803345 0.1096070408821106
0.022434474900364876 -0.22205616533756256 0.13460764288902283
-0.7799319624900818 -0.10104453563690186 -0.21526871621608734
0.9837031364440918 0.44120246171951294 -0.11337476968765259
-0.38911181688308716 -0.39434388279914856 -0.378561407327652
0.4075901210308075 -0.38065430521965027 0.6263838410377502
0.7150132656097412 -0.1604566127061844 -0.23354759812355042
0.7290078401565552 0.4028259217739105 0.03192906826734543
-0.6748837232589722 -0.1536988466978073 -0.9946444630622864
0.4398760199546814 -0.3651561737060547 -0.5052226781845093
-0.9978013038635254 0.45727136731147766 -0.2705688774585724
0.27296093106269836 -0.43089285492897034 -0.3433453142642975
0.6759662628173828 0.2234485000371933 0.8563700914382935
0.7520353198051453 -0.1192096397280693 -0.6826337575912476
0.8692893981933594 0.05337878689169884 0.6602660417556763
0.7349475026130676 -0.13880033791065216 0.41086143255233765
0.623703122138977 0.12485791742801666 -0.827755868434906
0.342670738697052 -0.13575749099254608 -0.31759679317474365
-0.34271079301834106 -0.41243216395378113 0.48826807737350464
0.800457239151001 -0.05706213787198067 -0.7951441407203674
-0.9951719045639038 0.425264447927475 0.9222517609596252
-0.14082978665828705 -0.21042895317077637 0.6303200721740723
0.8024202585220337 -0.05433047562837601 0.9566778540611267
0.770163893699646 -0.06665608286857605 0.9924275875091553
0.5930939316749573 -0.2697530686855316 -0.6195009350776672
0.7603508234024048 -0.10921565443277359 0.03551557660102844
0.9086143374443054 0.13570238649845123 -0.5496994853019714
0.3928576707839966 -0.38721585273742676 -0.06886561214923859
0.06303304433822632 -0.2194191813468933 -0.5058505535125732
-0.2741205096244812 -0.4343257546424866 -0.6185373663902283
0.7352614402770996 0.45189109444618225 0.922211766242981
0.7169228792190552 0.34396398067474365 0.2757629454135895
0.26643404364585876 -0.4328296482563019 -0.6509014368057251
0.743338406085968 0.5224491357803345 0.25209566950798035
0.669889509677887 -0.20528754591941833 -0.09985209256410599
0.7346856594085693 -0.04438001662492752 -0.9946444630622864
0.6251378059387207 0.12721823155879974 0.19286009669303894
-0.7494396567344666 0.4668141305446625 -0.6992089152336121
0.1487152874469757 -0.2062990814447403 -0.332423597574234
0.6806508302688599 0.23437444865703583 -0.35351523756980896
-0.9569170475006104 0.2332049161195755 -0.9508069157600403
0.3383297920227051 -0.13808903098106384 -0.6500723361968994
0.6734752058982849 0.2177382856607437 0.41205769777297974
0.3908136188983917 -0.3051588237285614 -0.9946444630622864
0.2811809480190277 -0.3936324417591095 -0.9946444630622864
0.4246858060359955 -0.08519881218671799 -0.10274908691644669
0.9123656153678894 0.5224491357803345 0.318824827671051
0.5962486863136292 -0.2673603296279907 0.13678453862667084
0.4410962760448456 -0.36454081535339355 0.4549282491207123
-0.18220578134059906 -0.4553971588611603 0.7714784741401672
-0.49381962418556213 -0.34332698583602905 0.8470423221588135
-0.5489768385887146 0.01166097354143858 0.29477328062057495
-0.6745843291282654 0.19269335269927979 -0.7368251085281372
0.1627253144979477 -0.2491418868303299 0.9924275875091553
0.8069664239883423 0.019693320617079735 -0.9946444630622864
-0.9481486678123474 0.20578007400035858 -0.3016698956489563
0.40683671832084656 -0.09750085324048996 -0.9677219986915588
-0.8650807738304138 0.022730723023414612 0.2864490747451782
-0.8599225282669067 0.5224491357803345 -0.5536803007125854
0.6199740171432495 -0.2486705183982849 -0.8535009026527405
0.43707117438316345 -0.07628871500492096 0.6337299346923828
-0.4070582389831543 -0.29271653294563293 -0.9946444630622864
-0.7326648235321045 0.3559671938419342 0.705352246761322
0.9703328013420105 0.46572035551071167 -0.9946444630622864
0.746807336807251 0.5224491357803345 -0.3848830759525299
-0.9394410848617554 0.5224491357803345 0.6955333948135376
0.06566338986158371 -0.21918445825576782 0.9862959384918213
-0.9620984196662903 0.25083252787590027 -0.8861435055732727
0.3855833113193512 -0.39043208956718445 -0.7215144038200378
0.6440033316612244 -0.22847715020179749 0.8929803967475891
-0.719917356967926 0.30785608291625977 0.5331336259841919
-0.07424701005220413 -0.21958009898662567 -0.09773422032594681
0.9862843155860901 0.4849548935890198 0.5632562637329102
-0.7359477877616882 0.37096095085144043 -0.2456580400466919
0.18418408930301666 -0.19786235690116882 0.876166820526123
0.2755762040615082 -0.16717542707920074 -0.6810450553894043
0.5858114957809448 0.07045988738536835 0.4156945049762726
-0.8658875823020935 0.02399001643061638 0.4900750517845154
-0.9807024598121643 0.3278595209121704 0.14375701546669006
0.9386114478111267 0.2161371111869812 -0.726966381072998
-0.06258649379014969 -0.4694485068321228 0.6831778287887573
0.9780762791633606 0.3891894221305847 0.5410072207450867
-0.9999765753746033 0.520371675491333 -0.6841520667076111
-0.5885633230209351 -0.2826444208621979 0.23227083683013916
-0.7475797533988953 0.4454152286052704 0.5754491090774536
0.560355007648468 -0.2935275733470917 0.5547510385513306
0.6324405074119568 -0.23837488889694214 0.3589492440223694
-0.5739409923553467 -0.29305970668792725 -0.46452027559280396
0.017550118267536163 -0.4707944989204407 -0.8519263863563538
-0.08961907774209976 -0.4675280451774597 0.9008303880691528
0.9849272966384888 0.45827436447143555 -0.6605483293533325
0.4846431314945221 -0.3410972058773041 0.03509024158120155
-0.19419540464878082 -0.4531553089618683 -0.8438537120819092
0.70014888048172 -0.1759120672941208 0.5891211628913879
0.9623933434486389 0.5224491357803345 -0.4297734200954437
0.40863803029060364 -0.09628661721944809 0.41561824083328247
-0.29659542441368103 -0.4277583956718445 0.540803074836731
0.7120288014411926 0.3254562020301819 -0.885667622089386
-0.19901171326637268 -0.19737114012241364 -0.057522501796483994
0.6406676173210144 -0.23139092326164246 0.6354840993881226
0.7395272254943848 0.10589742660522461 -0.9946444630622864
-0.7994867563247681 0.5224491357803345 0.6782931685447693
0.2831709086894989 -0.42790400981903076 0.5749024152755737
-0.08468551933765411 -0.467922568321228 0.6723482012748718
0.5764298439025879 -0.15199467539787292 -0.9946444630622864
-0.7427362203598022 0.40814918279647827 0.04839977249503136
-0.3142070472240448 -0.15614081919193268 -0.4785432815551758
-0.3294297754764557 -0.41705361008644104 -0.6340809464454651
-0.5187900066375732 -0.3287668228149414 0.7048639059066772
0.32090964913368225 -0.2368965595960617 0.9924275875091553
0.13578777015209198 -0.4608437120914459 0.41964223980903625
-0.683076024055481 0.21047626435756683 0.8886637687683105
-0.4166795015335083 -0.34709417819976807 0.9924275875091553
0.4348929822444916 -0.36757054924964905 -0.2872205972671509
0.8600254654884338 0.3945380449295044 -0.9946444630622864
0.9849711656570435 0.4591262936592102 0.03451136499643326
0.680761992931366 0.2348376363515854 -0.012802722863852978
-0.9274834394454956 0.5224491357803345 0.4414716958999634
0.46730712056159973 -0.3508269190788269 -0.5077182650566101
0.9817785620689392 0.42064982652664185 0.7852877974510193
0.9860513806343079 0.47957858443260193 -0.773865818977356
-0.9996235370635986 0.49585676193237305 -0.19828060269355774
0.019905248656868935 -0.4706602096557617 -0.3065180778503418
-0.5153151750564575 -0.021750163286924362 -0.3369268774986267
-0.30933788418769836 -0.15835551917552948 -0.503738284111023
0.7053455710411072 0.3022724390029907 -0.6757829785346985
0.7148945927619934 0.3357369303703308 0.43597492575645447
-0.5183510780334473 -0.1247410848736763 -0.9946444630622864
-0.9969435930252075 0.44512829184532166 -0.8921667337417603
-0.10900188237428665 -0.21561458706855774 -0.041162364184856415
-0.7288780212402344 0.3398825526237488 -0.3023119568824768
0.985366702079773 0.46599245071411133 0.3324386775493622
0.13966004550457 -0.4602477550506592 0.6169632077217102
-0.6306244730949402 -0.25050100684165955 -0.8060452342033386
-0.9814842343330383 0.33200547099113464 -0.29815083742141724
0.4002090394496918 -0.10184689611196518 -0.6420048475265503
-0.34283754229545593 -0.14241176843643188 0.9714864492416382
-0.6864228844642639 -0.2019401639699936 -0.1510905921459198
-0.05844007432460785 -0.22084514796733856 -0.11109738796949387
-0.5949527621269226 -0.27801990509033203 0.6940848231315613
0.7518867254257202 0.4095737338066101 -0.9946444630622864
-0.4746951460838318 -0.35377413034439087 -0.20267145335674286
0.9680628180503845 0.5224491357803345 0.014305757358670235
-0.7855874300003052 0.5224491357803345 -0.6042316555976868
0.5519530177116394 -0.2992701530456543 -0.5122575163841248
-0.9706629514694214 0.5224491357803345 0.4353540539741516
0.5894318222999573 -0.2725164294242859 0.47650134563446045
-0.8797798156738281 0.04871319606900215 -0.17084050178527832
0.8002896904945374 0.5224491357803345 0.5279297828674316
0.55445796251297 -0.29749301075935364 -0.1476036012172699
0.5963554978370667 -0.26721835136413574 -0.563932478427887
0.6809927821159363 -0.19479459524154663 -0.15579217672348022
0.17607304453849792 -0.19994090497493744 -0.6055989265441895
0.18697556853294373 -0.45198142528533936 -0.9707742929458618
-0.1216326355934143 -0.35865679383277893 0.9924275875091553
-0.8290902376174927 -0.03459171950817108 0.9484888315200806
-0.7358241677284241 0.37047716975212097 0.32782989740371704
0.5233482718467712 -0.3179548978805542 0.9224753975868225
-0.8263141512870789 0.5224491357803345 0.9174277782440186
-0.1487630009651184 -0.2089458405971527 -0.35831353068351746
-0.7302826046943665 0.3457614779472351 -0.9617588520050049
-0.6949679255485535 -0.19381268322467804 -0.02220783941447735
-0.9323907494544983 0.5224491357803345 -0.9647400975227356
-0.7167530655860901 -0.1722075194120407 0.08309489488601685
-0.8059961795806885 -0.06726756691932678 -0.7241522073745728
0.7962086796760559 0.5224491357803345 0.07553809136152267
-0.808753252029419 -0.06348025053739548 -0.2393043488264084
0.6894744038581848 0.2565232515335083 -0.4564637541770935
0.5186326503753662 -0.320930153131485 -0.1758531928062439
-0.6486820578575134 -0.23547431826591492 0.2713732421398163
0.4350928068161011 -0.07774791866540909 0.9126635193824768
-0.716005802154541 0.29497960209846497 -0.2703574597835541
0.15354184806346893 -0.20521032810211182 -0.35611850023269653
0.9698178768157959 0.3383456766605377 0.5117301940917969
0.9474002122879028 0.2867831587791443 0.9924275875091553
-0.7277292013168335 0.335669606924057 0.7759214639663696
-0.8873341679573059 0.06305215507745743 0.28104931116104126
-0.18997396528720856 -0.1997053027153015 -0.09288938343524933
0.31095558404922485 -0.15167267620563507 -0.7882612943649292
0.36939218640327454 -0.12088621407747269 0.09118491411209106
-0.8202970027923584 0.5224491357803345 0.06858336925506592
-0.999875545501709 0.5141063332557678 0.35404354333877563
-0.24240128695964813 -0.18425977230072021 0.917070746421814
-0.7368027567863464 -0.15113595128059387 0.16228023171424866
0.8097940683364868 0.2944902777671814 0.9924275875091553
0.9173674583435059 0.15690214931964874 0.9752123355865479
-0.0764274001121521 -0.21934568881988525 0.7917114496231079
0.05329537391662598 -0.2202523946762085 -0.06929229199886322
-0.005798693746328354 -0.47101354598999023 -0.13992086052894592
-0.7264977693557739 0.33071428537368774 -0.6221730709075928
-0.7331273555755615 0.358066201210022 0.38859137892723083
0.7525880336761475 0.30316609144210815 0.9924275875091553
-0.7275512218475342 0.3347023129463196 0.6553037762641907
0.8987353444099426 0.11301867663860321 -0.40992000699043274
0.8855524063110352 0.5224491357803345 -0.9838454127311707
0.10364113003015518 -0.4648854732513428 0.5411939024925232
-0.6735944151878357 0.19073081016540527 -0.8902903199195862
-0.11511501669883728 -0.214646115899086 -0.2136198878288269
0.9074750542640686 0.5224491357803345 0.6601678729057312
-0.6773557662963867 0.19840280711650848 0.7516440153121948
-0.16658425331115723 -0.4580749571323395 0.5672134160995483
0.7270599007606506 -0.11186636984348297 -0.9946444630622864
0.5102341771125793 -0.01439215149730444 0.8027331829071045
-0.23150673508644104 -0.18786770105361938 0.4928820729255676
0.6989024877548218 0.28242170810699463 0.22586537897586823
-0.5001358985900879 -0.3397427797317505 -0.5804039835929871
-0.7183984518051147 0.3026576042175293 -0.6547330021858215
0.9030752778053284 0.12282875925302505 0.5106743574142456
0.5324212908744812 0.007964827120304108 -0.9256547689437866
-0.05131474509835243 -0.2213318794965744 0.12300042808055878
-0.3183175027370453 -0.15427392721176147 -0.7228168845176697
0.30446210503578186 -0.15467195212841034 0.11338850110769272
0.6209394335746765 0.1205839067697525 -0.7419981360435486
0.20168495178222656 -0.19295470416545868 -0.04990937188267708
-0.8057175278663635 0.1913968324661255 0.9924275875091553
0.34163790941238403 -0.13631339371204376 -0.5181781053543091
0.19218550622463226 -0.19562101364135742 -0.8662124872207642
-0.2840788662433624 -0.4314703047275543 0.08278251439332962
-0.632588803768158 0.11867579072713852 0.26291486620903015
-0.9879471063613892 0.36835211515426636 -0.16877634823322296
0.9471918940544128 0.5224491357803345 -0.4645411968231201
-0.9189269542694092 0.12945009768009186 -0.29448598623275757
-0.34490203857421875 -0.14132548868656158 -0.29804062843322754
0.24359847605228424 -0.43907830119132996 0.18468144536018372
-0.22201626002788544 -0.4473748803138733 0.1697535514831543
-0.9996467232704163 0.49692657589912415 0.09443972259759903
0.8409426212310791 0.5224491357803345 -0.28711217641830444
0.8671596646308899 0.04937499761581421 -0.3815983235836029
0.6632412672042847 0.195969358086586 -0.7454792857170105
-0.06177326664328575 -0.22062407433986664 -0.10088413208723068
-0.7297457456588745 0.3433961272239685 -0.05215608701109886
-0.8599673509597778 0.5224491357803345 0.42961931228637695
-0.9706959128379822 0.2831452786922455 -0.714616060256958
0.6523234248161316 0.17434684932231903 0.1587318480014801
-0.8763562440872192 0.04253677651286125 -0.921635627746582
-0.6047674417495728 -0.2707090675830841 0.018243368715047836
-0.9054179787635803 0.09939336776733398 0.13815326988697052
-0.7713573575019836 0.39124542474746704 0.9924275875091553
0.020911019295454025 -0.4706849753856659 -0.4809739291667938
0.08769168704748154 -0.21666207909584045 -0.20181205868721008
0.18100938200950623 -0.453193336725235 -0.10783803462982178
0.007823088206350803 -0.2224646359682083 -0.69423508644104
0.7920500040054321 -0.06857378780841827 -0.41966110467910767
-0.9876193404197693 0.36640655994415283 0.45655620098114014
0.6452714204788208 0.16137737035751343 -0.7474655508995056
-0.14027516543865204 -0.4620051085948944 0.6797257661819458
0.5215871930122375 -0.003236715914681554 -0.855017364025116
0.41267111897468567 -0.09354700893163681 -0.043412137776613235
0.29121607542037964 -0.1606167107820511 0.09904924780130386
0.7268624901771545 0.39045998454093933 0.2235015332698822
-0.633561372756958 0.12011298537254333 -0.48667725920677185
-0.7908205986022949 -0.08733947575092316 0.9887573719024658
0.039567478001117706 -0.22122645378112793 -0.781762421131134
0.6218810677528381 -0.23680143058300018 0.9924275875091553
-0.8745145797729492 0.5224491357803345 0.5521463751792908
0.2631356120109558 -0.17218521237373352 0.9182751774787903
0.9488608837127686 0.2500431537628174 0.11089400947093964
-0.2884783446788788 -0.16724644601345062 -0.38712960481643677
-0.9303215742111206 0.5224491357803345 -0.6066988110542297
0.48726555705070496 -0.0356287956237793 -0.8251789808273315
-0.14479902386665344 -0.20971570909023285 -0.4765825569629669
-0.6326112151145935 -0.2488941252231598 0.9799709320068359
0.8493878841400146 0.5224491357803345 0.792221188545227
0.4210617244243622 -0.08773135393857956 0.8385797739028931
0.9862286448478699 0.4822264313697815 0.8994647860527039
-0.6090116500854492 -0.060660138726234436 0.9924275875091553
0.8516069650650024 0.5224491357803345 0.4502505362033844
-0.6677817106246948 0.17928080260753632 0.5811946392059326
0.9041391015052795 0.12525512278079987 0.11702350527048111
-0.9996851682662964 0.4999763071537018 0.7273991107940674
0.9063652157783508 0.13050208985805511 0.15366803109645844
0.6629321575164795 -0.21167495846748352 -0.010813847184181213
0.7018450498580933 0.291401207447052 0.4252655506134033
-0.497002512216568 -0.03842641040682793 -0.46881383657455444
0.8021445870399475 -0.05474357306957245 -0.3423403799533844
-0.7359747290611267 -0.1519574522972107 -0.7502106428146362
-0.11606472730636597 -0.2927945554256439 0.9924275875091553
0.17182132601737976 -0.45493146777153015 0.4441148638725281
-0.8875464200973511 0.5224491357803345 -0.41314637660980225
0.7033625245094299 0.29584842920303345 0.07563254982233047
-0.10293245315551758 -0.21633946895599365 0.9678554534912109
-0.8551610112190247 0.5224491357803345 0.4516931474208832
-0.28657761216163635 -0.16800080239772797 0.17629076540470123
-0.8242726922035217 0.5224491357803345 0.2449691891670227
-0.44482162594795227 -0.07998180389404297 -0.9703567624092102
-0.4625346064567566 -0.36016616225242615 -0.4090757668018341
-0.9467023015022278 0.20147855579853058 -0.6900538206100464
-0.8922565579414368 0.5224491357803345 0.7392274737358093
0.10193896293640137 -0.21468132734298706 0.6533514261245728
-0.41192787885665894 -0.3844718933105469 0.9346266984939575
0.18094125390052795 -0.19863790273666382 0.7531249523162842
0.8216723799705505 0.5224491357803345 -0.0011604384053498507
0.7133459448814392 0.32998380064964294 0.7620913982391357
0.7042121887207031 0.2985031008720398 0.06449028104543686
-0.563128650188446 0.027119895443320274 0.15184113383293152
0.078231081366539 -0.21780811250209808 -0.8159776926040649
0.9756807684898376 0.37269338965415955 0.9304943084716797
-0.9402157068252563 0.18327686190605164 0.8864483833312988
-0.494491308927536 -0.3428880572319031 -0.06598413735628128
-0.5329977869987488 -0.004747434519231319 0.7284979224205017
0.9858250021934509 0.47517257928848267 -0.07425858080387115
-0.16427482664585114 -0.4584527909755707 -0.4518404006958008
-0.1514987349510193 -0.20838172733783722 -0.97666996717453
-0.983341634273529 0.34151798486709595 -0.862335205078125
-0.7980408668518066 -0.07790328562259674 -0.08777671307325363
-0.9512873291969299 0.2151748389005661 0.11094064265489578
0.9702721238136292 0.340568870306015 0.3399598002433777
-0.30997586250305176 -0.4235886037349701 -0.013167551718652248
-0.6784851551055908 0.20069824159145355 -0.602508544921875
0.2889932096004486 -0.4260692894458771 -0.875099778175354
0.4749879539012909 -0.3465955853462219 0.6485785245895386
0.4046829044818878 -0.23409730195999146 -0.9946444630622864
0.701572835445404 0.290644109249115 0.5944109559059143
0.772990882396698 0.5224491357803345 -0.674187958240509
0.8672586679458618 0.5183893442153931 0.9924275875091553
0.6036431193351746 -0.2616623640060425 0.021802425384521484
-0.8554815649986267 0.5224491357803345 0.13268248736858368
-0.9807903170585632 0.3281697928905487 -0.4372462034225464
0.6292355060577393 0.13406361639499664 0.4884059429168701
0.6670089960098267 0.20389117300510406 -0.7767662405967712
-0.056294944137334824 -0.22099368274211884 0.486756831407547
0.9037611484527588 0.35600584745407104 -0.9946444630622864
0.7394198179244995 0.1508321911096573 0.9924275875091553
0.7005976438522339 0.127121239900589 -0.9946444630622864
0.567648708820343 0.047466177493333817 -0.14098185300827026
0.9299997091293335 0.19073958694934845 0.1654578149318695
-0.17632845044136047 -0.20304560661315918 0.7367664575576782
-0.7073899507522583 0.26984086632728577 0.9832478165626526
0.9157508015632629 0.1529940813779831 -0.25799036026000977
0.25948721170425415 -0.4347161650657654 -0.2504376769065857
-0.06540445238351822 -0.22028522193431854 0.6189953088760376
0.11903836578130722 -0.2119123637676239 -0.6976252198219299
0.2442314773797989 -0.17916955053806305 0.6495109796524048
0.7382253408432007 0.49660950899124146 -0.49750831723213196
-0.2380271553993225 -0.18579980731010437 -0.4390196204185486
-0.9088186621665955 0.10675738751888275 -0.8632570505142212
-0.7469850182533264 0.43976184725761414 0.8644430637359619
-0.8039585947990417 0.5224491357803345 -0.7308068871498108
-0.3567206561565399 -0.13520808517932892 -0.29370737075805664
0.49159783124923706 -0.03175370395183563 -0.5694196224212646
-0.44115883111953735 -0.3708721399307251 0.03956853225827217
-0.7470164895057678 0.4402037262916565 0.2914409041404724
0.2125491350889206 -0.4465921223163605 0.037481848150491714
-0.2088690996170044 -0.45022353529930115 0.36147573590278625
0.40673696994781494 -0.3809809386730194 -0.7303562164306641
0.982725977897644 0.4301958680152893 0.9003699421882629
0.006876927800476551 -0.470994234085083 0.18242540955543518
0.959837019443512 0.2915060818195343 0.741278886795044
0.9269802570343018 0.18240419030189514 -0.648231029510498
0.5994560122489929 0.0889582633972168 0.9283161163330078
0.904606819152832 0.12644779682159424 -0.8238177299499512
-0.7758739590644836 -0.10607171058654785 0.1561497002840042
