-0.726384162902832 -0.0927555188536644 -0.11477383971214294
0.7524029016494751 0.0933518186211586 0.10844096541404724
-0.33580753207206726 0.011479452252388 0.013492358848452568
-0.945877194404602 -0.0927555188536644 0.041151486337184906
-0.41493701934814453 0.0933518186211586 0.11723292618989944
-0.9883717894554138 0.019681567326188087 0.05144529044628143
-0.2660239338874817 -0.0927555188536644 -0.0820363312959671
-0.5646855235099792 -0.07258467376232147 -0.1406387835741043
-0.39805012941360474 -0.038627997040748596 0.138522207736969
-0.05182084068655968 -0.0927555188536644 -0.03492997586727142
-0.7029209733009338 0.0933518186211586 -0.10613600164651871
-0.12637345492839813 -0.02312951534986496 -0.1406387835741043
-0.5822399258613586 -0.0605677105486393 -0.05187656357884407
-0.0818033516407013 -0.08970585465431213 -0.1406387835741043
-0.28276729583740234 0.0833422914147377 0.138522207736969
0.9739429950714111 -0.0927555188536644 -0.0353517159819603
0.14469748735427856 -0.024928409606218338 0.138522207736969
0.3293670415878296 0.0933518186211586 0.06239214539527893
0.11732589453458786 0.0933518186211586 0.022852476686239243
0.3080888092517853 -0.02057761140167713 -0.1406387835741043
-0.1087876483798027 0.0933518186211586 -0.12579001486301422
0.06181788071990013 0.0933518186211586 0.09963688999414444
-0.6107898950576782 0.012481345795094967 -0.03599708899855614
0.9487016201019287 -0.04230479523539543 0.10689691454172134
0.43886449933052063 0.0933518186211586 0.030207574367523193
-0.7767862677574158 -0.0927555188536644 0.1285703033208847
0.4698890745639801 -0.09154291450977325 0.138522207736969
-0.36466798186302185 -0.0927555188536644 0.09765201061964035
0.06875624507665634 0.0933518186211586 0.06058911979198456
0.8178468942642212 0.00015028295456431806 -0.1406387835741043
-0.06742512434720993 -0.0927555188536644 -0.005363821983337402
-0.36698704957962036 -0.04798370227217674 -0.1406387835741043
0.27543941140174866 -0.018514828756451607 0.138522207736969
-0.10209938883781433 0.061753660440444946 -0.1406387835741043
-0.8158157467842102 0.05487915873527527 0.02724180929362774
0.9905372858047485 0.06589092314243317 -0.05142878368496895
0.43355730175971985 0.0933518186211586 0.0758856013417244
-0.0959463119506836 0.042380526661872864 0.138522207736969
-0.02549711987376213 -0.07441915571689606 0.138522207736969
-0.7302758097648621 -0.0927555188536644 -0.06741917133331299
-0.14639881253242493 0.0933518186211586 0.07498914748430252
-0.18214315176010132 -0.0927555188536644 0.06078793853521347
0.9448429942131042 -0.0927555188536644 -0.02480410411953926
-0.9761714935302734 -0.0927555188536644 0.040090128779411316
0.8468422889709473 0.08890954405069351 -0.1406387835741043
-0.5302760004997253 0.07845433056354523 0.138522207736969
0.7395695447921753 0.011334207840263844 0.138522207736969
0.8608383536338806 -0.06016391143202782 0.13850900530815125
-0.8129153847694397 -0.0927555188536644 0.06684915721416473
0.11243970692157745 -0.0690932646393776 -0.1406387835741043
-0.8645970225334167 -0.06962212920188904 -0.052327319979667664
-0.6609899997711182 -0.0927555188536644 0.10290363430976868
0.4896414279937744 -0.0927555188536644 0.1171192154288292
-0.5362728834152222 0.00984399113804102 -0.1406387835741043
-0.73200923204422 -0.0927555188536644 0.05503087118268013
0.49413833022117615 0.021587632596492767 0.138522207736969
-0.6160199642181396 -0.08946091681718826 0.138522207736969
0.09097667038440704 0.01900964416563511 0.138522207736969
-0.2021036446094513 -0.06546053290367126 -0.1406387835741043
-0.45751118659973145 0.06000310182571411 0.138522207736969
-0.3515889644622803 0.0933518186211586 0.03282538056373596
-0.506273090839386 0.0933518186211586 0.11151611804962158
0.8246293663978577 -0.08542981743812561 0.03645143657922745
-0.4182613492012024 -0.0927555188536644 -0.019321708008646965
-0.05770599842071533 0.0933518186211586 -0.13828317821025848
-0.3062729835510254 0.09245052188634872 0.04661865532398224
-0.9119081497192383 0.0933518186211586 -0.10138900578022003
0.21792937815189362 0.0933518186211586 -0.07360110431909561
-0.7161582112312317 -0.030291806906461716 -0.1406387835741043
-0.5841787457466125 -0.08558783680200577 0.138522207736969
0.6787381768226624 -0.0927555188536644 0.09654031693935394
0.3717893362045288 0.0933518186211586 0.125554159283638
-0.8873900771141052 0.0933518186211586 -0.07715630531311035
0.6245457530021667 -0.052954208105802536 0.010161778889596462
-0.8018237948417664 0.049691081047058105 -0.1406387835741043
-0.8615992069244385 -0.06278463453054428 0.050750602036714554
-0.762869656085968 0.02861558087170124 0.138522207736969
-0.5028284788131714 0.09289322048425674 -0.1406387835741043
0.4801342189311981 0.020516525954008102 -0.1406387835741043
0.1658785492181778 0.0933518186211586 -0.12296994030475616
0.1711864471435547 -0.0927555188536644 -0.11631374061107635
0.3107875883579254 -0.0018746552523225546 0.04524494707584381
-0.5154013633728027 -0.0927555188536644 -0.05154872685670853
0.8328524827957153 0.04488800838589668 0.042862094938755035
-0.7062790989875793 0.0933518186211586 -0.005056720692664385
-0.3262568414211273 -0.08781133592128754 -0.1406387835741043
-0.9342145323753357 -0.0927555188536644 0.013912680558860302
-0.34333035349845886 0.0933518186211586 -0.019930850714445114
0.916917085647583 -0.0927555188536644 -0.12067669630050659
-0.08567863702774048 0.0933518186211586 0.10290499776601791
0.917740523815155 -0.05827377736568451 0.125989630818367
0.611808180809021 -0.0927555188536644 0.0832209587097168
-0.025786621496081352 -0.04398616775870323 0.138522207736969
-0.24474841356277466 -0.009876692667603493 -0.0325162298977375
0.022306187078356743 0.07063773274421692 0.138522207736969
0.987272322177887 -0.04725862294435501 0.05726313963532448
0.5365716814994812 -0.0927555188536644 -0.08203451335430145
0.25131842494010925 -0.005097196437418461 -0.1406387835741043
-0.05590628832578659 0.0933518186211586 0.03933187574148178
-0.16052624583244324 0.0933518186211586 -0.04842112585902214
0.2643704116344452 -0.0927555188536644 -0.11708173900842667
-0.12417767196893692 0.0933518186211586 0.026288559660315514
0.9717227816581726 0.0933518186211586 -0.010178391821682453
0.9406452775001526 -0.014492476359009743 -0.11519329249858856
0.8889740109443665 0.0132575249299407 0.13540887832641602
-0.27605921030044556 -0.08282789587974548 -0.0518236868083477
0.2717161774635315 0.0933518186211586 -0.084172323346138
0.5484018921852112 -0.05794261768460274 0.04407916218042374
-0.6721304059028625 -0.057589899748563766 -0.1406387835741043
0.931498110294342 -0.0927555188536644 0.02295895293354988
0.06998621672391891 -0.025183627381920815 0.138522207736969
0.3546428978443146 -0.0927555188536644 0.052697982639074326
0.9103119969367981 -0.0927555188536644 0.050284143537282944
0.501654326915741 0.0933518186211586 0.08757912367582321
0.4116678833961487 -0.0927555188536644 0.006747891660779715
-0.9036277532577515 0.0373910516500473 -0.13331592082977295
0.6360897421836853 -0.0927555188536644 0.020099036395549774
-0.7627378702163696 0.0933518186211586 0.06553107500076294
0.8990104794502258 0.005894135218113661 -0.13504669070243835
-0.6053873896598816 0.05701585114002228 -0.040994513779878616
0.8908089399337769 0.008932817727327347 0.04103635251522064
-0.10455410927534103 -0.04214150831103325 -0.1406387835741043
0.03481822460889816 -0.02037552185356617 0.138522207736969
-0.9077591300010681 -0.0927555188536644 0.023753546178340912
0.359828382730484 -0.0927555188536644 0.1263621598482132
0.839425802230835 0.05035223811864853 -0.048271168023347855
0.9753456115722656 0.06361380964517593 0.07806169241666794
0.05419711023569107 -0.0927555188536644 -0.016203122213482857
-0.13019369542598724 -0.0927555188536644 0.03823429346084595
-0.7754160761833191 0.0933518186211586 -0.04542699083685875
0.672142505645752 -0.0927555188536644 -0.014106588438153267
0.96593177318573 -0.0927555188536644 0.0072463201358914375
0.5411508083343506 -0.0927555188536644 -0.0887637734413147
-0.19450053572654724 0.0933518186211586 0.01871471107006073
-0.3807189464569092 -0.0064285146072506905 -0.1406387835741043
0.8907827734947205 -0.073980413377285 0.04117053002119064
0.5040561556816101 -0.0927555188536644 0.13736610114574432
0.2112228274345398 -0.0927555188536644 0.03244774043560028
0.047693558037281036 -0.0019628601148724556 -0.022590061649680138
0.6227884888648987 0.023584913462400436 -0.1406387835741043
-0.6773988604545593 0.011134711094200611 -0.1406387835741043
-0.8682851791381836 0.034609343856573105 -0.14003455638885498
-0.18619073927402496 0.0933518186211586 0.015993870794773102
0.634131133556366 0.043872762471437454 -0.1406387835741043
0.07030464708805084 0.0933518186211586 -0.05489658564329147
-0.8189102411270142 -0.08809316903352737 0.031007355079054832
-0.738014280796051 -0.06597860902547836 0.138522207736969
-0.49030524492263794 -0.02219904214143753 0.138522207736969
-0.8891788125038147 -0.06898678094148636 -0.13732866942882538
-0.6723380088806152 -0.0927555188536644 0.07378093153238297
-0.25314196944236755 0.04987006261944771 -0.1406387835741043
-0.520329475402832 -0.0927555188536644 0.10583139955997467
0.805108368396759 0.0933518186211586 -0.01233853679150343
-0.9081730246543884 -0.0499238446354866 0.01590043492615223
0.24978171288967133 0.07424579560756683 0.03438439965248108
-0.17831416428089142 -0.0927555188536644 0.1011480987071991
0.1868750900030136 -0.07548756152391434 -0.1406387835741043
-0.6114215850830078 0.06950660049915314 -0.0354759618639946
0.7370634078979492 0.0933518186211586 0.08188854902982712
-0.156360924243927 -0.07989668846130371 -0.1406387835741043
-0.5434969663619995 -0.0927555188536644 0.058079659938812256
0.6418792009353638 0.05482156574726105 0.138522207736969
-0.4512365162372589 0.0933518186211586 -0.009338192641735077
-0.8792619705200195 0.0933518186211586 -0.12271156907081604
0.8886240720748901 -0.0927555188536644 -0.11171894520521164
0.5464312434196472 0.0007868210668675601 -0.04530180245637894
-0.8120400309562683 -0.07439367473125458 0.02022652141749859
-0.05106925219297409 0.0933518186211586 0.03479665890336037
-0.23963575065135956 -0.0927555188536644 0.05240138620138168
0.4598706364631653 0.0933518186211586 -0.0014759678160771728
0.4162890315055847 0.08564341068267822 0.138522207736969
-0.7732201218605042 0.03294387087225914 0.138522207736969
-0.8987618088722229 -0.04212404042482376 -0.03416677191853523
-0.3167279362678528 0.015355057083070278 -0.04279768094420433
0.531167209148407 -0.08943009376525879 -0.03048454411327839
-0.3736269474029541 -0.0927555188536644 -0.006795613560825586
-0.26397082209587097 -0.039389919489622116 0.138522207736969
-0.7668187022209167 0.08054124563932419 0.138522207736969
0.049117907881736755 -0.044710423797369 -0.01880251243710518
0.4548269212245941 -0.0927555188536644 0.03993280604481697
-0.9589853286743164 -0.02424629218876362 -0.0983504056930542
0.6797901391983032 0.04915318638086319 0.138522207736969
0.1994679868221283 -0.027554668486118317 0.138522207736969
-0.7569664120674133 0.0933518186211586 0.06928905099630356
0.21541623771190643 -0.09178631752729416 0.138522207736969
-0.42744460701942444 0.031192073598504066 0.138522207736969
0.28065425157546997 0.06180764362215996 0.138522207736969
-0.484478622674942 -0.06550030410289764 0.138522207736969
-0.6312035322189331 -0.04192269593477249 0.138522207736969
-0.07621601223945618 -0.0927555188536644 -0.09111618250608444
0.04199284315109253 0.0033908660989254713 -0.03206123784184456
0.3384990692138672 -0.07648789882659912 0.003990511875599623
-0.5163930654525757 -0.0927555188536644 0.04331527650356293
0.2460060715675354 0.0933518186211586 -0.06504703313112259
-0.3244246244430542 -0.08126547187566757 0.138522207736969
-0.3406442701816559 -0.0927555188536644 -0.12599150836467743
0.40662825107574463 -0.0927555188536644 0.03679567202925682
0.6715536713600159 -0.03384529799222946 -0.1406387835741043
-0.37979656457901 0.0933518186211586 0.06328558176755905
0.5035780072212219 0.004626083187758923 -0.1406387835741043
0.9892733693122864 0.0933518186211586 -0.039651043713092804
0.13153968751430511 -0.0927555188536644 -0.04252706468105316
-0.316317081451416 -0.0927555188536644 -0.07653924077749252
0.0005644136690534651 0.061047669500112534 -0.1406387835741043
0.03780845180153847 -0.0010390046518296003 0.03534194082021713
-0.3702036738395691 0.03696142137050629 0.138522207736969
-0.34587714076042175 -0.047359004616737366 -0.1406387835741043
-0.45851975679397583 -0.0927555188536644 0.04620454087853432
-0.8068717122077942 -0.0927555188536644 0.10514722019433975
-0.81207674741745 0.023729361593723297 0.02067779190838337
-0.2531431019306183 -0.05038142204284668 0.039313364773988724
0.46834102272987366 0.03655189275741577 -0.1406387835741043
-0.03331563249230385 0.002487491350620985 -0.04009059816598892
0.5686430335044861 0.0007995734922587872 -0.052297789603471756
0.312313437461853 0.0933518186211586 0.07624301314353943
0.8975435495376587 0.08124735951423645 0.13327904045581818
0.724184513092041 -0.00012297529610805213 0.138522207736969
0.03297310695052147 0.046072062104940414 -0.041193876415491104
0.3421255350112915 -0.0927555188536644 -0.07661192864179611
0.14851835370063782 0.0933518186211586 -0.11680518835783005
-0.5178467035293579 -0.07300477474927902 -0.1406387835741043
-0.1989307403564453 0.08229462057352066 0.138522207736969
-0.010987628251314163 0.0933518186211586 -0.05328960344195366
0.4068627953529358 -0.0927555188536644 -0.10953262448310852
0.15915106236934662 -0.0927555188536644 -0.09995169192552567
0.9952809810638428 0.03047315776348114 0.03463226556777954
-0.6052236557006836 -0.057778503745794296 0.03936198726296425
-0.7755864858627319 -0.0927555188536644 0.13224832713603973
0.009119726717472076 0.08317669481039047 0.05028035491704941
0.17832231521606445 0.0933518186211586 -0.030279094353318214
0.9491382241249084 0.020937949419021606 -0.10881002992391586
0.32530713081359863 0.04036618769168854 -0.036036182194948196
-0.7175971269607544 -0.0927555188536644 0.11990692466497421
0.4286559224128723 0.0933518186211586 0.07561913877725601
0.29746943712234497 0.08899013698101044 0.04944799095392227
-0.5026236772537231 0.0933518186211586 -0.08485142141580582
0.6182726621627808 0.07930073142051697 0.025307685136795044
0.8594844341278076 0.000994842848740518 0.138522207736969
-0.7572592496871948 0.09216993302106857 0.138522207736969
0.6830946207046509 0.0933518186211586 0.022551357746124268
0.33183327317237854 0.028436752036213875 -0.02780761569738388
-0.2474469393491745 -0.01782708428800106 -0.03515186533331871
0.6393029093742371 0.0933518186211586 -0.015259531326591969
-0.2581879496574402 -0.0927555188536644 0.11472278088331223
-0.8135416507720947 -0.024117132648825645 0.023785224184393883
0.07270084321498871 0.05894060805439949 -0.1406387835741043
-0.9077119827270508 -0.014098996296525002 -0.13184097409248352
-0.07333245128393173 -0.0927555188536644 0.01718975603580475
0.5461356043815613 0.0933518186211586 -0.07802790403366089
-0.7243711948394775 0.0933518186211586 -0.07500172406435013
-0.24073927104473114 0.041749387979507446 -0.026372933760285378
-0.6951159834861755 -0.0927555188536644 0.13653267920017242
-0.99764084815979 -0.0927555188536644 -0.007543326821178198
0.2799280881881714 0.0933518186211586 0.08816608041524887
0.46960487961769104 0.0933518186211586 -0.08552834391593933
-0.8188873529434204 -0.05470670014619827 0.138522207736969
0.6673198342323303 0.0933518186211586 -0.06377672404050827
-0.26732179522514343 -0.005351888481527567 0.04746115952730179
0.5194446444511414 -0.007528101559728384 -0.1406387835741043
0.04710801690816879 0.0933518186211586 0.0893108919262886
0.16116231679916382 0.0933518186211586 -0.06480278819799423
0.8260082006454468 0.07760319858789444 -0.039848800748586655
-0.986461341381073 0.05262330174446106 0.05602903664112091
0.5743361711502075 -0.014829699881374836 0.138522207736969
0.5881637334823608 -0.0927555188536644 0.11896728724241257
-0.47499698400497437 0.0933518186211586 -0.04305229336023331
-0.9348387122154236 -0.08156286925077438 -0.11824796348810196
-0.07105553150177002 0.0933518186211586 0.07930488139390945
0.6933478116989136 -0.0927555188536644 0.07081499695777893
0.18873341381549835 -0.0927555188536644 0.039336394518613815
-0.725786566734314 -0.0927555188536644 -0.07166104763746262
0.7247207164764404 -0.0927555188536644 0.020015563815832138
-0.6610516309738159 -0.0927555188536644 0.13247694075107574
0.6058014035224915 0.013555428013205528 0.04009215533733368
-0.7852301001548767 0.0933518186211586 -0.057678110897541046
-0.21444948017597198 -0.026342399418354034 0.138522207736969
0.34808361530303955 -0.013132809661328793 -0.1406387835741043
-0.8036080598831177 0.0933518186211586 0.12354876846075058
-0.8072125315666199 -0.0003889174840878695 -0.004952798131853342
-0.7247796058654785 -0.0927555188536644 -0.14002634584903717
0.472621351480484 0.0933518186211586 0.10857826471328735
0.7629505395889282 -0.0927555188536644 0.1058853417634964
-0.997037947177887 -0.005480272229760885 0.019154291599988937
0.6452840566635132 -0.047854818403720856 0.138522207736969
0.015574108809232712 0.0933518186211586 -0.08291668444871902
0.7413798570632935 0.08143021166324615 0.138522207736969
-0.7642694115638733 -0.0927555188536644 -0.07179234176874161
0.5894808769226074 0.042462363839149475 -0.1406387835741043
-0.6235570311546326 -0.024244600906968117 0.006484161131083965
-0.9980779886245728 -0.09168227761983871 0.008072787895798683
-0.4661470651626587 -0.05661003664135933 -0.1406387835741043
-0.5279257297515869 0.03134069964289665 0.025629395619034767
0.031412579119205475 0.0933518186211586 0.09790566563606262
0.43629583716392517 -0.0927555188536644 -0.05763695761561394
0.56602543592453 -0.04251273348927498 0.138522207736969
0.050936635583639145 0.05401051416993141 0.01240532100200653
-0.4067928194999695 0.0933518186211586 -0.047418270260095596
0.03717096522450447 0.07935263216495514 -0.1406387835741043
0.8845828771591187 -0.02162790112197399 -0.13849109411239624
-0.041896574199199677 0.02157125249505043 0.138522207736969
-0.4760607182979584 -0.0927555188536644 -0.11603980511426926
-0.5033014416694641 -0.0927555188536644 0.051597464829683304
-0.8584378957748413 0.0033809226006269455 -0.05261194705963135
-0.06401260942220688 0.0933518186211586 0.13158492743968964
-0.618242084980011 0.08099975436925888 0.023855717852711678
0.3016568422317505 0.04294993355870247 0.048669878393411636
-0.7177159190177917 0.06475629657506943 -0.1406387835741043
0.7597658038139343 -0.09127234667539597 0.138522207736969
0.0024346779100596905 -0.006803337950259447 -0.0527694895863533
0.029180970042943954 0.0933518186211586 0.13389259576797485
0.04849471151828766 0.07166095823049545 0.138522207736969
0.7354257106781006 0.09113305062055588 -0.1406387835741043
0.9978514909744263 -0.00740835489705205 0.02260216698050499
0.6386091709136963 0.0933518186211586 0.13650578260421753
-0.3316890001296997 -0.028666876256465912 -0.1406387835741043
-0.11906182765960693 0.0933518186211586 0.055239856243133545
-0.47641491889953613 0.06116386130452156 -0.1406387835741043
-0.2653186619281769 0.04491007700562477 0.046599023044109344
-0.824709415435791 0.036803655326366425 -0.03982838988304138
-0.016111601144075394 -0.0927555188536644 -0.05885525420308113
-0.7756596207618713 0.044150058180093765 -0.1406387835741043
0.8090973496437073 -0.018741214647889137 -0.009153245948255062
-0.5383895635604858 0.07502313703298569 -0.04020381718873978
-0.15176570415496826 -0.03050263039767742 -0.1406387835741043
-0.2686823308467865 0.08332382887601852 0.138522207736969
-0.5425429940223694 -0.043133094906806946 0.04147350788116455
-0.2098606675863266 -0.0927555188536644 -0.131278857588768
0.7610526084899902 -0.0927555188536644 0.10119379311800003
0.025340544059872627 0.05211687833070755 -0.04685448482632637
0.4819091558456421 -0.04073702543973923 -0.1406387835741043
-0.6923507452011108 0.0933518186211586 -0.10183227062225342
-0.24740487337112427 0.0933518186211586 -0.05690321698784828
-0.7318421006202698 0.061152514070272446 -0.1406387835741043
-0.9064280986785889 0.06558643281459808 0.01950552873313427
0.8858950138092041 0.046499062329530716 -0.13817086815834045
0.517964780330658 0.0933518186211586 -0.13331638276576996
-0.4656009376049042 -0.0927555188536644 0.11912000924348831
0.8576207160949707 -0.0389031320810318 -0.1406387835741043
-0.8410205841064453 -0.06111524626612663 0.138522207736969
0.5148481726646423 -0.048761554062366486 -0.1406387835741043
-0.3715463876724243 0.0626211166381836 0.138522207736969
0.3637658655643463 0.09197934716939926 0.138522207736969
-0.7057976722717285 -0.0927555188536644 -0.005113689694553614
0.5750845670700073 -0.0161164291203022 0.138522207736969
0.3484964370727539 -0.014095641672611237 -0.1406387835741043
0.06251529604196548 -0.0927555188536644 0.09010863304138184
0.27904170751571655 -0.0666787251830101 -0.1406387835741043
0.2355329543352127 0.08461298793554306 -0.0013033064315095544
-0.052178289741277695 -0.0927555188536644 -0.05952828750014305
-0.9558811187744141 -0.0927555188536644 0.03720519319176674
0.13016431033611298 0.0933518186211586 -0.00633660051971674
0.8175280094146729 -0.027230966836214066 0.027356544509530067
0.05134597420692444 0.059998784214258194 -0.012547967955470085
0.5351746678352356 0.0933518186211586 -0.09557302296161652
0.05560950189828873 -0.0927555188536644 0.1150197684764862
0.7927467226982117 -0.0732390359044075 -0.1406387835741043
0.8313565850257874 0.00961314793676138 0.04174569994211197
-0.949857234954834 -0.037529945373535156 -0.10705225169658661
0.42660659551620483 -0.0927555188536644 -0.0016074326122179627
0.9121115207672119 -0.06843632459640503 -0.006177965085953474
0.44170817732810974 -0.020843498408794403 -0.1406387835741043
-0.44836193323135376 0.0933518186211586 -0.02393610216677189
-0.9448034167289734 0.0933518186211586 -0.012808636762201786
0.5264090895652771 -0.014391141943633556 0.138522207736969
-0.835779070854187 -0.0927555188536644 -0.0856543555855751
0.07310888171195984 0.0933518186211586 0.10981255024671555
0.8493005633354187 -0.01878155954182148 0.049669984728097916
-0.3304367661476135 -0.0927555188536644 0.0915209949016571
-0.36864203214645386 0.0933518186211586 -0.010897273197770119
0.15766507387161255 -0.052943021059036255 0.138522207736969
-0.3565751612186432 0.0933518186211586 -0.10972899943590164
0.4269290566444397 0.07958706468343735 0.138522207736969
0.9134828448295593 -0.01571345329284668 0.12789089977741241
-0.9340383410453796 0.035794712603092194 0.1166553869843483
0.9898515343666077 -0.04859031364321709 0.050776608288288116
-0.6679869890213013 0.08488732576370239 0.138522207736969
-0.061081282794475555 -0.08642812818288803 0.138522207736969
-0.8647323250770569 0.006850567180663347 -0.14033132791519165
-0.7594253420829773 -0.0927555188536644 -0.08861928433179855
0.34981897473335266 -0.0927555188536644 0.09739309549331665
0.4991968274116516 -0.07872733473777771 0.138522207736969
-0.30143043398857117 -0.03928156942129135 -0.05023322254419327
-0.26082277297973633 -0.0927555188536644 -0.09279888868331909
-0.9986156821250916 -0.014488731510937214 -0.0032989997416734695
-0.3913004994392395 0.0933518186211586 0.09537982940673828
0.33867573738098145 0.09249446541070938 -0.0019185288110747933
-0.5345609188079834 0.02151516266167164 -0.03593479096889496
0.43569082021713257 -0.004603429231792688 0.138522207736969
-0.8850967884063721 -0.0788019523024559 0.04376498982310295
-0.3824903070926666 -0.08512171357870102 0.138522207736969
0.8659022450447083 0.06274522840976715 -0.14040246605873108
-0.6790263056755066 -0.0927555188536644 -0.10208500921726227
-0.18213330209255219 -0.0927555188536644 0.08910650759935379
-0.3796604871749878 -0.0927555188536644 0.0012078445870429277
-0.25208091735839844 0.0933518186211586 -0.12744437158107758
-0.3789215683937073 -0.0927555188536644 -0.057118747383356094
-0.5790438055992126 -0.05605992674827576 -0.05243641883134842
-0.012020152993500233 0.0933518186211586 0.08574625104665756
-0.997920036315918 -0.05597451329231262 -0.015833264216780663
-0.7938312888145447 0.06492169946432114 0.138522207736969
0.39692407846450806 0.0933518186211586 -0.12875443696975708
0.778488039970398 0.0933518186211586 0.11521022766828537
-0.7072941660881042 0.0933518186211586 -0.12363699078559875
0.6140413284301758 -0.07079406827688217 0.03148776292800903
-0.9976981282234192 0.02894560620188713 -0.01684647984802723
0.756288468837738 -0.006254920735955238 -0.1406387835741043
-0.6451174020767212 -0.07929392158985138 0.138522207736969
-0.9313133955001831 -0.0927555188536644 -0.06198420003056526
0.08523225039243698 -0.007410178426653147 0.138522207736969
-0.5931879281997681 -0.020535727962851524 -0.1406387835741043
-0.5211901664733887 -0.03753587231040001 0.138522207736969
0.6549044847488403 -0.011915403418242931 0.138522207736969
0.2907128632068634 -0.0927555188536644 -0.06042484939098358
0.3189692795276642 0.0933518186211586 -0.07076913863420486
-0.7695509195327759 -0.0927555188536644 0.0015253607416525483
-0.1878657341003418 -0.07675115764141083 0.138522207736969
-0.005064085125923157 0.0933518186211586 0.10759856551885605
-0.31971240043640137 0.07638491690158844 -0.1406387835741043
-0.41177546977996826 -0.0927555188536644 0.018334604799747467
-0.4285518229007721 0.0933518186211586 0.08895502984523773
0.6604339480400085 -0.04231715947389603 0.138522207736969
-0.23402337729930878 0.011037967167794704 0.0003152128483634442
0.5793023109436035 -0.08652373403310776 0.138522207736969
-0.5208448171615601 0.005348408594727516 -0.006460264325141907
0.6881865859031677 0.03550754860043526 -0.1406387835741043
0.5122742056846619 -0.038293834775686264 -0.1406387835741043
-0.8614017367362976 -0.07866217195987701 0.05087796226143837
0.55860835313797 0.011216703802347183 0.138522207736969
0.5354355573654175 -0.08243378251791 0.03364504501223564
0.7683981657028198 0.04707305505871773 -0.1406387835741043
-0.5376752614974976 0.011673959903419018 0.138522207736969
-0.8569426536560059 -0.08954128623008728 -0.1406387835741043
-0.38218697905540466 -0.07646667957305908 0.138522207736969
-0.4287314713001251 -0.0019648096058517694 0.138522207736969
0.07594485580921173 0.09281156212091446 -0.1406387835741043
-0.0533219575881958 0.0933518186211586 -0.10891959071159363
0.2084314376115799 0.04019851237535477 0.138522207736969
-0.9439361691474915 -0.0927555188536644 -0.07512898743152618
0.9986202716827393 -0.07331476360559464 -0.018712831661105156
0.5349216461181641 -0.0688810646533966 -0.034701939672231674
0.3356284201145172 -0.0047006551176309586 -0.018684981390833855
-0.42963987588882446 -0.0927555188536644 -0.043123599141836166
0.6234859824180603 0.0933518186211586 0.02807958610355854
-0.82286137342453 0.037622131407260895 0.036089759320020676
-0.24752263724803925 -0.016408484429121017 -0.1406387835741043
0.06637350469827652 -0.0927555188536644 -0.04940295219421387
0.08065380901098251 0.007793743629008532 0.138522207736969
0.6581037044525146 0.0933518186211586 -0.06473848223686218
0.2615378797054291 0.0933518186211586 -0.04886502027511597
-0.950279176235199 0.0933518186211586 -0.04172437638044357
0.09755244851112366 -0.01830209046602249 -0.1406387835741043
0.4124923348426819 -0.0927555188536644 -0.021974781528115273
-0.009444158524274826 -0.0927555188536644 -0.09632182866334915
-0.2787717580795288 -0.06850855052471161 0.050169073045253754
-0.9928187131881714 0.0933518186211586 0.027671512216329575
-0.2170684039592743 0.0933518186211586 -0.09412892907857895
-0.9102565050125122 -0.027759218588471413 -0.01043526642024517
0.3391093313694 0.07446327805519104 0.0010449228575453162
-0.8115009069442749 0.013058244250714779 -0.02086855098605156
-0.3808147609233856 0.0933518186211586 -0.09125622361898422
-0.8746764063835144 0.0933518186211586 0.10532637685537338
0.809316873550415 0.07588180899620056 -0.010030854493379593
-0.6619387269020081 0.08891275525093079 -0.1406387835741043
-0.502292811870575 -0.039425935596227646 0.138522207736969
0.796936571598053 -0.0927555188536644 0.004905450623482466
0.0813700258731842 0.0933518186211586 0.001852904912084341
-0.10187513381242752 -0.0927555188536644 0.009829099290072918
-0.164464071393013 -0.0927555188536644 -0.0017095264047384262
0.13140365481376648 -0.0927555188536644 0.09066376835107803
-0.9163734912872314 0.08672656863927841 -0.12826254963874817
-0.24722006916999817 0.0933518186211586 0.07331785559654236
-0.09173780679702759 0.0933518186211586 -0.04294881224632263
-0.6953515410423279 0.0933518186211586 -0.04852810874581337
0.3779001832008362 -0.05346355959773064 -0.1406387835741043
0.8126591444015503 0.02196357399225235 0.138522207736969
0.1513211727142334 0.0933518186211586 0.014866337180137634
-0.2811662554740906 0.048460908234119415 -0.05254032090306282
-0.6046121716499329 -0.006598236970603466 -0.04180670529603958
0.3305654227733612 0.028107453137636185 0.02739410102367401
-0.9122943878173828 -0.0927555188536644 -0.03342447429895401
0.7316071391105652 0.0933518186211586 -0.02538817562162876
0.6923089027404785 0.0933518186211586 0.03913338854908943
0.6695295572280884 0.0933518186211586 -0.03497903048992157
-0.05626964196562767 -0.0927555188536644 0.03531737998127937
0.9141020774841309 -0.016708897426724434 -0.1297895908355713
-0.020924802869558334 0.06897114962339401 0.04573869705200195
0.3495510518550873 -0.0927555188536644 0.09147822856903076
0.14800262451171875 -0.015458264388144016 0.138522207736969
0.8169427514076233 0.034257642924785614 0.02698512189090252
-0.8786328434944153 -0.07926496118307114 0.046850405633449554
0.5597559809684753 0.0933518186211586 -0.054844558238983154
0.09976108372211456 -0.0458206906914711 0.138522207736969
-0.5303761959075928 0.06518873572349548 0.138522207736969
0.4178318977355957 -0.0927555188536644 0.0735672190785408
-0.528706967830658 0.0933518186211586 -0.0744871273636818
0.4641868770122528 -0.0927555188536644 -0.038328804075717926
0.8647186160087585 0.0006489690858870745 -0.05281206592917442
-0.8676421642303467 -0.03711633384227753 -0.05229167267680168
-0.2996804118156433 0.0933518186211586 0.07962839305400848
-0.28821638226509094 -0.06768450140953064 0.050771672278642654
0.3979659974575043 -0.05012444779276848 -0.1406387835741043
0.492403119802475 0.0933518186211586 -0.10564250499010086
-0.028303906321525574 -0.08336323499679565 0.041711121797561646
-0.012346185743808746 0.0933518186211586 0.12278185039758682
0.6777846217155457 -0.0927555188536644 0.08767902851104736
-0.9614865183830261 0.0933518186211586 0.07602427899837494
0.5768844485282898 -0.05545924976468086 0.05070771276950836
-0.8097096085548401 -0.06286393105983734 0.014436413533985615
-0.5329787731170654 -0.0927555188536644 -0.089963898062706
-0.8547634482383728 0.08505213260650635 0.05071382224559784
-0.45203977823257446 0.0933518186211586 -0.05070685222744942
0.4912588596343994 -0.0927555188536644 -0.04248911142349243
-0.041753657162189484 0.07423960417509079 0.138522207736969
-0.24459171295166016 -0.08251804113388062 0.138522207736969
0.8229638338088989 -0.07762374728918076 -0.03682641685009003
0.28558701276779175 0.0933518186211586 -0.08113518357276917
-0.046224210411310196 0.09091143310070038 0.138522207736969
-0.3580474257469177 -0.0927555188536644 -0.024324731901288033
-0.2150765359401703 -0.0927555188536644 0.043871648609638214
0.19174283742904663 -0.0927555188536644 -0.13606636226177216
0.023182852193713188 0.019048871472477913 -0.047385238111019135
-0.813341498374939 -0.009498760104179382 -0.025082077831029892
-0.24477635324001312 -0.017720496281981468 0.138522207736969
-0.6348931789398193 0.0933518186211586 0.03909879922866821
-0.605734646320343 0.0669211894273758 -0.1406387835741043
-0.1589643806219101 0.042220328003168106 0.138522207736969
0.6739740967750549 -0.00837124977260828 -0.1406387835741043
0.6971904635429382 0.0933518186211586 0.09004790335893631
0.788890540599823 -0.0927555188536644 0.13086915016174316
-0.5258086323738098 -0.0655621811747551 -0.023617956787347794
-0.10131128877401352 -0.0927555188536644 0.07097434252500534
0.9976929426193237 -0.07628007233142853 0.023334994912147522
-0.4379371702671051 -0.0927555188536644 0.11065897345542908
0.8742792010307312 0.07198774069547653 0.13771747052669525
0.029385270550847054 -0.041537150740623474 0.138522207736969
0.34688082337379456 -0.036183081567287445 -0.1406387835741043
0.8155865669250488 0.0933518186211586 -0.08092755824327469
0.48467859625816345 -0.0927555188536644 0.011293051764369011
-0.1595124751329422 -0.07365910708904266 -0.1406387835741043
-0.003691604360938072 -0.02858978882431984 0.138522207736969
0.2124628871679306 0.0933518186211586 0.09089484065771103
-0.5172406435012817 0.08062868565320969 -0.1406387835741043
-0.9834132790565491 0.07383327186107635 0.06217151880264282
0.3730464577674866 0.07227127254009247 0.138522207736969
-0.03498958796262741 -0.06884060055017471 0.0359933041036129
-0.930466890335083 0.047777559608221054 -0.12069310247898102
-0.5862842798233032 -0.0927555188536644 0.10803675651550293
-0.7931409478187561 0.007429967634379864 0.138522207736969
0.016673773527145386 -0.08080297708511353 0.048356086015701294
-0.8301113843917847 -0.0927555188536644 0.06462277472019196
0.7612096667289734 0.0933518186211586 -0.050106748938560486
-0.02449873462319374 -0.04468287527561188 -0.1406387835741043
0.817930281162262 0.05427231267094612 -0.030965041369199753
0.9343682527542114 0.0933518186211586 0.048195961862802505
-0.01059756614267826 -0.07312681525945663 0.049755290150642395
-0.031611692160367966 0.0933518186211586 0.050477880984544754
0.6085655093193054 0.0749913901090622 -0.1406387835741043
0.3113071322441101 -0.07011741399765015 0.04448605701327324
-0.8935239315032959 0.05383238568902016 -0.03967481479048729
0.46716973185539246 -0.03913431614637375 -0.1406387835741043
0.3803102970123291 -0.0927555188536644 0.02366851456463337
-0.12866921722888947 -0.027685590088367462 0.138522207736969
-0.60838782787323 -0.0927555188536644 0.04488356411457062
-0.03350987657904625 0.015217534266412258 -0.04018763452768326
0.6536096930503845 0.0933518186211586 -0.0364871621131897
-0.9813979268074036 0.03766559436917305 -0.06813107430934906
-0.4328790307044983 -0.0927555188536644 0.00205407221801579
-0.6004840135574341 -0.06262511759996414 -0.04447202757000923
0.8003751635551453 0.04162067547440529 -0.1406387835741043
0.709585964679718 0.0933518186211586 -0.06074768304824829
0.8609217405319214 -0.03864963352680206 0.13849762082099915
0.6159833073616028 0.008122183382511139 -0.031392794102430344
-0.8734209537506104 0.020995263010263443 0.04893743246793747
-0.41220518946647644 0.0933518186211586 0.0043777842074632645
0.7703906297683716 0.0933518186211586 0.0910971611738205
0.9728248119354248 -0.0927555188536644 0.021145489066839218
-0.9454900026321411 -0.07881662994623184 -0.11064762622117996
0.3749142289161682 -0.017470989376306534 -0.1406387835741043
0.33459606766700745 0.0933518186211586 0.027788126841187477
-0.9089207053184509 -0.05466252192854881 -0.01506955549120903
-0.33644503355026245 -0.05314808338880539 0.010809461586177349
-0.6807789206504822 0.0933518186211586 0.13794399797916412
-0.3265056312084198 -0.04056479409337044 -0.03287796303629875
0.8157957792282104 0.017314298078417778 0.024664273485541344
-0.29450562596321106 0.04846124351024628 -0.1406387835741043
0.905956506729126 -0.0927555188536644 0.11795195937156677
-0.07148747891187668 0.0933518186211586 0.013542980886995792
0.2948412597179413 0.042052678763866425 -0.1406387835741043
-0.5974921584129333 0.038809120655059814 -0.04649922996759415
-0.1687067449092865 0.0933518186211586 -0.11289887875318527
-0.0321291983127594 -0.0927555188536644 -0.1315927356481552
0.766024649143219 -0.04940173402428627 -0.1406387835741043
0.5921747088432312 -0.0927555188536644 0.08089311420917511
-0.28043508529663086 0.030509212985634804 -0.052679192274808884
-0.3120882511138916 0.018054259940981865 0.043700311332941055
0.2982270121574402 -0.05436757951974869 -0.1406387835741043
0.37895721197128296 -0.0927555188536644 0.1269741952419281
-0.5077914595603943 -0.0927555188536644 -0.03692847117781639
-0.6332189440727234 -0.0927555188536644 -0.05291472375392914
-0.0067133232951164246 0.01586238667368889 0.05019824951887131
0.9042364358901978 0.08989426493644714 -0.1333990842103958
0.9024601578712463 -0.0927555188536644 -0.1024278849363327
-0.5189618468284607 0.0933518186211586 -0.0009845407912507653
-0.9789261221885681 0.03272125869989395 -0.07259326428174973
0.4606747329235077 0.0933518186211586 0.003238002536818385
-0.5696160197257996 -0.0927555188536644 -0.06718319654464722
0.18191711604595184 -0.0927555188536644 -0.046136971563100815
-0.5950559973716736 0.0279945470392704 0.138522207736969
0.4869741201400757 -0.016209030523896217 -0.1406387835741043
-0.2674441933631897 -0.016187842935323715 0.047238145023584366
0.5788002014160156 0.06549707055091858 -0.0527971088886261
0.9645218253135681 -0.0927555188536644 -0.044139813631772995
0.07906239479780197 0.0933518186211586 -0.029135847464203835
-0.1924387663602829 -0.025945153087377548 0.138522207736969
0.8438558578491211 0.037932563573122025 0.138522207736969
-0.5216379165649414 -0.07724514603614807 -0.010359322652220726
-0.029935406520962715 0.05501481518149376 -0.04306938871741295
-0.525785505771637 0.0933518186211586 0.08434367924928665
-0.25353536009788513 -0.0927555188536644 0.1236083135008812
-0.5019046068191528 0.0933518186211586 0.014650097116827965
0.7325380444526672 0.0379427932202816 0.138522207736969
-0.6836822032928467 -0.0927555188536644 -0.04719517379999161
0.17178115248680115 0.033482857048511505 0.138522207736969
0.17658814787864685 -0.025114553049206734 -0.1406387835741043
-0.6537184715270996 0.0933518186211586 0.09609875828027725
0.023950718343257904 -0.05983930826187134 -0.1406387835741043
-0.6542375683784485 -0.0927555188536644 0.06749457120895386
-0.6633220314979553 0.07399678230285645 -0.1406387835741043
-0.10839325189590454 -0.0927555188536644 -0.08065145462751389
0.5586259961128235 -0.006313931196928024 0.04861481860280037
-0.6783570051193237 -0.05792304500937462 0.138522207736969
-0.8402237296104431 0.02107585035264492 -0.049452196806669235
-0.7387533783912659 0.0933518186211586 0.03179904446005821
-0.5239392518997192 0.031087802723050117 0.017653556540608406
0.5225796699523926 0.03483191505074501 0.005540287587791681
-0.8159726858139038 -0.0927555188536644 0.09123575687408447
0.5851029753684998 -0.0927555188536644 0.08009899407625198
-0.583139181137085 0.0933518186211586 0.10414757579565048
0.23740284144878387 0.0933518186211586 0.046392571181058884
-0.998349666595459 -0.07088010758161545 0.006365339271724224
-0.7293999195098877 -0.0927555188536644 -0.05535828694701195
-0.5541562438011169 0.08650144934654236 -0.1406387835741043
0.9213905930519104 -0.06514132767915726 -0.1266019493341446
-0.5811090469360352 0.05029788613319397 -0.1406387835741043
0.8573363423347473 0.036004774272441864 -0.1406387835741043
0.7385309934616089 0.0933518186211586 -0.03095758892595768
-0.476748526096344 0.0933518186211586 0.07759812474250793
0.6084789037704468 -0.03325468674302101 -0.03965921700000763
0.17629992961883545 0.0933518186211586 -0.014667726121842861
0.04263927787542343 0.05501856282353401 -0.031001782044768333
-0.38978058099746704 -0.0927555188536644 0.052779555320739746
0.22536557912826538 0.05666620284318924 0.138522207736969
0.9529032707214355 -0.0414692647755146 0.1034146100282669
0.6876595616340637 -0.0927555188536644 0.13701455295085907
0.3780171275138855 -0.0821041390299797 -0.1406387835741043
-0.6951480507850647 0.0933518186211586 0.05943238362669945
0.5696241855621338 0.031983911991119385 -0.1406387835741043
0.22874318063259125 -0.07792854309082031 -0.1406387835741043
0.472852498292923 -0.04368430748581886 -0.1406387835741043
-0.8132737874984741 -0.02168239839375019 -0.02561236172914505
-0.013919567689299583 0.08322793245315552 -0.05074353143572807
0.43870994448661804 -0.0927555188536644 -0.03912834823131561
0.01180325262248516 0.04737015441060066 0.04964910447597504
0.6471717357635498 -0.06255676597356796 0.138522207736969
-0.040239691734313965 -0.05125361680984497 0.030914034694433212
-0.8146449327468872 0.024776535108685493 -0.027980661019682884
-0.6427655220031738 -0.0927555188536644 -0.005029877182096243
-0.90849369764328 0.02758565917611122 -0.017057770863175392
0.40611129999160767 -0.0927555188536644 0.045729897916316986
-0.5976422429084778 0.08146738260984421 -0.1406387835741043
-0.5208377838134766 -0.021497273817658424 -0.0033308404963463545
-0.6046139001846313 0.0933518186211586 0.12526023387908936
0.05443106219172478 -0.0927555188536644 -0.09182768315076828
0.5132917165756226 0.0933518186211586 0.04214199632406235
0.3064401149749756 0.0933518186211586 0.048043664544820786
-0.2774108350276947 0.07404211908578873 0.138522207736969
-0.6475741863250732 -0.08091259747743607 -0.1406387835741043
-0.6744536757469177 -0.0927555188536644 -0.13783128559589386
-0.6963181495666504 -0.013217632658779621 0.138522207736969
-0.13431347906589508 0.09004797041416168 -0.1406387835741043
-0.2721269428730011 -0.0012263290118426085 -0.05063020437955856
-0.8688184022903442 0.0933518186211586 -0.070216603577137
-0.3981246054172516 0.0933518186211586 -0.1332184374332428
0.14040245115756989 -0.0927555188536644 0.0999235287308693
0.6792406439781189 0.0933518186211586 -0.1165694072842598
-0.7938668131828308 -0.07541204988956451 -0.1406387835741043
-0.8200728893280029 0.0933518186211586 -0.12241421639919281
0.9952899813652039 -0.026220500469207764 0.03436801955103874
-0.5990059971809387 -0.08981521427631378 0.138522207736969
-0.8253964781761169 -0.009477999992668629 0.03835923224687576
0.964236855506897 0.048423342406749725 -0.0942157730460167
-0.6986445784568787 -0.01721257157623768 0.138522207736969
0.7396928071975708 0.0933518186211586 0.09642518311738968
-0.3187272846698761 -0.0927555188536644 -0.11523106694221497
0.3480411469936371 -0.0927555188536644 0.08691754937171936
-0.794415295124054 -0.07042460888624191 0.138522207736969
-0.7068365216255188 -0.0927555188536644 -0.041595686227083206
-0.7302102446556091 0.03693837672472 0.138522207736969
-0.03781040385365486 0.07403858006000519 -0.1406387835741043
0.4838367700576782 -0.0927555188536644 -0.055278800427913666
0.3414255976676941 -0.0927555188536644 -0.09763053804636002
-0.07331115007400513 0.0933518186211586 0.11227123439311981
-0.36629265546798706 -0.05399329960346222 0.138522207736969
0.15232226252555847 -0.0927555188536644 -0.06679999083280563
0.23761174082756042 0.07142512500286102 0.014484984800219536
0.734643816947937 0.08617947995662689 -0.1406387835741043
0.3678748309612274 0.07376428693532944 0.138522207736969
0.22891663014888763 0.0933518186211586 -0.01973132975399494
-0.9765672087669373 -0.07861888408660889 -0.0764463022351265
0.050870854407548904 0.0933518186211586 0.04696277901530266
0.5224375128746033 -0.08522385358810425 0.005426675546914339
-0.40477675199508667 0.06011037901043892 0.138522207736969
-0.6896873712539673 -0.0927555188536644 -0.051802150905132294
-0.535831868648529 0.0933518186211586 -0.06839729845523834
0.3322318494319916 -0.0927555188536644 -0.09711793065071106
0.816719651222229 0.018853958696126938 0.02609480917453766
-0.7867612242698669 -0.0927555188536644 -0.08664130419492722
0.4102057218551636 0.07808452099561691 -0.1406387835741043
0.2954612672328949 -0.0927555188536644 0.06112990900874138
-0.6178489923477173 -0.0927555188536644 0.04199343919754028
0.7348041534423828 -0.0927555188536644 -0.01997579075396061
-0.5658011436462402 -0.0927555188536644 -0.10114432871341705
0.3226633369922638 0.05695367231965065 0.03659645467996597
-0.1319303810596466 0.035089101642370224 -0.1406387835741043
0.05998934432864189 0.0933518186211586 0.038048405200242996
-0.3162979781627655 0.0933518186211586 0.12607848644256592
0.8529072999954224 0.0933518186211586 0.12076114863157272
-0.07875252515077591 0.004620535299181938 0.138522207736969
-0.8315998315811157 -0.0927555188536644 -0.10868111997842789
-0.33706191182136536 -0.0355718694627285 -0.010494071058928967
0.6053390502929688 -0.010960718616843224 0.138522207736969
0.55800861120224 -0.0645267516374588 0.138522207736969
0.43887805938720703 -0.0927555188536644 -0.05821413919329643
0.5343350768089294 -0.03847922757267952 0.03284610062837601
-0.5494658350944519 0.06861117482185364 0.138522207736969
0.7097275257110596 0.008787433616816998 0.138522207736969
0.030589554458856583 0.0933518186211586 -0.0736880749464035
0.20149651169776917 -0.054684825241565704 0.138522207736969
-0.5429465174674988 -0.058053068816661835 -0.04360621050000191
-0.6648854613304138 -0.05619502067565918 -0.1406387835741043
-0.8109287023544312 -0.03881711885333061 -0.019534680992364883
0.9144896268844604 0.0933518186211586 -0.06358107924461365
-0.9079470038414001 -0.008009808138012886 0.016283396631479263
-0.8502930998802185 -0.03124181739985943 0.04986312985420227
-0.16976408660411835 0.0933518186211586 0.06700941175222397
0.2432222217321396 0.07702470570802689 -0.028158975765109062
-0.36742103099823 0.0933518186211586 -0.07006391137838364
0.9422375559806824 0.0933518186211586 0.009201477281749249
0.024529675021767616 0.07833674550056458 0.0449092872440815
-0.3682718276977539 0.0730477049946785 0.138522207736969
0.3335365951061249 -0.017008351162075996 -0.1406387835741043
-0.8186456561088562 -0.0927555188536644 -0.05735073611140251
0.029870737344026566 -0.05963006988167763 0.04193471744656563
0.7275192737579346 0.0933518186211586 -0.05626528337597847
0.9597293734550476 0.0933518186211586 0.04936126992106438
0.09486062824726105 -0.09136790037155151 0.138522207736969
-0.0886712372303009 0.0933518186211586 0.10842335969209671
0.41741079092025757 0.03623818978667259 -0.1406387835741043
0.5257040858268738 0.06158893182873726 -0.020623167976737022
0.8555221557617188 0.07677125930786133 -0.052612628787755966
0.7492305636405945 -0.0927555188536644 -0.07366175949573517
0.1053595244884491 -0.059284504503011703 -0.1406387835741043
0.4006812572479248 0.0933518186211586 -0.0967179611325264
0.5247483849525452 -0.0927555188536644 -0.13828395307064056
-0.3452027142047882 -0.050575703382492065 0.138522207736969
0.6058066487312317 0.059881504625082016 0.0399400033056736
0.36442872881889343 -0.0466628223657608 0.138522207736969
-0.312519907951355 0.0850495770573616 0.138522207736969
-0.8670271039009094 0.016395537182688713 -0.1402088701725006
0.042521677911281586 0.06337273120880127 -0.031120827421545982
0.01124616526067257 0.0933518186211586 -0.13335710763931274
-0.002623980399221182 -0.0927555188536644 0.05430711805820465
0.4078492522239685 0.0933518186211586 -0.1301109790802002
0.35921552777290344 0.0933518186211586 0.06599995493888855
-0.8101592063903809 -0.010929533280432224 -0.01763204112648964
-0.8390186429023743 -0.005415294319391251 -0.1406387835741043
-0.3381984233856201 0.0933518186211586 -0.09436644613742828
-0.06472316384315491 0.0933518186211586 -0.11393727362155914
0.581127405166626 0.06836627423763275 0.05001167580485344
-0.24167223274707794 0.07929717749357224 -0.027882417663931847
0.853452205657959 -0.0927555188536644 0.1301417052745819
-0.6895473003387451 0.0073027159087359905 0.138522207736969
0.030279166996479034 -0.0927555188536644 -0.06016238033771515
0.9193634390830994 -0.0927555188536644 -0.050002485513687134
-0.6235221028327942 -0.08561860024929047 -0.1406387835741043
-0.7316731810569763 0.0933518186211586 -0.09998193383216858
0.6779104471206665 0.03819557651877403 0.138522207736969
0.07744982093572617 -0.0927555188536644 -0.12384677678346634
-0.5226674675941467 -0.0720948800444603 -0.015521044842898846
-0.4132859408855438 0.0933518186211586 0.07109423726797104
-0.4248490035533905 -0.0927555188536644 -0.1350240707397461
-0.6949706077575684 -0.07574224472045898 0.138522207736969
0.19729240238666534 0.025785813108086586 0.138522207736969
0.01996568776667118 -0.005503498949110508 0.0468127503991127
-0.33764415979385376 0.04426180571317673 -0.0004583145200740546
0.14570321142673492 0.027548080310225487 -0.1406387835741043
0.5228738784790039 0.029291270300745964 -0.010725549422204494
