0.15673591196537018 -0.08937888592481613 0.7869463562965393
0.09743437170982361 -0.45272064208984375 -0.32529130578041077
0.14497216045856476 0.08961395919322968 0.9817290902137756
0.21011492609977722 -0.15819421410560608 -0.25128984451293945
0.11663772165775299 0.15707054734230042 0.4779690206050873
0.18859784305095673 0.4606925845146179 -0.36841142177581787
-0.21928468346595764 -0.1010490357875824 -0.38291260600090027
-0.06610338389873505 -0.20313629508018494 0.14138445258140564
0.17399072647094727 0.09936942160129547 0.37615254521369934
0.21021084487438202 0.0338834784924984 0.12283283472061157
0.4284187853336334 -0.4047764241695404 -0.38291260600090027
-0.12393607944250107 0.10101664811372757 -0.38291260600090027
0.08329083770513535 -0.17812807857990265 0.46985572576522827
0.4323153495788574 0.4583137631416321 -0.32529130578041077
-0.09855510294437408 -0.1259564459323883 -0.38291260600090027
0.3037768602371216 -0.19152037799358368 -0.38291260600090027
-0.3888151943683624 0.2771178185939789 -0.32529130578041077
-0.03773031011223793 0.058867715299129486 -0.38291260600090027
0.19519078731536865 0.4038206934928894 -0.32529130578041077
-0.3321029543876648 -0.3460058569908142 -0.28620874881744385
0.01183976698666811 -0.20754888653755188 0.25065603852272034
-0.24844586849212646 -0.00306109432131052 -0.38291260600090027
0.2998517155647278 0.02298678644001484 -0.2663732171058655
0.30902299284935 -0.4111049771308899 -0.32529130578041077
0.20930001139640808 0.45392346382141113 -0.38291260600090027
0.09817686676979065 0.17895783483982086 0.3073054850101471
0.0907960757613182 -0.14434155821800232 0.9969543218612671
-0.17059189081192017 0.18389953672885895 -0.38291260600090027
-0.18766601383686066 0.08138251304626465 0.3306353688240051
-0.22685566544532776 -0.19334676861763 -0.38291260600090027
0.32432907819747925 -0.0652066022157669 -0.38291260600090027
0.209207221865654 0.057888660579919815 -0.38291260600090027
-0.0790862962603569 -0.24718832969665527 -0.24734732508659363
0.304328054189682 -0.38410302996635437 -0.32529130578041077
-0.21775421500205994 0.42879706621170044 -0.38291260600090027
0.09613985568284988 0.157455712556839 0.7050068378448486
0.21295474469661713 0.041585523635149 0.03959376737475395
0.09858541190624237 0.14729484915733337 0.8493000864982605
-0.21407990157604218 0.031088026240468025 0.09698668122291565
0.11369271576404572 0.18917599320411682 -0.028963131830096245
0.428972452878952 -0.25891149044036865 -0.32529130578041077
-0.3148092031478882 0.3785999119281769 -0.38291260600090027
-0.023380471393465996 0.18235859274864197 0.730294406414032
6.173226574901491e-05 -0.19865047931671143 0.43734118342399597
-0.1989794373512268 -0.01139186229556799 0.4415498673915863
-0.4620343744754791 -0.29337602853775024 -0.3344046473503113
0.19296817481517792 -0.014258264563977718 0.5179126262664795
-0.08708366006612778 -0.19964972138404846 0.057612303644418716
-0.277004599571228 0.20302292704582214 -0.2676699459552765
-0.2110280990600586 0.34544992446899414 -0.2729429304599762
0.12230253964662552 -0.23215237259864807 -0.38291260600090027
-0.29400864243507385 -0.4612484872341156 -0.3289724588394165
-0.37367963790893555 -0.06997357308864594 -0.38291260600090027
-0.22084619104862213 0.3907463252544403 -0.38291260600090027
0.1199064552783966 -0.13073395192623138 0.854064404964447
-0.19597236812114716 0.12177401036024094 -0.20165583491325378
0.2417965829372406 0.4002605378627777 -0.32529130578041077
-0.005921804811805487 -0.39155688881874084 -0.32529130578041077
0.021338919177651405 0.17825481295585632 0.8136997818946838
0.3178362548351288 0.04144202545285225 -0.2676699459552765
0.14671795070171356 0.16622662544250488 -0.051655061542987823
0.15927907824516296 -0.4612484872341156 -0.33095940947532654
0.2255159616470337 0.4272364377975464 -0.32529130578041077
0.09302134066820145 -0.3460058569908142 -0.32470962405204773
-0.2434166818857193 0.07466629892587662 -0.38291260600090027
-0.18909752368927002 -0.03629947453737259 0.5794510245323181
0.07384904474020004 0.16173623502254486 -0.38291260600090027
0.344664067029953 0.1797579973936081 -0.3136942386627197
0.013924538157880306 -0.34232065081596375 -0.38291260600090027
0.14450538158416748 -0.17127524316310883 -0.09051463752985
-0.11564068496227264 -0.15557068586349487 0.546612024307251
0.1879441887140274 -0.08218703418970108 0.2838139235973358
0.08441866934299469 0.18086408078670502 0.4004267454147339
0.1692490130662918 0.11302424967288971 0.3130626380443573
-0.07599249482154846 -0.15862621366977692 0.909588634967804
0.13843749463558197 0.31178000569343567 -0.38291260600090027
-0.34679171442985535 -0.004983329679816961 -0.3085518777370453
-0.3534570634365082 -0.24892999231815338 -0.32529130578041077
-0.15018495917320251 0.11836544424295425 0.596156656742096
-0.45644187927246094 -0.4612484872341156 -0.3573450744152069
-0.03780656307935715 0.3730655908584595 -0.32529130578041077
-0.045980602502822876 0.44396498799324036 -0.38291260600090027
-0.018107352778315544 -0.19213718175888062 0.5566300749778748
0.03615008294582367 0.2740967273712158 -0.38291260600090027
0.27094683051109314 0.34544992446899414 -0.3143533170223236
-0.1632620394229889 0.18504220247268677 -0.23519518971443176
-0.02040998265147209 -0.189742311835289 0.6007016897201538
0.009769747965037823 0.3111445903778076 -0.38291260600090027
-0.22408771514892578 -0.1845628172159195 -0.26370954513549805
-0.4620343744754791 0.3814261555671692 -0.35286596417427063
-0.0043060253374278545 -0.17702555656433105 0.8767421841621399
-0.20897486805915833 0.3404616415500641 -0.2676699459552765
0.20772208273410797 0.09565002471208572 -0.19680409133434296
-0.2360290288925171 0.4606925845146179 -0.37831294536590576
0.21593014895915985 0.2162388116121292 -0.2668991684913635
0.15259823203086853 0.08008261770009995 0.9449597597122192
0.25718703866004944 -0.3460058569908142 -0.2872077524662018
-0.3715510964393616 0.1023651659488678 -0.32529130578041077
-0.3187001645565033 -0.2922414541244507 -0.2676699459552765
0.13669024407863617 -0.11111976951360703 0.8733626008033752
0.010907582938671112 -0.18123310804367065 0.7840295433998108
0.11161519587039948 0.14486576616764069 0.7362954616546631
-0.1311884969472885 -0.16613782942295074 0.18768854439258575
-0.20284567773342133 -0.3715496063232422 -0.32529130578041077
-0.15334200859069824 0.16758228838443756 -0.13364660739898682
0.18484671413898468 -0.0195871964097023 -0.38291260600090027
-0.25304049253463745 -0.3893101215362549 -0.38291260600090027
-0.4620343744754791 0.1380431354045868 -0.3755492568016052
-0.12320232391357422 0.19068560004234314 -0.13569602370262146
0.42562246322631836 0.19046498835086823 -0.38291260600090027
-0.21081580221652985 -0.08713924884796143 -0.14195825159549713
-0.18197710812091827 0.07995608448982239 0.44915327429771423
-0.08972212672233582 0.29719749093055725 -0.38291260600090027
0.39259761571884155 0.015402352437376976 -0.32529130578041077
0.16560949385166168 -0.3281562030315399 -0.38291260600090027
-0.13013333082199097 0.1646212935447693 0.21498318016529083
-0.17104505002498627 -0.06849939376115799 0.7447088360786438
0.1276857554912567 0.2237788587808609 -0.38291260600090027
0.19124272465705872 -0.051454443484544754 0.4258171617984772
-0.1647588014602661 -0.10790279507637024 0.4902052879333496
-0.16256080567836761 0.14067672193050385 0.11386359483003616
0.40164199471473694 -0.004214235581457615 -0.38291260600090027
-0.2765502333641052 0.19891485571861267 -0.38291260600090027
-0.3154807388782501 0.4606925845146179 -0.3411717414855957
0.058365918695926666 0.17908552289009094 0.6305551528930664
0.07577760517597198 0.21011461317539215 -0.07978904992341995
-0.20640787482261658 0.2540724277496338 -0.2676699459552765
-0.2360113114118576 0.39503467082977295 -0.32529130578041077
-0.03651874139904976 -0.1762133538722992 0.8215264678001404
0.07757999747991562 -0.25372153520584106 -0.38291260600090027
0.4599066972732544 -0.22215329110622406 -0.37800711393356323
0.03699866309762001 -0.3460058569908142 -0.2686729431152344
0.4599066972732544 0.34356820583343506 -0.3375040888786316
0.16706636548042297 -0.1134273037314415 0.35203224420547485
0.20372363924980164 -0.370479017496109 -0.32529130578041077
0.11711351573467255 -0.4291359782218933 -0.38291260600090027
0.1403520703315735 0.3735142946243286 -0.38291260600090027
0.14288905262947083 0.13383111357688904 0.4716607630252838
0.08760678023099899 0.4606925845146179 -0.3692672848701477
0.21813549101352692 0.27165597677230835 -0.2676699459552765
0.07515977323055267 0.21065004169940948 -0.08553431183099747
0.04129679501056671 -0.02996291033923626 0.9999989867210388
0.18676923215389252 -0.06117267534136772 -0.38291260600090027
0.005063783843070269 -0.20617374777793884 0.28509247303009033
0.17771369218826294 -0.3764139413833618 -0.38291260600090027
-0.2834099233150482 0.028913455083966255 -0.2615981996059418
0.15687598288059235 0.15837427973747253 -0.07715903967618942
0.3872182071208954 -0.17597870528697968 -0.38291260600090027
-0.3242574632167816 -0.028612256050109863 -0.2676699459552765
0.3503418564796448 -0.36760058999061584 -0.38291260600090027
0.0772705003619194 0.2992641031742096 -0.26725420355796814
-0.4371996819972992 -0.04222645238041878 -0.38291260600090027
0.35987281799316406 0.17683188617229462 -0.32529130578041077
0.04298030212521553 0.4606925845146179 -0.361772745847702
-0.44409507513046265 -0.2197735607624054 -0.38291260600090027
-0.3031505048274994 0.34924158453941345 -0.38291260600090027
-0.29751893877983093 0.4376087486743927 -0.38291260600090027
-0.08490467816591263 0.11692792922258377 -0.38291260600090027
0.3108462393283844 0.19854795932769775 -0.2676699459552765
-0.3556792438030243 0.2379499077796936 -0.32529130578041077
0.18184547126293182 -0.11851240694522858 0.045735131949186325
0.321277916431427 0.3408994674682617 -0.2676699459552765
-0.16674229502677917 0.14900529384613037 -0.05985064059495926
0.0009816809324547648 0.4598991870880127 -0.38291260600090027
-0.09286408871412277 -0.1925765872001648 0.13909071683883667
-0.20335625112056732 0.04602545499801636 0.2548392415046692
0.39422184228897095 0.2874421775341034 -0.32529130578041077
0.12403029203414917 0.1220301166176796 0.9128463268280029
0.12319793552160263 -0.45741820335388184 -0.38291260600090027
-0.3096175789833069 0.05811184272170067 -0.38291260600090027
0.11888719350099564 -0.17269888520240784 0.20329584181308746
0.19403737783432007 0.004255848936736584 0.5039660930633545
-0.10233321040868759 -0.19224804639816284 0.05934629216790199
-0.24245813488960266 0.15955400466918945 -0.38291260600090027
-0.02544408291578293 -0.24644151329994202 -0.38291260600090027
-0.34679171442985535 0.32085323333740234 -0.2684430480003357
0.005956713575869799 -0.3113323748111725 -0.38291260600090027
-0.1258373111486435 0.17967547476291656 0.019862843677401543
0.025518661364912987 0.20476998388767242 0.27015647292137146
-0.15368086099624634 -0.10994558036327362 0.65003502368927
-0.42317527532577515 -0.12401732802391052 -0.38291260600090027
-0.28646454215049744 -0.12938781082630157 -0.38291260600090027
-0.26382556557655334 -0.4006351828575134 -0.38291260600090027
0.4586196839809418 0.3164513111114502 -0.38291260600090027
0.2385244369506836 0.34544992446899414 -0.31408366560935974
0.25282782316207886 0.03275534138083458 -0.24542799592018127
-0.0007871804991737008 -0.20306891202926636 0.3501531183719635
-0.1349409967660904 0.23194590210914612 -0.2540259063243866
-0.16575880348682404 0.15734581649303436 -0.16103236377239227
0.16291317343711853 -0.08845852315425873 0.6870033144950867
-0.14206983149051666 0.18167327344417572 -0.38291260600090027
-0.19811329245567322 0.010812130756676197 -0.38291260600090027
-0.28513509035110474 0.05887521058320999 -0.38291260600090027
-0.3110118508338928 -0.23925411701202393 -0.38291260600090027
0.1344614177942276 0.024423722177743912 -0.38291260600090027
0.32949569821357727 -0.2416132688522339 -0.38291260600090027
-0.004069901537150145 -0.22992417216300964 -0.19430680572986603
0.0936209037899971 -0.19264766573905945 0.11426267772912979
-0.05853631719946861 0.09628814458847046 -0.38291260600090027
0.14060820639133453 0.12070491164922714 0.6849159002304077
0.23185914754867554 0.03705083951354027 -0.22154296934604645
-0.20648162066936493 0.0015241500223055482 0.2957228720188141
0.11090896278619766 -0.1681959331035614 0.36861518025398254
-0.15179266035556793 0.1292055994272232 0.4334062337875366
-0.26465654373168945 -0.14975740015506744 -0.2665434777736664
0.015243159607052803 0.18631334602832794 0.6625333428382874
-0.12579958140850067 -0.4612484872341156 -0.34906911849975586
-0.04030178114771843 0.3868502676486969 -0.38291260600090027
0.10221254825592041 -0.2822043001651764 -0.26620039343833923
0.11785797774791718 -0.17441727221012115 -0.38291260600090027
0.05924026668071747 -0.1646215319633484 0.9119923114776611
-0.20024144649505615 0.08869384974241257 0.037859849631786346
0.05732184648513794 -0.07373224198818207 -0.38291260600090027
0.126280277967453 -0.3460058569908142 -0.2699538469314575
0.07896176725625992 0.30719587206840515 -0.38291260600090027
0.43749257922172546 -0.3035649359226227 -0.38291260600090027
-0.19873550534248352 0.017650481313467026 -0.38291260600090027
-0.4620343744754791 -0.08578719943761826 -0.3355565071105957
0.4599066972732544 -0.3140287697315216 -0.3359595239162445
-0.32006803154945374 0.4606925845146179 -0.3295305073261261
0.2774401605129242 0.3650989830493927 -0.32529130578041077
0.05859726294875145 0.17904973030090332 0.6296750903129578
-0.40688011050224304 -0.2990744709968567 -0.32529130578041077
-0.07652483880519867 0.19025176763534546 0.30590009689331055
0.10405641049146652 0.12498953193426132 0.9999989867210388
0.15171942114830017 0.12414869666099548 0.4653581976890564
-0.013645591214299202 -0.22218646109104156 -0.04456087201833725
-0.06691969931125641 -0.3460058569908142 -0.28098857402801514
0.13369102776050568 0.01999005489051342 0.9999989867210388
0.17529228329658508 0.015384192578494549 0.8712276816368103
0.025357920676469803 0.2121284306049347 0.1200394406914711
0.1755923330783844 -0.25278717279434204 -0.38291260600090027
0.3706423342227936 0.13887856900691986 -0.38291260600090027
0.1990128606557846 0.006295870058238506 0.4005368947982788
0.3697512447834015 -0.02023977041244507 -0.38291260600090027
-0.085112564265728 -0.4290313124656677 -0.32529130578041077
0.19019317626953125 0.03280961886048317 0.5251078009605408
-0.4237038791179657 0.34066256880760193 -0.32529130578041077
-0.07154963165521622 0.37983888387680054 -0.38291260600090027
-0.3268390893936157 0.44295477867126465 -0.32529130578041077
0.17239876091480255 0.06322614848613739 0.7143529653549194
-0.1687839925289154 0.10624106228351593 0.43281689286231995
0.25034084916114807 0.24686478078365326 -0.38291260600090027
0.06787757575511932 -0.4577620029449463 -0.38291260600090027
0.1084396168589592 0.295886367559433 -0.38291260600090027
-0.34133386611938477 -0.3460058569908142 -0.3243761360645294
0.25491294264793396 -0.0650840476155281 -0.2514946162700653
0.2762620151042938 -0.02974785305559635 -0.38291260600090027
-0.05856740474700928 0.17104212939739227 0.7958228588104248
-0.12975440919399261 0.14859682321548462 0.46940600872039795
-0.21710306406021118 -0.09815780073404312 -0.38291260600090027
-0.03989949822425842 0.19571363925933838 0.40977415442466736
-0.04329145327210426 -0.204618901014328 0.2294577658176422
0.16456659138202667 -0.10053488612174988 0.536402702331543
0.026804080232977867 -0.22154434025287628 -0.05996684357523918
-0.0070461188443005085 0.2882345914840698 -0.26310721039772034
0.2589181661605835 -0.4612484872341156 -0.3752177357673645
0.027096113190054893 0.12618325650691986 -0.38291260600090027
-0.12251851707696915 -0.20268161594867706 -0.22086648643016815
0.20861995220184326 -0.08671029657125473 -0.1380031257867813
-0.24669277667999268 -0.31554821133613586 -0.2676699459552765
-0.22154952585697174 -0.06951435655355453 -0.2114165872335434
-0.17115482687950134 0.14108777046203613 -0.022330818697810173
-0.34679171442985535 0.005869730841368437 -0.26839181780815125
-0.3587999641895294 -0.4612484872341156 -0.35584527254104614
0.0011076446389779449 0.018105193972587585 0.9999989867210388
-0.19097164273262024 -0.014904978685081005 0.5990428924560547
0.1764729768037796 0.010549058206379414 0.855635404586792
-0.17723315954208374 -0.1352485567331314 -0.03744051605463028
-0.058557234704494476 -0.2214190810918808 -0.17052793502807617
-0.15422998368740082 0.1088947057723999 0.6464039087295532
-0.3114847242832184 -0.22643506526947021 -0.38291260600090027
0.0075738560408353806 0.1712377667427063 0.978985071182251
0.1569679081439972 -0.06471652537584305 0.9975324273109436
0.4309573769569397 0.06907017529010773 -0.38291260600090027
0.20276013016700745 0.10555312782526016 -0.19347858428955078
-0.2613235116004944 0.43314966559410095 -0.32529130578041077
0.09615989774465561 -0.007403708063066006 -0.38291260600090027
0.03383885324001312 0.06836111843585968 -0.38291260600090027
0.19103200733661652 0.3333069086074829 -0.38291260600090027
-0.1749415099620819 -0.08704286813735962 0.520511269569397
0.10509251058101654 -0.15915325284004211 -0.38291260600090027
-0.3060078024864197 0.31954479217529297 -0.2676699459552765
0.14728067815303802 -0.10995413362979889 0.7196180820465088
-0.16096508502960205 0.10640079528093338 0.5639207363128662
-0.02463141642510891 -0.1716282218694687 0.9547886252403259
-0.18274278938770294 0.12590725719928741 -0.023237500339746475
0.04868295043706894 0.28716859221458435 -0.2642959654331207
0.20152972638607025 -0.04116453230381012 0.27083882689476013
-0.2392662614583969 0.02698333002626896 -0.38291260600090027
0.043264418840408325 -0.19956104457378387 0.32203295826911926
-0.14818312227725983 0.2000684142112732 -0.38291260600090027
0.18728020787239075 -0.08789090067148209 0.24980248510837555
0.4599066972732544 0.29260197281837463 -0.3441881239414215
0.022578980773687363 0.19771045446395874 0.4194273054599762
0.1576078236103058 -0.13657456636428833 0.21909500658512115
0.11065088212490082 0.20676842331886292 -0.38291260600090027
0.07106426358222961 0.20460781455039978 0.05782833695411682
-0.01592887006700039 0.23575295507907867 -0.38291260600090027
-0.14325089752674103 0.34544992446899414 -0.28411591053009033
0.13789156079292297 0.17011050879955292 -0.38291260600090027
0.4214007556438446 -0.1299075037240982 -0.32529130578041077
0.10145740956068039 0.1475343555212021 0.8143919706344604
0.08828234672546387 -0.18680261075496674 0.26784515380859375
-0.019891561940312386 0.20840665698051453 0.21158374845981598
0.150020033121109 0.17378774285316467 -0.2103937864303589
-0.1669885516166687 -0.07658617198467255 0.7574566006660461
0.4599066972732544 0.19258682429790497 -0.3804483413696289
-0.024989161640405655 0.20181810855865479 0.3343574106693268
-0.07213333249092102 0.14842575788497925 0.9999989867210388
-0.18353280425071716 0.3851086497306824 -0.38291260600090027
-0.16159984469413757 -0.1514897644519806 -0.008668634109199047
0.19402801990509033 -0.04865935817360878 0.38620737195014954
-0.27237847447395325 -0.32129573822021484 -0.2676699459552765
0.012119775637984276 0.26873746514320374 -0.25484222173690796
-0.4620343744754791 -0.1950598806142807 -0.33157244324684143
0.08733835071325302 0.1756555736064911 0.46907153725624084
-0.04460487514734268 0.26204028725624084 -0.38291260600090027
0.15729479491710663 0.1528412103652954 -0.005787489470094442
0.3959900736808777 0.15158863365650177 -0.38291260600090027
0.11962570995092392 0.3121342062950134 -0.2676699459552765
-0.00043508067028596997 0.12014490365982056 0.9999989867210388
-0.3577982187271118 -0.3001500070095062 -0.32529130578041077
-0.16706928610801697 -0.14551323652267456 -0.012222149409353733
-0.060481999069452286 0.1820710301399231 0.5718519687652588
0.344664067029953 -0.11380529403686523 -0.2790573537349701
0.012608969584107399 0.4503035843372345 -0.38291260600090027
0.4241286516189575 0.029460474848747253 -0.38291260600090027
0.11794238537549973 0.16273848712444305 0.3701413869857788
0.07857695966959 -0.16146740317344666 0.8154982328414917
-0.08795015513896942 -0.2041693478822708 -0.031228745356202126
0.362571656703949 -0.23235435783863068 -0.38291260600090027
-0.4620343744754791 -0.2720479667186737 -0.3429904580116272
-0.058354780077934265 -0.1483023762702942 -0.38291260600090027
0.12706294655799866 -0.16373774409294128 0.2513579726219177
-0.3558605909347534 -0.298606812953949 -0.32529130578041077
-0.4620343744754791 0.3736305832862854 -0.3334680199623108
-0.12271298468112946 -0.15438301861286163 0.4794214069843292
0.21703378856182098 0.022147856652736664 0.017385177314281464
0.2172914445400238 0.303799569606781 -0.2676699459552765
-0.1554303765296936 -0.1420123130083084 0.21348510682582855
0.1071821078658104 -0.19733107089996338 -0.38291260600090027
0.1445116549730301 -0.1368885636329651 0.4146001636981964
0.1953859180212021 0.09029802680015564 0.07418841123580933
0.34537768363952637 0.041932959109544754 -0.32529130578041077
0.014199056662619114 0.10326825827360153 -0.38291260600090027
-0.17019130289554596 -0.12231816351413727 0.23162336647510529
0.17929120361804962 0.10409923642873764 0.23683202266693115
-0.08223883807659149 0.1931602954864502 0.20568950474262238
-0.006233827210962772 0.35292667150497437 -0.38291260600090027
0.03896680474281311 -0.22093497216701508 -0.08548927307128906
0.39661717414855957 -0.06586679816246033 -0.38291260600090027
0.24767936766147614 -0.07778982818126678 -0.2488783895969391
0.23133298754692078 0.4606925845146179 -0.35770878195762634
-0.23072437942028046 -0.0026622414588928223 -0.1951650232076645
-0.2660727798938751 -0.3460058569908142 -0.27797701954841614
0.023241357877850533 -0.39715588092803955 -0.32529130578041077
0.2968986928462982 -0.019583791494369507 -0.38291260600090027
0.10661076754331589 0.18148493766784668 0.17868982255458832
0.0006946265930309892 0.21879439055919647 -0.38291260600090027
0.0066587068140506744 -0.17163386940956116 0.9821476340293884
0.28019624948501587 -0.43386805057525635 -0.32529130578041077
0.3263471722602844 -0.12102873623371124 -0.38291260600090027
0.014267552644014359 0.34619730710983276 -0.38291260600090027
0.04420918598771095 -0.22052660584449768 -0.09731440246105194
0.10915344953536987 -0.40642666816711426 -0.32529130578041077
-0.07884611934423447 0.19303126633167267 0.23721909523010254
0.11957665532827377 -0.2967481315135956 -0.2676699459552765
0.1297062635421753 -0.30802345275878906 -0.38291260600090027
0.15048201382160187 0.1192418709397316 0.5478150844573975
0.06628594547510147 0.16875684261322021 0.771094799041748
-0.45329105854034424 0.06904256343841553 -0.38291260600090027
0.1813807636499405 0.008049285039305687 0.7583281993865967
0.17639942467212677 -0.003399416571483016 0.862470269203186
0.17184123396873474 0.08752191811800003 0.5297874212265015
0.34394076466560364 0.04380889981985092 -0.38291260600090027
0.4599066972732544 -0.14312101900577545 -0.3406115472316742
-0.042004361748695374 -0.21406643092632294 0.047498442232608795
-0.17469558119773865 0.10087352246046066 0.38698968291282654
0.0044600823894143105 -0.2996121346950531 -0.38291260600090027
0.19179610908031464 -0.04260026291012764 0.4585496485233307
0.2133897840976715 0.0473567396402359 -0.38291260600090027
0.24780592322349548 -0.4612484872341156 -0.37027767300605774
0.1975579708814621 -0.05365385860204697 0.2920340597629547
-0.42295119166374207 -0.39915332198143005 -0.38291260600090027
-0.20504425466060638 -0.08679178357124329 -0.02993520349264145
0.1110277995467186 0.17749106884002686 -0.38291260600090027
-0.06072511151432991 -0.4321279525756836 -0.32529130578041077
-0.18602138757705688 0.10390898585319519 0.15621715784072876
-0.08695875853300095 0.2026853859424591 -0.007213471457362175
-0.10962316393852234 -0.2948664128780365 -0.38291260600090027
-0.30183371901512146 -0.31397417187690735 -0.38291260600090027
0.2124250829219818 -0.39250504970550537 -0.32529130578041077
-0.3697136640548706 0.2793461084365845 -0.38291260600090027
-0.27668964862823486 -0.13657942414283752 -0.26683053374290466
0.3039327561855316 0.1896280199289322 -0.38291260600090027
0.19321921467781067 0.0717882513999939 0.259415864944458
0.32583969831466675 0.3939233124256134 -0.38291260600090027
0.17499646544456482 0.13127568364143372 0.005718328058719635
-0.21946881711483002 -0.06151989847421646 -0.13751806318759918
0.4599066972732544 0.17750857770442963 -0.37422895431518555
-0.16790366172790527 -0.20664645731449127 -0.38291260600090027
-0.2545168399810791 -0.3473251461982727 -0.38291260600090027
0.23134420812129974 -0.12607711553573608 -0.2515953779220581
0.24860519170761108 -0.08933898061513901 -0.25211286544799805
-0.25774121284484863 -0.4138599634170532 -0.38291260600090027
-0.38399866223335266 -0.20910927653312683 -0.38291260600090027
0.024780385196208954 0.2051195353269577 0.2647660970687866
-0.43992096185684204 -0.08187941461801529 -0.32529130578041077
0.17110994458198547 0.015628300607204437 0.9550145864486694
-0.3362676501274109 0.3633938133716583 -0.38291260600090027
0.42036694288253784 0.42848753929138184 -0.38291260600090027
0.04373243451118469 -0.1657191514968872 0.9846622347831726
-0.028845852240920067 -0.4612484872341156 -0.3303164839744568
-0.2568586766719818 0.13629864156246185 -0.38291260600090027
-0.34679171442985535 0.29047486186027527 -0.307189017534256
0.17056098580360413 -0.1320948302745819 0.07258474826812744
0.3122299313545227 -0.45801016688346863 -0.32529130578041077
-0.15358485281467438 -0.09211242944002151 0.8519668579101562
-0.011536448262631893 -0.18125110864639282 0.7841125726699829
0.15736764669418335 -0.110289566218853 -0.38291260600090027
-0.4597415328025818 -0.39824095368385315 -0.38291260600090027
0.08547341823577881 0.21262329816818237 -0.19807268679141998
-0.08646521717309952 0.2088513821363449 -0.118528351187706
0.15151552855968475 0.13755156099796295 0.2922579348087311
0.11614387482404709 0.4055028557777405 -0.32529130578041077
0.1489223837852478 -0.08379197120666504 0.9815307855606079
0.032333098351955414 -0.05451948195695877 -0.38291260600090027
0.32567334175109863 0.16209188103675842 -0.2676699459552765
-0.06202782317996025 0.21608883142471313 -0.09566667675971985
-0.19476580619812012 -0.12349443137645721 -0.19207003712654114
-0.24325419962406158 0.08337236940860748 -0.2454945147037506
0.3584982454776764 0.27435120940208435 -0.32529130578041077
0.4029654264450073 0.4606925845146179 -0.34263306856155396
-0.07049913704395294 0.2753120958805084 -0.2617737948894501
-0.4302423298358917 0.2824881374835968 -0.38291260600090027
-0.2761692702770233 -0.4612484872341156 -0.36906346678733826
-0.3850470781326294 0.05678172409534454 -0.32529130578041077
0.3174595534801483 -0.4464309811592102 -0.38291260600090027
-0.1914876401424408 0.031446512788534164 0.5468127727508545
-0.049322523176670074 0.2519809305667877 -0.38291260600090027
-0.4296233355998993 0.37230485677719116 -0.32529130578041077
0.30733081698417664 -0.3917582929134369 -0.32529130578041077
-0.059530019760131836 -0.45578551292419434 -0.38291260600090027
-0.1909322440624237 -0.03673410415649414 0.5424007177352905
-0.14977087080478668 -0.0991208553314209 0.8411911725997925
0.18397724628448486 -0.0870082899928093 0.3191838264465332
-0.08083309233188629 -0.08815450221300125 0.9999989867210388
-0.2473791390657425 0.4606925845146179 -0.34227705001831055
-0.17068207263946533 -0.19411422312259674 -0.2465611845254898
0.2035934329032898 -0.10418719798326492 -0.1914965957403183
-0.33948495984077454 -0.01880999654531479 -0.38291260600090027
-0.4429321885108948 -0.16895587742328644 -0.38291260600090027
-0.07525280117988586 -0.3460058569908142 -0.2950597405433655
-0.4620343744754791 0.14652785658836365 -0.3683648109436035
-0.15297408401966095 0.0780661553144455 0.9952268600463867
-0.15522688627243042 -0.10295064002275467 0.7055962681770325
0.14656877517700195 -0.10690852999687195 0.7695765495300293
-0.3124101161956787 -0.07124534249305725 -0.2676699459552765
-0.22088980674743652 0.023500189185142517 -0.02202710323035717
-0.2080797255039215 -0.11364716291427612 -0.38291260600090027
0.4209636151790619 -0.43123653531074524 -0.32529130578041077
0.30455929040908813 -0.24812038242816925 -0.38291260600090027
-0.16344903409481049 -0.12515711784362793 0.3082394003868103
-0.15501165390014648 0.0881667360663414 0.8609816431999207
0.18760298192501068 0.1258363276720047 -0.1390576809644699
0.11266645044088364 -0.05560063570737839 0.9999989867210388
0.344664067029953 -0.20098751783370972 -0.2676878571510315
0.20390918850898743 -0.0639314204454422 0.11042178422212601
-0.18210497498512268 -0.02928200177848339 0.7421488761901855
-0.006006643176078796 0.20587588846683502 0.279984712600708
-0.22592614591121674 -0.0281694233417511 -0.13296175003051758
-0.1333795189857483 -0.18233680725097656 -0.1006932258605957
-0.20465603470802307 -0.07799141108989716 0.04330042377114296
-0.18698780238628387 -0.07628820836544037 0.38891464471817017
-0.17638090252876282 0.13148270547389984 0.015014124102890491
0.09217613935470581 -0.1834031343460083 0.29461905360221863
0.3810194730758667 0.03567224368453026 -0.38291260600090027
-0.0062211547046899796 -0.25943154096603394 -0.24808917939662933
-0.354128360748291 -0.3687404692173004 -0.38291260600090027
0.030715474858880043 0.17085087299346924 0.9315663576126099
-0.1542503535747528 -0.11554595082998276 -0.38291260600090027
0.43014398217201233 0.006842883303761482 -0.38291260600090027
0.09432311356067657 -0.15381444990634918 0.7972145080566406
0.21134226024150848 -0.09648582339286804 -0.21565638482570648
0.3294820487499237 0.037915609776973724 -0.2676699459552765
-0.4004064202308655 -0.447371244430542 -0.32529130578041077
-0.060264553874731064 0.1968696266412735 0.28904590010643005
0.3311046063899994 -0.06300527602434158 -0.2676699459552765
0.1622040867805481 0.15943489968776703 -0.38291260600090027
0.16729635000228882 -0.07560232281684875 0.7211347222328186
-0.19175556302070618 0.3652993142604828 -0.32529130578041077
-0.21070639789104462 -0.028232261538505554 0.1733381748199463
0.019641969352960587 -0.0029402703512459993 -0.38291260600090027
0.08054615557193756 -0.1668132096529007 0.6993014812469482
0.4391595721244812 0.2984407842159271 -0.38291260600090027
-0.41949138045310974 -0.15297433733940125 -0.32529130578041077
0.22366496920585632 -0.036697208881378174 -0.15526090562343597
-0.4175946116447449 -0.14124268293380737 -0.38291260600090027
-0.3156071603298187 -0.2009342759847641 -0.38291260600090027
-0.4620343744754791 -0.3236212134361267 -0.32869720458984375
-0.08505000174045563 0.17282967269420624 0.5601863265037537
-0.20313264429569244 0.0291412565857172 0.3195716440677643
-0.37118440866470337 0.267954558134079 -0.38291260600090027
-0.007061635609716177 -0.17333784699440002 0.9505458474159241
-0.32171422243118286 0.10311637073755264 -0.2676699459552765
0.44321268796920776 0.3500071167945862 -0.32529130578041077
0.344664067029953 -0.3153573274612427 -0.2689377963542938
0.0921933725476265 -0.16172672808170319 0.6800093054771423
0.21497584879398346 -0.380764901638031 -0.38291260600090027
0.2950933873653412 -0.03956761211156845 -0.26591530442237854
-0.34679171442985535 0.29364585876464844 -0.3189982771873474
0.3180689215660095 0.4124278426170349 -0.38291260600090027
-0.0059199584648013115 0.21784330904483795 0.03736588731408119
0.10770896077156067 -0.18067567050457 0.18976111710071564
0.04476364329457283 0.18780764937400818 0.5367178320884705
0.21798034012317657 -0.09573672711849213 -0.38291260600090027
0.11994408816099167 -0.15325617790222168 0.5060968995094299
0.027477417141199112 0.16972345113754272 0.9646448493003845
0.17667201161384583 -0.06810278445482254 0.603190541267395
0.15883727371692657 0.16330398619174957 -0.17579427361488342
0.05708957090973854 -0.16673026978969574 0.887016773223877
0.023884901776909828 -0.0798511877655983 -0.38291260600090027
-0.27942579984664917 0.4405135214328766 -0.32529130578041077
0.44934728741645813 0.2533012628555298 -0.32529130578041077
0.015572569333016872 0.3264116942882538 -0.2676699459552765
0.344664067029953 -0.30230072140693665 -0.28115567564964294
-0.10691804438829422 -0.19446440041065216 -0.02279951237142086
-0.0939590334892273 -0.17081741988658905 0.5240374803543091
0.19115573167800903 -0.05826210603117943 0.3902362585067749
0.03582281991839409 -0.39547234773635864 -0.38291260600090027
0.08654274046421051 0.18132594227790833 0.3730778694152832
-0.15092599391937256 -0.15603545308113098 0.07793501019477844
-0.18086011707782745 0.042264971882104874 0.7151964902877808
0.4487709403038025 -0.10949874669313431 -0.38291260600090027
-0.06749870628118515 0.21968287229537964 -0.19709937274456024
0.41541239619255066 0.16460508108139038 -0.32529130578041077
0.20474551618099213 0.2994855046272278 -0.38291260600090027
0.1130000650882721 -0.19525127112865448 -0.11845134943723679
-0.1870475709438324 0.060126565396785736 0.49622946977615356
-0.08765802532434464 -0.16343823075294495 0.7153032422065735
0.036394115537405014 0.2025976926088333 0.27923333644866943
-0.15016056597232819 0.14802655577659607 0.19635382294654846
-0.3302263915538788 -0.012709012255072594 -0.2676699459552765
-0.02014513686299324 -0.007788242772221565 -0.38291260600090027
-0.015749800950288773 -0.17350460588932037 0.9343850016593933
0.21524858474731445 -0.008277391083538532 0.07138054817914963
-0.18853461742401123 0.09067106992006302 0.23639316856861115
0.22708329558372498 0.0071251424960792065 -0.16754895448684692
0.03470347449183464 -0.17854581773281097 0.7736841440200806
-0.37949028611183167 -0.05733877792954445 -0.32529130578041077
-0.22585785388946533 -0.4569004476070404 -0.32529130578041077
0.09410738945007324 0.1501406580209732 0.850413978099823
-0.18376296758651733 -0.1020735502243042 0.2208317369222641
0.03555615246295929 0.1946319043636322 0.44057682156562805
0.054489459842443466 -0.1804662048816681 0.6379884481430054
0.14472609758377075 -0.09205097705125809 0.9664296507835388
-0.30978867411613464 -0.06925676017999649 -0.2676699459552765
0.07990703731775284 0.1553679257631302 0.9028564691543579
-0.024441594257950783 0.22260217368602753 -0.08158458769321442
0.4599066972732544 0.09665226191282272 -0.37662747502326965
-0.04114317148923874 -0.22401978075504303 -0.14658553898334503
-0.18545743823051453 -0.06481080502271652 0.5010335445404053
0.16567566990852356 -0.13882601261138916 0.066351518034935
0.27202799916267395 -0.029176216572523117 -0.38291260600090027
0.2002103328704834 -0.0961487740278244 -0.05870414152741432
-0.09625960141420364 -0.1712564080953598 0.4932085871696472
-0.004027089104056358 -0.034106746315956116 0.9999989867210388
-0.2111915796995163 -0.4612484872341156 -0.3637724816799164
0.29703667759895325 0.4484262764453888 -0.32529130578041077
0.16416338086128235 0.11449915170669556 0.3822058141231537
0.21144701540470123 0.015735026448965073 0.14164918661117554
0.28145071864128113 0.25405025482177734 -0.2676699459552765
-0.13082359731197357 0.23491473495960236 -0.25443607568740845
-0.07715609669685364 -0.05651167035102844 0.9999989867210388
0.03832938149571419 0.25610974431037903 -0.24807332456111908
0.3338266611099243 0.016680585220456123 -0.2676699459552765
-0.17056682705879211 -0.2301826775074005 -0.2625073194503784
-0.2893899977207184 0.34544992446899414 -0.3116730749607086
0.2424342930316925 0.2724718153476715 -0.38291260600090027
-0.34679171442985535 -0.15835319459438324 -0.2990218698978424
0.16013570129871368 -0.31749603152275085 -0.2676699459552765
-0.4010820686817169 0.35410284996032715 -0.38291260600090027
0.05152031406760216 0.34544992446899414 -0.3221701383590698
0.08454451709985733 -0.3460058569908142 -0.2887037396430969
0.016893886029720306 0.07268888503313065 -0.38291260600090027
-0.13702818751335144 -0.030692631378769875 -0.38291260600090027
0.27867987751960754 0.04879756644368172 -0.38291260600090027
0.18772496283054352 0.06162096932530403 0.4333617389202118
0.19250836968421936 0.011705534532666206 0.5293793082237244
-0.17974913120269775 0.06898583471775055 0.5745815634727478
0.17603586614131927 0.03387872502207756 0.8049952387809753
0.1371578574180603 -0.1696689873933792 0.029013151302933693
-0.35147759318351746 0.2796829044818878 -0.38291260600090027
0.03958572819828987 0.15495553612709045 -0.38291260600090027
-0.024760300293564796 -0.13122740387916565 0.9999989867210388
-0.06517508625984192 -0.4612484872341156 -0.3622815012931824
-0.22611671686172485 0.04303861781954765 -0.18439257144927979
0.08670060336589813 0.41618362069129944 -0.32529130578041077
0.4589332342147827 0.3994814455509186 -0.32529130578041077
-0.0036689701955765486 -0.21548128128051758 0.0981372594833374
-0.36354267597198486 0.27847298979759216 -0.32529130578041077
-0.16286879777908325 0.10964008420705795 0.495858758687973
0.17524807155132294 -0.08025696128606796 0.5354866981506348
-0.40069884061813354 0.2600223422050476 -0.38291260600090027
0.45327869057655334 -0.11769402772188187 -0.32529130578041077
-0.29270580410957336 -0.04832246154546738 -0.265102744102478
-0.1235649436712265 -0.15228234231472015 0.5038661360740662
-0.21937721967697144 -0.003412793157622218 0.03425610810518265
0.3216239809989929 0.3233223855495453 -0.2676699459552765
-0.31940630078315735 0.29370057582855225 -0.2676699459552765
-0.09842222183942795 -0.009879211895167828 0.9999989867210388
-0.42075279355049133 0.03877675533294678 -0.32529130578041077
-0.1965843141078949 -0.3590211570262909 -0.32529130578041077
-0.13718745112419128 0.1287197470664978 0.6567287445068359
0.09560459107160568 -0.30330222845077515 -0.38291260600090027
-0.09299466758966446 0.16328983008861542 0.6559528112411499
0.0799160823225975 -0.3167674243450165 -0.2676699459552765
0.06637478619813919 0.19841927289962769 0.20755499601364136
-0.23757396638393402 -0.14034686982631683 -0.25762826204299927
-0.044813383370637894 0.20151275396347046 0.27507781982421875
-0.11702195554971695 0.14872336387634277 0.6319227814674377
-0.41775864362716675 0.2968566417694092 -0.32529130578041077
-0.08862842619419098 -0.16394807398319244 0.6964748501777649
-0.3852714002132416 0.2535155117511749 -0.32529130578041077
-0.4620343744754791 -0.3157654106616974 -0.3467472195625305
0.17450128495693207 0.061819180846214294 0.6853779554367065
0.3692411780357361 0.2573295533657074 -0.32529130578041077
-0.0003709544544108212 -0.44436800479888916 -0.38291260600090027
-0.289972186088562 0.18198277056217194 -0.38291260600090027
0.2036394476890564 0.4606925845146179 -0.3262385427951813
0.18005941808223724 -0.14181484282016754 -0.19917769730091095
0.22361606359481812 -0.01970437541604042 -0.11044174432754517
0.344664067029953 0.296556681394577 -0.3208388090133667
-0.19475345313549042 0.028423162177205086 0.4915771782398224
0.44625383615493774 -0.17560356855392456 -0.38291260600090027
-0.11124555766582489 0.03085687942802906 0.9999989867210388
-0.2597053050994873 -0.2851466238498688 -0.2676699459552765
0.20910552144050598 0.08427780866622925 -0.13163501024246216
0.4599066972732544 -0.19259987771511078 -0.3803679943084717
0.17357341945171356 -0.11923982203006744 0.17707647383213043
-0.20059385895729065 0.01891237683594227 0.3970174193382263
-0.2615269720554352 -0.2949807643890381 -0.2676699459552765
0.339499294757843 0.046327121555805206 -0.2676699459552765
0.1943601369857788 -0.0848114863038063 0.14506489038467407
0.09127774834632874 0.16387303173542023 0.6432219743728638
-0.17308124899864197 0.037507034838199615 0.8889288902282715
0.17293865978717804 -0.03716821223497391 0.8550704717636108
-0.28109902143478394 -0.4233095645904541 -0.38291260600090027
-0.11584746837615967 -0.20256896317005157 -0.21446314454078674
0.22064554691314697 -0.22379978001117706 -0.2675742208957672
0.15155966579914093 0.01109336968511343 -0.38291260600090027
0.1646234691143036 -0.07258784770965576 0.7961708307266235
0.2503605782985687 -0.34123343229293823 -0.38291260600090027
-0.2237088680267334 -0.03559756278991699 -0.10915794223546982
0.05344359204173088 -0.2565973103046417 -0.24997639656066895
0.1280554085969925 -0.21490423381328583 -0.38291260600090027
-0.030568409711122513 -0.2134474515914917 0.09859909862279892
-0.24797770380973816 -0.43452152609825134 -0.38291260600090027
-0.04571913555264473 0.2127751260995865 0.04916583001613617
0.0766872763633728 -0.340002179145813 -0.38291260600090027
-0.4237149953842163 0.0904586985707283 -0.38291260600090027
-0.15591388940811157 0.08533138781785965 0.872685968875885
-0.13625530898571014 -0.10831567645072937 0.9509965777397156
0.3031948208808899 -0.2392662614583969 -0.2676699459552765
0.0968586802482605 -0.16324256360530853 0.605476975440979
-0.4078616201877594 -0.42217811942100525 -0.38291260600090027
-0.08136507123708725 -0.19676081836223602 0.1554841697216034
-0.17617188394069672 0.058617234230041504 0.7135217785835266
0.12487328797578812 0.1176866739988327 0.962418794631958
0.344664067029953 0.25512048602104187 -0.27181681990623474
0.368630051612854 -0.27014219760894775 -0.32529130578041077
0.20017468929290771 0.34544992446899414 -0.2896122932434082
-0.049697697162628174 0.29298239946365356 -0.38291260600090027
-0.060434017330408096 0.4200949966907501 -0.32529130578041077
0.18651507794857025 0.12926307320594788 -0.16130442917346954
-0.1375264823436737 -0.16060155630111694 0.1915963590145111
0.4599066972732544 0.34543704986572266 -0.36802977323532104
-0.34679171442985535 0.24963036179542542 -0.3013838529586792
0.09917419403791428 0.1575658768415451 0.6705686450004578
-0.07146336138248444 0.19573266804218292 0.23774448037147522
-0.16268834471702576 0.09395522624254227 0.6688814759254456
-0.09876494854688644 0.17162522673606873 0.4518800675868988
0.4248966574668884 -0.12645955383777618 -0.38291260600090027
-0.12638838589191437 0.13659325242042542 0.6970729827880859
-0.18916526436805725 -0.05794230476021767 0.47182270884513855
0.36496755480766296 0.08747100830078125 -0.38291260600090027
0.06670081615447998 -0.20294760167598724 0.12893438339233398
0.3599777817726135 0.0771004930138588 -0.32529130578041077
-0.3949936628341675 0.10814771056175232 -0.38291260600090027
0.0459279790520668 0.09434006363153458 0.9999989867210388
-0.407191663980484 -0.007871028035879135 -0.32529130578041077
0.16591422259807587 -0.05020052567124367 0.9262652397155762
-0.12736649811267853 -0.17696739733219147 0.057598769664764404
0.32858020067214966 -0.1987154185771942 -0.2676699459552765
0.3749268352985382 0.29809966683387756 -0.38291260600090027
0.010832993313670158 -0.19706977903842926 0.46399056911468506
-0.16033411026000977 0.4606925845146179 -0.3672938346862793
-0.34564757347106934 -0.07571378350257874 -0.2676699459552765
0.16244778037071228 -0.15556810796260834 -0.1105206310749054
-0.09904851764440536 -0.3460058569908142 -0.2864471673965454
0.16720567643642426 0.40761518478393555 -0.32529130578041077
0.130950465798378 -0.3793826103210449 -0.32529130578041077
-0.26406583189964294 0.31091925501823425 -0.2676699459552765
-0.17953364551067352 0.11378176510334015 0.16703487932682037
-0.44680312275886536 -0.059164803475141525 -0.38291260600090027
-0.13950760662555695 0.1353241354227066 0.5311949849128723
0.176075741648674 0.05903417617082596 0.6730816960334778
-0.15182237327098846 -0.14333124458789825 0.24747750163078308
0.05820322409272194 0.3266177475452423 -0.38291260600090027
-0.27087411284446716 0.3741527795791626 -0.32529130578041077
-0.1571865677833557 0.08706264197826385 0.8352179527282715
0.45902928709983826 -0.29159754514694214 -0.38291260600090027
-0.34679171442985535 0.10053174942731857 -0.31040340662002563
0.34779924154281616 -0.38969483971595764 -0.38291260600090027
-0.043715525418519974 0.45592981576919556 -0.38291260600090027
-0.07544423639774323 -0.26953062415122986 -0.2597178518772125
0.17702922224998474 -0.12481322139501572 0.05589032545685768
0.07540710270404816 -0.3460058569908142 -0.29174768924713135
-0.19533482193946838 0.07037454843521118 0.27148106694221497
-0.05578506365418434 -0.18562448024749756 0.5436431765556335
0.02999912016093731 0.4355085790157318 -0.38291260600090027
-0.4620343744754791 -0.2334834486246109 -0.3782871961593628
0.19103577733039856 -0.013512738980352879 0.5571328401565552
-0.1276707798242569 0.15692614018917084 0.3672322928905487
0.0670505091547966 0.18865078687667847 0.3893909454345703
0.05926474928855896 -0.2868554890155792 -0.26451385021209717
-0.14843909442424774 -0.10060854256153107 0.8464966416358948
-0.30785518884658813 0.21040552854537964 -0.2676699459552765
0.21178145706653595 0.08268167823553085 -0.16911210119724274
0.009758428670465946 0.4606925845146179 -0.33856481313705444
-0.15027400851249695 0.13573846220970154 0.3677787482738495
-0.0834542065858841 -0.3603546917438507 -0.32529130578041077
0.41749775409698486 0.4295608401298523 -0.32529130578041077
0.0162445567548275 -0.3460058569908142 -0.3161218762397766
-0.009376284666359425 0.19910910725593567 0.4153313934803009
0.21053017675876617 0.021241536363959312 0.14917059242725372
0.10281771421432495 -0.15886051952838898 0.6172173619270325
-0.30938011407852173 0.43064084649086 -0.32529130578041077
0.3666103780269623 -0.2009715735912323 -0.38291260600090027
0.35110488533973694 -0.0561053566634655 -0.38291260600090027
0.21397069096565247 -0.05968957394361496 -0.061478570103645325
-0.36764776706695557 0.1031036302447319 -0.38291260600090027
0.3093298077583313 0.225931316614151 -0.38291260600090027
-0.21485209465026855 0.08404069393873215 -0.19759000837802887
-0.3731086850166321 -0.1931985765695572 -0.38291260600090027
-0.23134174942970276 -0.27937185764312744 -0.38291260600090027
-0.0778001919388771 -0.18474961817264557 0.40969017148017883
0.0946563333272934 -0.4519803822040558 -0.32529130578041077
-0.03446133807301521 0.027125881984829903 0.9999989867210388
-0.3522306978702545 0.38920581340789795 -0.38291260600090027
-0.08793879300355911 -0.18080757558345795 -0.38291260600090027
-0.4620343744754791 0.05395590513944626 -0.3639984130859375
0.11726955324411392 0.1898583173751831 -0.07850384712219238
-0.1072646826505661 0.18070854246616364 0.20572778582572937
0.049975886940956116 0.2494887113571167 -0.2446233630180359
0.32822299003601074 0.011117628775537014 -0.38291260600090027
0.4599066972732544 0.14268845319747925 -0.3506465554237366
0.1486959010362625 -0.3447508215904236 -0.2676699459552765
0.2349206656217575 -0.08047977089881897 -0.2390052229166031
-0.2481338083744049 -0.1762978881597519 -0.26663458347320557
0.17750270664691925 0.42432117462158203 -0.38291260600090027
-0.01124987006187439 -0.20118436217308044 -0.38291260600090027
0.03847296163439751 -0.44577351212501526 -0.32529130578041077
-0.1747407466173172 -0.12038246542215347 0.17961153388023376
-0.4208618104457855 -0.46112942695617676 -0.32529130578041077
0.28913986682891846 0.44797369837760925 -0.38291260600090027
0.3619893193244934 -0.1659909039735794 -0.38291260600090027
0.1706673502922058 0.04233239218592644 0.8733094334602356
0.11926775425672531 -0.19516201317310333 -0.18236194550991058
-0.44936349987983704 -0.05533137544989586 -0.38291260600090027
0.4599066972732544 -0.1775362640619278 -0.36913788318634033
-0.34679171442985535 0.32393237948417664 -0.2680770456790924
-0.26646536588668823 0.1912321150302887 -0.2676699459552765
0.14664754271507263 0.3818902373313904 -0.32529130578041077
0.24885272979736328 0.3184347450733185 -0.38291260600090027
0.20026884973049164 -0.32674092054367065 -0.2676699459552765
0.09335042536258698 -0.41461604833602905 -0.38291260600090027
0.070256806910038 -0.35234448313713074 -0.38291260600090027
-0.24262112379074097 -0.3989301919937134 -0.32529130578041077
0.013097348622977734 -0.40786969661712646 -0.32529130578041077
-0.11001769453287125 -0.18739104270935059 0.07197621464729309
-0.016035005450248718 0.18433114886283875 0.7054322957992554
0.22462938725948334 -0.2297065556049347 -0.2676699459552765
0.12296698242425919 0.13733035326004028 0.7060391306877136
-0.07491662353277206 0.21400809288024902 -0.13437320291996002
-0.09571421146392822 0.08573339879512787 0.9999989867210388
-0.04317896068096161 0.17383557558059692 -0.38291260600090027
0.4599066972732544 0.11928034573793411 -0.32712119817733765
0.12616801261901855 -0.14465150237083435 0.5582099556922913
