0.5590089559555054 -0.3541785180568695 0.07495605200529099
0.15129408240318298 0.4278187155723572 -0.0670648068189621
-0.8134545683860779 -0.003572746878489852 -0.36711612343788147
0.4543512165546417 0.37369897961616516 0.5442793965339661
0.6337450742721558 0.1537339687347412 0.5124197602272034
-0.49804630875587463 -0.086514912545681 -0.17305684089660645
-0.6581228971481323 0.1537339687347412 0.4252672791481018
0.6610703468322754 0.4278187155723572 -0.07914149016141891
0.4730542004108429 0.1537339687347412 0.2635904550552368
0.23248495161533356 -0.3579108715057373 -0.14365561306476593
-0.6602734327316284 -0.1476735770702362 -0.17305684089660645
0.01651783101260662 0.1537339687347412 0.39611494541168213
0.46888968348503113 0.4278187155723572 0.11284460872411728
0.5569663047790527 0.2506798207759857 -0.17305684089660645
-0.999998927116394 -0.2768230438232422 -0.3168691396713257
-0.36284899711608887 0.1537339687347412 0.540532112121582
-0.7937744855880737 0.1537339687347412 0.18892379105091095
0.008155029267072678 0.32425618171691895 -0.17305684089660645
-0.694039523601532 0.2131926268339157 -0.36711612343788147
0.5569973587989807 -0.09630788117647171 -0.34924769401550293
-0.6552507877349854 -0.08110304921865463 -0.17305684089660645
0.4928932785987854 0.1537339687347412 0.5326793789863586
-0.8763062953948975 0.4278187155723572 0.08043478429317474
-0.9646117687225342 0.37553226947784424 -0.36711612343788147
0.5296139121055603 0.4278187155723572 -0.11517444252967834
0.007010531146079302 -0.5775056481361389 0.07495605200529099
0.9346042275428772 0.2378273606300354 -0.36711612343788147
0.648530125617981 -0.5774890184402466 -0.36711612343788147
-0.559465765953064 0.4278187155723572 0.131513312458992
-0.282032310962677 0.4278187155723572 0.35467877984046936
0.5466203689575195 -0.19025112688541412 -0.17305684089660645
0.15298373997211456 0.4278187155723572 0.006347059737890959
-0.25193098187446594 -0.3418806493282318 -0.07164838165044785
0.08533433079719543 0.4019615054130554 0.5442793965339661
0.9893258810043335 -0.09943040460348129 -0.21887178719043732
-0.5379517674446106 -0.06392958760261536 0.07495605200529099
-0.9707010388374329 0.4278187155723572 0.24857071042060852
0.39195331931114197 -0.45500075817108154 -0.17305684089660645
0.4156719148159027 0.4278187155723572 0.3201989531517029
-0.0007539029465988278 -0.5878875255584717 -0.17305684089660645
-0.8719136118888855 0.1537339687347412 0.07739684730768204
-0.6601750254631042 0.1537339687347412 0.10905562341213226
0.6168708801269531 0.3270450234413147 -0.36711612343788147
-0.42455345392227173 0.11133905500173569 0.07495605200529099
-0.5933951139450073 0.04070133715867996 -0.30207231640815735
0.4618529975414276 0.1537339687347412 0.5201982259750366
0.43758007884025574 0.1537339687347412 0.241242453455925
0.7723480463027954 -0.2985273003578186 -0.36711612343788147
0.21370172500610352 -0.04948737472295761 -0.007311590481549501
-0.20923800766468048 0.011999756097793579 -0.17305684089660645
-0.6180316805839539 0.22533048689365387 -0.25689229369163513
0.7205437421798706 0.4278187155723572 0.41331326961517334
-0.1897192895412445 0.2215048223733902 0.5442793965339661
0.14610077440738678 0.1537339687347412 0.42605870962142944
-0.7170157432556152 0.4278187155723572 -0.09163910895586014
-0.6820927858352661 0.4278187155723572 0.17502830922603607
0.1614096760749817 -0.5379360318183899 -0.17305684089660645
-0.4784543216228485 0.4278187155723572 0.28421199321746826
-0.29961568117141724 0.03967012092471123 0.07495605200529099
-0.14745107293128967 -0.5889472961425781 -0.005344058852642775
-0.7228754758834839 0.4278187155723572 -0.32749179005622864
-0.999998927116394 -0.24421894550323486 -0.03568746894598007
0.5744783878326416 -0.040574733167886734 0.07495605200529099
0.6791654229164124 -0.5889472961425781 -0.11106491833925247
-0.26436084508895874 -0.3134538233280182 0.0171174518764019
0.19242751598358154 0.4278187155723572 -0.09040678292512894
-0.2353670448064804 -0.552304744720459 0.07495605200529099
-0.31350964307785034 -0.5251930356025696 -0.17305684089660645
0.46863481402397156 0.4086574912071228 -0.17305684089660645
0.7218092679977417 -0.3144291937351227 -0.36711612343788147
-0.3270166516304016 0.0881773978471756 -0.17305684089660645
0.9893258810043335 -0.5747074484825134 -0.2044440358877182
-0.3225298523902893 -0.04719036817550659 -0.17305684089660645
-0.5223873853683472 0.3559739887714386 0.5442793965339661
0.7741239070892334 0.17907314002513885 -0.36711612343788147
-0.2654590308666229 0.4278187155723572 0.4248516857624054
-0.3185521364212036 -0.5297350287437439 -0.17305684089660645
0.8735764622688293 0.1899205595254898 -0.36711612343788147
-0.857892632484436 -0.005469282623380423 0.07495605200529099
0.9893258810043335 -0.49302035570144653 -0.1517704427242279
-0.5096010565757751 -0.43283408880233765 -0.17305684089660645
0.5265003442764282 0.1537339687347412 0.33844679594039917
-0.8323459029197693 -0.4009627401828766 0.07495605200529099
-0.20729242265224457 -0.02923455834388733 -0.1145314872264862
0.7328983545303345 0.1537339687347412 0.450123131275177
-0.7925310730934143 0.1537339687347412 0.17283236980438232
0.6401805877685547 0.4278187155723572 0.14420464634895325
-0.999998927116394 -0.2199573665857315 0.06703196465969086
-0.5433274507522583 0.1537339687347412 0.14846377074718475
-0.9063023924827576 -0.5889472961425781 -0.17484180629253387
-0.5584447383880615 0.0728253647685051 -0.36711612343788147
0.6122159361839294 0.22796271741390228 -0.24798481166362762
-0.6426141262054443 0.4278187155723572 0.10319110006093979
-0.980108380317688 0.4278187155723572 0.24346239864826202
0.24084754288196564 -0.34293657541275024 -0.15303261578083038
0.9893258810043335 0.42009615898132324 -0.03809488192200661
0.0995565801858902 -0.4730662703514099 -0.04008018225431442
-0.9428962469100952 0.4278187155723572 0.12576672434806824
-0.4014822840690613 0.4278187155723572 0.15652474761009216
-0.9147587418556213 -0.41151657700538635 0.07495605200529099
0.9339447617530823 0.4278187155723572 -0.19552110135555267
0.25703322887420654 -0.05626962333917618 0.07495605200529099
0.5933653116226196 0.4278187155723572 0.19386734068393707
-0.11514067649841309 0.035818617790937424 -0.01570805534720421
-0.774195671081543 -0.5889472961425781 -0.1672280877828598
0.6708033084869385 0.004839928355067968 0.07495605200529099
0.9893258810043335 0.3347024619579315 -0.2801440954208374
-0.7432692050933838 0.3528861105442047 0.48824647068977356
0.1698063462972641 0.4278187155723572 0.4903278350830078
0.5309077501296997 0.0013809275114908814 0.07495605200529099
-0.2371421605348587 0.014107003808021545 -0.17305684089660645
-0.5870563983917236 0.005783706437796354 -0.17305684089660645
-0.48418551683425903 0.14955097436904907 0.07495605200529099
-0.23304837942123413 0.16184358298778534 0.5442793965339661
0.09163638949394226 0.041009142994880676 0.03744714707136154
0.2785724699497223 0.4278187155723572 -0.09970628470182419
-0.999998927116394 0.2168636918067932 -0.35899826884269714
0.9893258810043335 -0.20683608949184418 -0.21546386182308197
0.3012371063232422 0.30764028429985046 -0.17305684089660645
-0.6674853563308716 0.1537339687347412 0.4427373707294464
-0.49986717104911804 0.3427392840385437 -0.17305684089660645
0.634397029876709 0.3740297853946686 -0.17305684089660645
-0.9859623312950134 0.34977132081985474 0.3065035045146942
0.6952850818634033 0.32868507504463196 0.5161872506141663
0.5893819332122803 0.1102728471159935 -0.28985902667045593
-0.8808010816574097 0.1537339687347412 0.362109899520874
0.6361019015312195 0.4278187155723572 0.4991588294506073
-0.4366908073425293 0.4278187155723572 0.2674655318260193
0.9893258810043335 -0.5088469982147217 -0.100062794983387
0.09299071133136749 0.07898177951574326 0.07495605200529099
-0.898831844329834 -0.41923364996910095 0.07495605200529099
0.9371700286865234 -0.5889472961425781 -0.10822321474552155
-0.49077388644218445 -0.2736507058143616 0.07495605200529099
0.9893258810043335 -0.13083338737487793 -0.35379359126091003
0.9893258810043335 0.3015410304069519 0.13174080848693848
0.7525588274002075 -0.5889472961425781 -0.004097029101103544
0.8077393770217896 -0.5889472961425781 -0.1823742538690567
-0.1036054864525795 0.16153846681118011 0.5442793965339661
0.5353785753250122 -0.0006664962274953723 -0.17305684089660645
-0.5744277834892273 -0.3728924095630646 -0.33685562014579773
0.34368473291397095 0.4278187155723572 0.02464446611702442
0.9893258810043335 0.3376137316226959 -0.0378442220389843
-0.3450661599636078 0.3412450850009918 -0.17305684089660645
-0.8794195055961609 0.4278187155723572 0.06763136386871338
0.9336860179901123 0.003083614632487297 0.07495605200529099
-0.23739735782146454 0.34939298033714294 -0.17305684089660645
0.613797664642334 0.4278187155723572 0.29853594303131104
-0.5658282041549683 0.1678745597600937 -0.3526259958744049
-0.29299667477607727 -0.5889472961425781 -0.15310533344745636
0.31863319873809814 -0.4505501687526703 -0.17305684089660645
0.8654396533966064 0.22038325667381287 0.38876548409461975
-0.4514424204826355 0.4278187155723572 0.023207128047943115
0.9893258810043335 -0.17877629399299622 -0.026025203987956047
-0.5549163818359375 0.4278187155723572 -0.020026231184601784
-0.5710359811782837 -0.24078068137168884 -0.17305684089660645
0.9311895966529846 0.2634563446044922 0.33952802419662476
0.9244164228439331 -0.13315176963806152 0.07495605200529099
-0.7287420630455017 0.34178322553634644 0.499125212430954
-0.4938128888607025 0.2600288391113281 0.5442793965339661
-0.30824217200279236 0.3966762125492096 0.5442793965339661
0.7997708916664124 0.4278187155723572 -0.06337065994739532
-0.6639542579650879 -0.021953480318188667 0.07495605200529099
-0.549420952796936 0.1537339687347412 0.2497183233499527
0.5218788385391235 -0.5191841721534729 -0.17305684089660645
-0.04461590200662613 0.05574849247932434 -0.04663349688053131
-0.17493321001529694 0.4278187155723572 -0.1450556218624115
-0.6028876304626465 -0.5625425577163696 -0.36711612343788147
0.3521174192428589 0.4278187155723572 0.07357936352491379
0.9893258810043335 0.3572155237197876 -0.2484709620475769
0.8203604817390442 0.4278187155723572 -0.04055212438106537
0.9893258810043335 -0.3539169430732727 0.007923480123281479
-0.999998927116394 0.1653614193201065 -0.186197429895401
-0.5205471515655518 0.2682364583015442 0.5442793965339661
0.8177756071090698 0.1537339687347412 0.2716298997402191
-0.44782933592796326 -0.5889472961425781 -0.15321621298789978
0.9445491433143616 0.4278187155723572 0.10690299421548843
0.9893258810043335 -0.04210962727665901 -0.3153405487537384
-0.9490557909011841 -0.17983576655387878 -0.36711612343788147
-0.6557794809341431 -0.14664290845394135 0.07495605200529099
-0.6112791895866394 -0.11372742056846619 0.07495605200529099
0.5646138787269592 -0.19362762570381165 -0.17305684089660645
-0.5763421058654785 -0.5889472961425781 -0.1362839937210083
0.09045251458883286 0.1537339687347412 0.5233662724494934
-0.999998927116394 -0.18758055567741394 -0.11239183694124222
0.26890721917152405 0.4278187155723572 -0.059467658400535583
-0.28156331181526184 0.15600846707820892 -0.17305684089660645
0.6439959406852722 0.3493184745311737 -0.36711612343788147
-0.052205152809619904 0.4278187155723572 0.4501640796661377
0.30143243074417114 -0.320625364780426 0.07495605200529099
0.5518059134483337 -0.45854780077934265 0.07495605200529099
0.6224152445793152 0.4278187155723572 0.17919225990772247
-0.999998927116394 0.32978153228759766 -0.14556120336055756
0.75001060962677 -0.47136709094047546 -0.36711612343788147
-0.6169208288192749 -0.04564763233065605 -0.2589295506477356
0.9893258810043335 0.32386744022369385 -0.3404587507247925
0.06611363589763641 0.4278187155723572 0.1589002162218094
-0.8961845636367798 0.4278187155723572 -0.28755515813827515
-0.5003196597099304 0.1537339687347412 0.5416337847709656
-0.321231484413147 0.4278187155723572 0.5168911814689636
0.5656534433364868 0.101994089782238 -0.17305684089660645
-0.07391951978206635 -0.5889472961425781 0.05881378799676895
-0.26554596424102783 0.18325553834438324 -0.17305684089660645
-0.08581031113862991 -0.5148199796676636 -0.17305684089660645
0.29877787828445435 0.4278187155723572 -0.01509886421263218
0.9841615557670593 -0.09265010058879852 0.07495605200529099
-0.999998927116394 0.15088021755218506 -0.19016191363334656
-0.7583744525909424 -0.5889472961425781 -0.13191652297973633
0.4343196451663971 9.79781907517463e-05 -0.17305684089660645
0.6677795052528381 0.06662841141223907 0.07495605200529099
-0.38012033700942993 0.08444562554359436 -0.17305684089660645
0.986324667930603 0.1537339687347412 0.2623485028743744
0.659159779548645 0.15356993675231934 -0.36711612343788147
0.7084437012672424 0.1537339687347412 0.4218605160713196
-0.6290177702903748 -0.501364529132843 -0.17305684089660645
0.441433846950531 0.11804010719060898 -0.17305684089660645
-0.27400484681129456 0.30611181259155273 0.5442793965339661
0.9893258810043335 0.40046724677085876 -0.004407448228448629
-0.6606950163841248 0.4278187155723572 -0.14349275827407837
-0.6282000541687012 0.054303526878356934 0.07495605200529099
0.715400755405426 -0.5889472961425781 -0.052717313170433044
-0.6885440349578857 -0.5889472961425781 -0.1194707527756691
0.5572658181190491 0.20314423739910126 -0.17305684089660645
0.12147793173789978 -0.46305015683174133 0.04830632358789444
0.5552666187286377 0.1537339687347412 0.5283153057098389
-0.44312748312950134 -0.5733848810195923 -0.17305684089660645
-0.006269286386668682 -0.5889472961425781 -0.02245469018816948
-0.5942175984382629 -0.49985766410827637 -0.36711612343788147
-0.999998927116394 0.13808967173099518 -0.06908205151557922
-0.7151287198066711 -0.22225184738636017 0.07495605200529099
0.01646033488214016 0.08902005851268768 0.07495605200529099
0.9893258810043335 0.4213724732398987 0.0027523271273821592
0.7805014848709106 0.2262047678232193 -0.36711612343788147
-0.9279513359069824 0.4278187155723572 -0.2794038951396942
-0.38150960206985474 -0.025217410176992416 -0.17305684089660645
-0.2577084004878998 0.1537339687347412 0.309745728969574
-0.27888739109039307 -0.2558453381061554 0.0020399298518896103
-0.6893515586853027 -0.5889472961425781 0.010295804589986801
-0.8965237140655518 0.4278187155723572 -0.12950779497623444
-0.22716815769672394 -0.3820376992225647 -0.07295436412096024
-0.14118178188800812 0.35366693139076233 0.5442793965339661
0.7702139019966125 0.4278187155723572 0.4126039445400238
-0.7544960379600525 -0.3003626763820648 -0.36711612343788147
-0.2164178043603897 0.1537339687347412 0.4418489634990692
0.17188042402267456 0.4278187155723572 0.1749752312898636
-0.11799247562885284 0.1537339687347412 0.47695618867874146
-0.9523202776908875 0.4278187155723572 0.2319890409708023
-0.999998927116394 -0.211953803896904 0.055318448692560196
-0.0019637481309473515 0.4278187155723572 0.11222615092992783
0.4787982106208801 0.4278187155723572 0.1506812423467636
0.9535763263702393 -0.4312996566295624 -0.36711612343788147
0.9893258810043335 0.05908042564988136 -0.33312392234802246
-0.6729350686073303 0.4278187155723572 -0.366679310798645
0.6403824687004089 0.17208917438983917 -0.17305684089660645
0.4223845601081848 -0.5889472961425781 -0.08288726210594177
-0.3345237970352173 0.34172990918159485 -0.17305684089660645
-0.9253659844398499 0.36241069436073303 -0.36711612343788147
0.0017174219246953726 -0.5660756230354309 -0.17305684089660645
-0.0896618589758873 0.3009245693683624 -0.17305684089660645
0.9893258810043335 -0.29266229271888733 -0.14433132112026215
-0.6983308792114258 0.1537339687347412 0.24894879758358002
-0.49602580070495605 0.1537339687347412 0.2065325826406479
0.15004949271678925 0.08023033291101456 -0.17305684089660645
0.13596956431865692 0.4278187155723572 0.5178512930870056
-0.1698351502418518 0.004250667989253998 -0.1422492116689682
-0.8212906718254089 0.3490961492061615 0.42981940507888794
0.5002552270889282 0.2640295922756195 0.5442793965339661
0.5740430951118469 0.4278187155723572 0.28200459480285645
0.9893258810043335 -0.5838586688041687 -0.08336258679628372
0.9117711186408997 0.1537339687347412 0.26485005021095276
0.24350088834762573 -0.09776996076107025 0.06145540624856949
-0.9759430885314941 0.0010272953659296036 0.07495605200529099
-0.02919846959412098 0.4278187155723572 0.4284251034259796
-0.19528335332870483 0.1537339687347412 0.3629462420940399
-0.8279623985290527 0.4278187155723572 0.1276237517595291
-0.37406930327415466 0.4278187155723572 0.1708308309316635
0.7354987263679504 -0.15946422517299652 -0.36711612343788147
-0.7871105670928955 -0.23692277073860168 -0.36711612343788147
-0.26023411750793457 -0.11122164130210876 -0.012034295126795769
-0.2437436729669571 -0.0779680386185646 0.05886811017990112
-0.8075951933860779 0.1537339687347412 0.09056433290243149
0.9552310705184937 -0.1281094253063202 0.07495605200529099
0.06811220198869705 0.15623395144939423 0.5442793965339661
-0.5799816846847534 -0.5038227438926697 -0.3266706168651581
-0.8484961986541748 0.4278187155723572 0.20902828872203827
0.620303750038147 -0.1354592740535736 -0.36711612343788147
-0.1920994073152542 0.4278187155723572 0.28829100728034973
0.2974415123462677 0.4278187155723572 -0.0826035812497139
-0.6934626698493958 0.1173054575920105 0.07495605200529099
0.9893258810043335 -0.5573900938034058 -0.3412877917289734
0.9454564452171326 -0.20522969961166382 0.07495605200529099
-0.6615971922874451 -0.22001487016677856 -0.17699940502643585
-0.6761406660079956 0.4278187155723572 -0.00648574298247695
0.9662655591964722 0.3800375461578369 0.31326109170913696
0.5766281485557556 -0.09302405267953873 -0.17305684089660645
0.037144094705581665 0.1537339687347412 0.1440216302871704
-0.603526771068573 -0.2211982011795044 -0.28349220752716064
0.7930459380149841 -0.060479145497083664 0.07495605200529099
-0.5972152352333069 -0.3516828417778015 -0.2950666546821594
0.6423808932304382 0.4278187155723572 0.35707738995552063
-0.05839971825480461 0.20408307015895844 -0.17305684089660645
0.6096264719963074 -0.17050611972808838 -0.25273337960243225
-0.3173118531703949 0.1537339687347412 0.4153033494949341
0.6225677728652954 -0.5889472961425781 -0.009114754386246204
0.629618227481842 -0.5108490586280823 -0.2160714566707611
0.05841333046555519 0.41142669320106506 0.5442793965339661
0.9893258810043335 0.3501286208629608 -0.3265155255794525
-0.2074267864227295 -0.5889472961425781 -0.05060603842139244
0.44622138142585754 0.4278187155723572 0.05544266849756241
-0.8317652344703674 0.043850257992744446 -0.36711612343788147
-0.999998927116394 0.40578779578208923 -0.02609759010374546
0.023485295474529266 0.3602614998817444 -0.17305684089660645
-0.7634205222129822 0.1537339687347412 0.17153115570545197
-0.5940965414047241 0.23447483777999878 -0.3007860481739044
-0.7141008973121643 0.4278187155723572 -0.2889575660228729
0.18294985592365265 -0.47190147638320923 -0.17305684089660645
-0.7574228048324585 0.04807959124445915 -0.36711612343788147
0.3862497806549072 0.018723784014582634 -0.17305684089660645
0.5923618078231812 0.25742512941360474 -0.17305684089660645
0.318824827671051 -0.4807654917240143 -0.17305684089660645
0.22307656705379486 0.26107457280158997 0.5442793965339661
-0.6325812935829163 0.20336252450942993 -0.36711612343788147
0.3669413924217224 -0.48302581906318665 -0.17305684089660645
-0.8147333860397339 -0.5889472961425781 -0.3444038927555084
0.9893258810043335 0.08613332360982895 0.07352051138877869
-0.7599225640296936 -0.15544982254505157 -0.36711612343788147
0.45376861095428467 0.34910473227500916 0.5442793965339661
-0.16461646556854248 0.4278187155723572 -0.12093015015125275
-0.6050451993942261 -0.11311210691928864 -0.2807076871395111
0.31398847699165344 0.1537339687347412 0.09869373589754105
-0.33986222743988037 -0.33826810121536255 -0.17305684089660645
-0.6471092104911804 0.12830029428005219 -0.36711612343788147
0.0068525709211826324 0.1537339687347412 0.10668464750051498
-0.3513885736465454 0.4278187155723572 0.526237964630127
0.9893258810043335 0.19605857133865356 0.12777772545814514
0.0601872019469738 0.4278187155723572 0.021233314648270607
0.676761269569397 -0.27584734559059143 -0.36711612343788147
-0.5530279278755188 0.32982268929481506 0.5442793965339661
-0.020358625799417496 0.4278187155723572 0.07810826599597931
-0.8367273807525635 -0.4282594621181488 0.07495605200529099
-0.16380618512630463 0.4278187155723572 0.4988346993923187
-0.5351538062095642 0.24325503408908844 -0.17305684089660645
0.4218329191207886 0.3973325490951538 0.5442793965339661
-0.999998927116394 -0.10539670288562775 0.01590581424534321
0.4845569431781769 -0.5706081986427307 -0.17305684089660645
-0.8091837167739868 0.023383060470223427 -0.36711612343788147
-0.27062416076660156 0.1537339687347412 0.22479531168937683
0.5454468727111816 -0.02342897094786167 -0.17305684089660645
0.7423099279403687 -0.5889472961425781 -0.007265795022249222
0.7888251543045044 -0.1034868061542511 -0.36711612343788147
0.7482063174247742 0.4278187155723572 0.1532776802778244
0.07785308361053467 0.4278187155723572 0.16465142369270325
0.9287060499191284 0.1537339687347412 0.2621610462665558
-0.615157961845398 -0.12256287038326263 0.07495605200529099
0.4379454255104065 0.1537339687347412 0.29682058095932007
0.5662986636161804 0.4278187155723572 0.20233705639839172
0.6519442796707153 0.1537339687347412 0.12598389387130737
-0.2743338346481323 -0.3093379735946655 -0.17305684089660645
0.7171132564544678 -0.5889472961425781 -0.24614852666854858
0.2697107791900635 -0.24257317185401917 -0.1344839632511139
0.13409382104873657 0.4278187155723572 0.01917240023612976
-0.9154830574989319 0.3100139796733856 -0.36711612343788147
0.6731141805648804 0.1537339687347412 0.4666886627674103
0.0637950450181961 0.3087703287601471 -0.17305684089660645
-0.9453819990158081 0.4278187155723572 0.17828573286533356
0.24021051824092865 0.4278187155723572 0.44487982988357544
-0.40036511421203613 0.1537339687347412 0.20441192388534546
0.7458652853965759 0.1537339687347412 0.4707658886909485
-0.9992706775665283 -0.5889472961425781 -0.09893478453159332
0.023349417373538017 0.1537339687347412 0.3186917304992676
-0.8522665500640869 -0.30933257937431335 0.07495605200529099
0.19843846559524536 0.1537339687347412 0.4189140200614929
-0.5920879244804382 0.34249672293663025 0.5442793965339661
-0.3822900354862213 0.4278187155723572 -0.1382465362548828
0.5741516947746277 0.25460904836654663 -0.31778907775878906
0.4208238124847412 -0.40212205052375793 -0.17305684089660645
0.6365252733230591 0.1537339687347412 0.31370365619659424
0.41544392704963684 0.1537339687347412 0.3650066554546356
0.08672361075878143 0.1537339687347412 0.4320627450942993
0.060563117265701294 0.4278187155723572 0.31929290294647217
-0.9497731328010559 0.1537339687347412 0.17478635907173157
-0.02586527168750763 0.1537339687347412 0.44855624437332153
0.030463827773928642 -0.5889472961425781 0.05094229057431221
0.9893258810043335 0.2916378974914551 0.018139265477657318
-0.6768420338630676 0.4278187155723572 0.3700450658798218
0.7396854758262634 0.4278187155723572 -0.0955217257142067
-0.21895729005336761 -0.5518056750297546 -0.17305684089660645
-0.3009030818939209 -0.42864134907722473 -0.17305684089660645
-0.6416776776313782 -0.08995063602924347 -0.21352890133857727
-0.21441282331943512 -0.3981637954711914 -0.05075768753886223
-0.8542289137840271 0.1537339687347412 0.18919436633586884
-0.7276437282562256 0.23580612242221832 -0.36711612343788147
-0.5213886499404907 -0.3594835698604584 0.07495605200529099
0.018851811066269875 -0.5889472961425781 -0.10147981345653534
0.45059430599212646 0.08928875625133514 0.07495605200529099
0.6583038568496704 -0.14164307713508606 -0.36711612343788147
0.9862343668937683 0.4278187155723572 -0.3383755683898926
0.29495763778686523 0.20219120383262634 0.5442793965339661
0.798891544342041 -0.5889472961425781 0.06099715456366539
0.0008028814918361604 0.4278187155723572 -0.1576850712299347
0.6155213117599487 0.08855649083852768 -0.17305684089660645
-0.9665899276733398 -0.5889472961425781 -0.35439664125442505
-0.5942358374595642 -0.43985646963119507 -0.17305684089660645
0.7625575661659241 -0.23989403247833252 0.07495605200529099
-0.5157449841499329 -0.5061889886856079 0.07495605200529099
0.6435837149620056 0.05202633515000343 -0.19046077132225037
0.4621579647064209 0.1537339687347412 0.2097843736410141
-0.007039125543087721 0.1537339687347412 0.32273155450820923
-0.5318333506584167 0.1537339687347412 0.28299230337142944
0.34592488408088684 0.2590128183364868 0.5442793965339661
0.4698738753795624 -0.19802193343639374 0.07495605200529099
-0.5632597208023071 -0.5889472961425781 0.0016712680226191878
0.6860631108283997 -0.19487141072750092 -0.36711612343788147
0.8797104954719543 0.1537339687347412 0.08552867919206619
0.6836091876029968 -0.5889472961425781 -0.2622983157634735
0.07949965447187424 0.13663101196289062 -0.17305684089660645
0.8821085095405579 0.4278187155723572 0.35678938031196594
-0.564064085483551 0.07870091497898102 -0.17305684089660645
0.08853527903556824 0.04211851954460144 -0.01824839599430561
-0.6871331930160522 0.1537339687347412 0.44940465688705444
-0.8742708563804626 0.18352621793746948 0.3901447057723999
0.9883722066879272 -0.17245104908943176 0.07495605200529099
0.9893258810043335 0.1592075377702713 0.12047689408063889
-0.7862705588340759 -0.28693461418151855 0.07495605200529099
-0.6152700781822205 0.16899286210536957 0.5442793965339661
-0.5944924354553223 -0.34462326765060425 -0.3000599443912506
-0.5772271752357483 -0.5889472961425781 -0.08854585886001587
-0.2756596803665161 -0.16117209196090698 -0.051494453102350235
0.8102003335952759 -0.07978257536888123 0.07495605200529099
-0.6110578179359436 0.04912944138050079 -0.2696814239025116
-0.999998927116394 -0.4542118012905121 -0.13692298531532288
0.885093629360199 -0.050662439316511154 -0.36711612343788147
0.03595150262117386 0.1537339687347412 0.15915635228157043
-0.999998927116394 -0.10195528715848923 -0.34907034039497375
0.028486652299761772 -0.5220876336097717 0.07495605200529099
-0.3011801242828369 0.4278187155723572 -0.15734276175498962
-0.2961753010749817 -0.3617003858089447 0.07495605200529099
0.07756005227565765 -0.5743407011032104 0.07495605200529099
0.08543195575475693 0.4278187155723572 0.21927067637443542
0.9893258810043335 -0.5455400347709656 -0.10878504067659378
0.9893258810043335 0.34110546112060547 -0.05395549163222313
-0.2263316810131073 -0.051822029054164886 -0.14994829893112183
-0.7584637999534607 0.4278187155723572 -0.3448549509048462
-0.4633468985557556 0.28019094467163086 -0.17305684089660645
0.4086717367172241 0.4278187155723572 -0.06427265703678131
-0.7644259929656982 0.4278187155723572 0.21175746619701385
0.8509190678596497 -0.20121018588542938 -0.36711612343788147
-0.5669676065444946 -0.1677379459142685 -0.17305684089660645
0.39560073614120483 -0.04345408454537392 -0.17305684089660645
-0.10035580396652222 0.28306150436401367 -0.17305684089660645
0.6974254846572876 0.1537339687347412 0.08455323427915573
-0.651531457901001 0.1537339687347412 0.1760241836309433
0.9893258810043335 -0.2256569266319275 -0.33043214678764343
-0.8350982069969177 -0.00048816241906024516 -0.36711612343788147
0.08116313815116882 -0.5836632251739502 -0.17305684089660645
0.2054741382598877 -0.03919561952352524 0.062093235552310944
0.4570457339286804 0.26094576716423035 -0.17305684089660645
-0.9376614689826965 0.2750939130783081 0.3426741063594818
0.1536484658718109 0.4278187155723572 -0.0816657692193985
-0.5490310788154602 0.4278187155723572 -0.00018510036170482635
-0.999998927116394 -0.4169033467769623 0.013657860457897186
0.8339968323707581 -0.1315174251794815 -0.36711612343788147
0.9309453964233398 0.4278187155723572 -0.23470401763916016
0.3876236379146576 0.1537339687347412 0.29234933853149414
-0.5864362120628357 0.4243124723434448 -0.3148338496685028
-0.683574914932251 0.4278187155723572 0.44736626744270325
-0.06510209292173386 0.2963663637638092 -0.17305684089660645
-0.826627790927887 -0.21541385352611542 -0.36711612343788147
-0.20097103714942932 -0.5889472961425781 0.013728308491408825
-0.2039988934993744 0.1501363068819046 0.07495605200529099
0.013611326925456524 0.1537339687347412 0.37375450134277344
0.9893258810043335 -0.33702170848846436 -0.13769429922103882
-0.20625127851963043 0.1537339687347412 0.5174619555473328
0.6239421963691711 0.1334652155637741 -0.22648045420646667
-0.19913308322429657 0.1537339687347412 0.5077658891677856
-0.368203341960907 0.1537339687347412 0.16547192633152008
0.5916709899902344 0.4278187155723572 0.4025760889053345
0.3012397587299347 0.4278187155723572 0.43574976921081543
0.016063153743743896 0.05780106037855148 0.018708016723394394
0.24625954031944275 -0.3313415050506592 0.04991891607642174
-0.7195188403129578 -0.042611658573150635 -0.36711612343788147
0.4146854281425476 -0.02725180611014366 -0.17305684089660645
0.31900420784950256 -0.314891517162323 0.07495605200529099
-0.7958244681358337 0.3161936104297638 -0.36711612343788147
0.5833116769790649 0.1537339687347412 0.23970447480678558
-0.004522584844380617 0.4163662791252136 -0.17305684089660645
0.5420047044754028 -0.5117892622947693 -0.17305684089660645
0.07958905398845673 0.4278187155723572 0.5192655324935913
-0.999998927116394 -0.5508869886398315 -0.3619915843009949
0.24629966914653778 0.1537339687347412 0.4704415500164032
0.5851740837097168 0.17941860854625702 0.5442793965339661
0.7757172584533691 0.21625395119190216 -0.36711612343788147
-0.931736409664154 -0.3403167724609375 -0.36711612343788147
0.29271459579467773 0.1269398331642151 0.07495605200529099
0.6376410126686096 0.4278187155723572 0.40582191944122314
0.9893258810043335 -0.04829489812254906 -0.026850977912545204
0.9893258810043335 0.2947053611278534 0.012766844592988491
0.3844602108001709 -0.3958313763141632 -0.17305684089660645
-0.73943692445755 0.4278187155723572 -0.2666996419429779
-0.999998927116394 0.22296656668186188 0.17891770601272583
0.11184101551771164 0.4278187155723572 0.5178962349891663
0.45140495896339417 0.1537339687347412 0.14983922243118286
-0.33521246910095215 -0.31404733657836914 -0.17305684089660645
-0.19534991681575775 0.4278187155723572 0.05417747050523758
-0.5100909471511841 0.4278187155723572 0.3435699939727783
-0.10307569801807404 0.1537339687347412 0.24562203884124756
0.04606042429804802 -0.48904380202293396 0.024990634992718697
0.3682384192943573 -0.5889472961425781 0.015326588414609432
-0.2815309762954712 -0.2200639396905899 0.06456785649061203
0.7286036014556885 -0.040277931839227676 -0.36711612343788147
-0.6313613653182983 -0.4430478513240814 -0.23244762420654297
-0.999998927116394 0.28384438157081604 -0.08507012575864792
0.9113231301307678 -0.1851932853460312 0.07495605200529099
0.8228497505187988 -0.09983889013528824 -0.36711612343788147
0.1174217015504837 0.4278187155723572 -0.14402100443840027
-0.6512314081192017 -0.5565935969352722 -0.1960088610649109
-0.059847380965948105 0.4278187155723572 0.26418763399124146
-0.7206314206123352 -0.48805978894233704 0.07495605200529099
-0.0893855169415474 0.4278187155723572 0.31841546297073364
0.354696124792099 -0.12936000525951385 0.07495605200529099
-0.9190813899040222 0.1537339687347412 0.2739247977733612
-0.9279240965843201 -0.1676712930202484 -0.36711612343788147
0.8643558025360107 0.4278187155723572 -0.15530599653720856
0.15571625530719757 -0.4941686689853668 -0.17305684089660645
-0.999998927116394 0.2748335003852844 0.24082481861114502
0.9380307197570801 -0.5889472961425781 -0.1165878176689148
-0.6025061011314392 -0.19087205827236176 0.07495605200529099
-0.7133828997612 0.4278187155723572 0.23097042739391327
-0.999998927116394 -0.3243733048439026 -0.009573015384376049
0.24160413444042206 0.008688903413712978 0.07495605200529099
-0.13684289157390594 0.2011542022228241 -0.17305684089660645
0.6042956113815308 -0.03058336116373539 -0.36711612343788147
0.5886315107345581 0.1537339687347412 0.3807859420776367
0.5863609910011292 -0.01710360124707222 -0.2953990399837494
-0.16144894063472748 -0.5645257234573364 0.07495605200529099
-0.6066969633102417 0.4278187155723572 0.3116150200366974
0.7819182276725769 0.4278187155723572 -0.00498581025749445
0.8928505182266235 -0.5889472961425781 -0.08458991348743439
0.15374886989593506 0.4278187155723572 -0.04545694589614868
0.7378749251365662 0.4278187155723572 -0.3120834529399872
0.12878945469856262 0.1537339687347412 0.440015584230423
0.7264958620071411 -0.5889472961425781 -0.010369456373155117
-0.5618311166763306 -0.2342676967382431 -0.35995617508888245
-0.5161468386650085 0.4278187155723572 -0.13444370031356812
-0.15864412486553192 0.3654835522174835 0.5442793965339661
-0.4034912884235382 0.4278187155723572 0.27553486824035645
-0.21419216692447662 0.1537339687347412 0.2897248864173889
0.5805709958076477 0.23391036689281464 -0.306017130613327
-0.06293448060750961 0.05255918577313423 -0.13731063902378082
-0.3213295340538025 0.2763471305370331 -0.17305684089660645
0.6573375463485718 -0.2583722472190857 -0.36711612343788147
0.6439874768257141 0.0776330828666687 0.07495605200529099
0.7246090173721313 -0.581410825252533 -0.36711612343788147
-0.7448047995567322 0.1537339687347412 0.3409554660320282
-0.999998927116394 -0.3409769833087921 -0.2473762333393097
-0.12553419172763824 0.4278187155723572 -0.11076679080724716
-0.17193464934825897 0.03144636005163193 -0.17305684089660645
0.835276186466217 -0.03937239199876785 0.07495605200529099
-0.39176008105278015 0.0886332243680954 0.07495605200529099
-0.5087828636169434 0.39488115906715393 0.5442793965339661
0.7594044804573059 0.2681337594985962 0.46817082166671753
-0.6869826912879944 0.4278187155723572 0.25773701071739197
0.16234090924263 0.2285800576210022 0.5442793965339661
-0.32046425342559814 -0.08810515701770782 0.07495605200529099
-0.2964755892753601 0.4278187155723572 -0.06665846705436707
0.4765726625919342 -0.34083929657936096 0.07495605200529099
-0.999998927116394 -0.251154363155365 -0.15247972309589386
0.9893258810043335 -0.18660199642181396 0.05907956138253212
-0.999998927116394 -0.3139043152332306 -0.33268898725509644
0.2743968665599823 0.1507238894701004 0.07495605200529099
-0.6130216717720032 0.027175920084118843 -0.36711612343788147
0.9040002822875977 0.4278187155723572 -0.057180579751729965
0.27060478925704956 -0.20551493763923645 -0.06920528411865234
-0.26206669211387634 0.22219085693359375 0.5442793965339661
-0.8518099188804626 -0.5889472961425781 -0.07636041194200516
0.611243724822998 0.21046678721904755 -0.17305684089660645
0.11241322010755539 0.4278187155723572 0.08461921662092209
0.3192184269428253 -0.01678972691297531 -0.17305684089660645
-0.6575101017951965 0.10660813003778458 0.07495605200529099
-0.999998927116394 -0.10410676151514053 0.07238433510065079
-0.38015300035476685 0.4278187155723572 0.17192712426185608
0.24640755355358124 -0.10412657260894775 -0.10158288478851318
0.8111456632614136 0.1537339687347412 0.26499879360198975
0.5090349316596985 0.1537339687347412 0.32851478457450867
-0.6577959060668945 -0.45362088084220886 -0.17305684089660645
0.4250873923301697 0.08230827748775482 -0.17305684089660645
-0.999998927116394 0.17398172616958618 0.20680969953536987
-0.424071341753006 0.06542982906103134 -0.17305684089660645
0.9893258810043335 0.24922366440296173 0.2569156885147095
0.9893258810043335 -0.4593118131160736 -0.1182309240102768
0.9893258810043335 0.42399269342422485 0.2590104937553406
0.9893258810043335 0.2740144729614258 0.03780963271856308
0.568799614906311 0.014777716249227524 -0.36711612343788147
-0.5186486840248108 0.1537339687347412 0.2014467418193817
0.9272467494010925 0.4278187155723572 -0.05751980468630791
0.4991511404514313 -0.5889472961425781 -0.0875295028090477
0.45316609740257263 0.4278187155723572 0.24832724034786224
-0.7688815593719482 0.05684556066989899 0.07495605200529099
0.9527109861373901 -0.15547211468219757 0.07495605200529099
0.2945401072502136 -0.1965784728527069 -0.17305684089660645
0.4301447868347168 -0.35875970125198364 0.07495605200529099
-0.7016490697860718 0.1537339687347412 0.317943811416626
0.6039355993270874 -0.12991321086883545 0.07495605200529099
-0.7196232080459595 0.37304356694221497 -0.36711612343788147
-0.7046791315078735 0.4278187155723572 0.41267311573028564
-0.013267412781715393 0.4278187155723572 0.05496736615896225
0.3263348937034607 -0.5889472961425781 -0.05090576037764549
0.650198757648468 -0.004781706724315882 -0.17832975089550018
-0.15806083381175995 -0.44775381684303284 -0.05863858759403229
0.986283004283905 0.1537339687347412 0.09252379089593887
0.7653558850288391 0.4278187155723572 0.27147334814071655
0.9657415747642517 -0.5889472961425781 -0.3526197373867035
-0.2092907428741455 0.4278187155723572 -0.1704961061477661
-0.9261886477470398 -0.4950469434261322 -0.36711612343788147
0.07171125710010529 0.1067807525396347 -0.17305684089660645
0.607580840587616 0.14573830366134644 -0.2564849257469177
-0.24701710045337677 0.38021427392959595 0.5442793965339661
-0.8666624426841736 0.4278187155723572 0.37798404693603516
-0.19964581727981567 0.3127228021621704 0.5442793965339661
0.2296806424856186 -0.07252085208892822 -0.1348235309123993
0.7736400961875916 -0.5352439880371094 0.07495605200529099
0.22628024220466614 -0.368084579706192 -0.012049293145537376
-0.999998927116394 0.24143803119659424 -0.095794677734375
-0.298633337020874 0.17834530770778656 0.5442793965339661
0.5821087956428528 0.1537339687347412 0.3364875316619873
0.7619128227233887 0.4278187155723572 -0.361581414937973
0.8649750351905823 0.378605455160141 0.3891133666038513
-0.5762497782707214 -0.5889472961425781 -0.1560673713684082
-0.34262290596961975 0.4278187155723572 0.16879598796367645
0.5234743356704712 0.1537339687347412 0.41053271293640137
-0.4546678364276886 0.1537339687347412 0.4123312532901764
-0.999998927116394 -0.4142971336841583 -0.12124016880989075
0.1465480625629425 0.012945853173732758 -0.17111968994140625
-0.999998927116394 -0.39823976159095764 -0.29120221734046936
-0.6764225363731384 -0.2628007233142853 -0.36711612343788147
0.1058114618062973 0.035168394446372986 0.012587014585733414
0.6355005502700806 0.4278187155723572 -0.05477817729115486
0.5707051753997803 -0.5111979246139526 -0.3241095244884491
0.07692109048366547 0.1537339687347412 0.3846220076084137
0.16717208921909332 0.37903574109077454 -0.17305684089660645
0.9893258810043335 0.25845104455947876 0.02626926265656948
0.588230550289154 0.1537339687347412 0.288249671459198
-0.4342246651649475 -0.08656423538923264 0.07495605200529099
0.9893258810043335 -0.3698831796646118 -0.17412804067134857
0.8210616111755371 0.1537339687347412 0.3046969771385193
-0.7890060544013977 0.20691607892513275 -0.36711612343788147
0.6567498445510864 0.25964564085006714 0.5442793965339661
-0.44790080189704895 0.1537339687347412 0.3468075096607208
0.22127851843833923 0.25790977478027344 -0.17305684089660645
0.8391797542572021 -0.5889472961425781 -0.08225648105144501
0.3728863000869751 -0.44970259070396423 -0.17305684089660645
-0.5827812552452087 -0.24976402521133423 -0.17305684089660645
-0.19903762638568878 -0.02078600600361824 -0.15203210711479187
-0.26292070746421814 -0.3173048794269562 -0.11764704436063766
0.1647428721189499 0.17957110702991486 -0.17305684089660645
0.9410402178764343 0.18468070030212402 0.3321513235569
0.9893258810043335 0.24262960255146027 0.13084550201892853
-0.2582111656665802 -0.10644221305847168 -0.05306249484419823
-0.4811534583568573 0.1537339687347412 0.24894435703754425
-0.32380399107933044 0.1537339687347412 0.32923129200935364
0.8067299723625183 -0.4627628028392792 0.07495605200529099
-0.18543195724487305 0.01052810251712799 0.07495605200529099
-0.8809866309165955 0.4278187155723572 0.26656514406204224
0.24381673336029053 0.1537339687347412 0.4522585868835449
0.799566924571991 0.1537339687347412 0.29412293434143066
-0.9245572686195374 -0.5889472961425781 0.07301118224859238
-0.6123571991920471 0.1544942557811737 -0.36711612343788147
-0.3194589912891388 -0.27138641476631165 -0.17305684089660645
0.4479425847530365 0.1537339687347412 0.1787509173154831
-0.6329525709152222 -0.5889472961425781 -0.022913288325071335
0.9893258810043335 -0.18186454474925995 -0.0903836339712143
-0.6298632621765137 -0.3571368157863617 0.07495605200529099
0.9893258810043335 0.06654459983110428 -0.34977373480796814
0.9473268985748291 -0.30047786235809326 0.07495605200529099
-0.581810712814331 0.024644844233989716 0.07495605200529099
0.8091505765914917 0.4278187155723572 0.2723570764064789
0.6209506988525391 0.3923884332180023 -0.23196633160114288
0.1671408712863922 -0.4726865887641907 -0.17305684089660645
0.5734036564826965 -0.2928425669670105 0.07495605200529099
0.11793737858533859 0.19523757696151733 0.5442793965339661
-0.999998927116394 0.11183620244264603 -0.20792442560195923
0.6081535816192627 0.4278187155723572 0.17411349713802338
0.1625646948814392 -0.43695497512817383 -0.1468493491411209
-0.48431307077407837 0.4278187155723572 0.29158511757850647
0.5009024739265442 0.2593924403190613 -0.17305684089660645
0.7386749982833862 -0.5889472961425781 0.0033240069169551134
-0.6621521711349487 -0.4295903444290161 -0.36711612343788147
0.14160850644111633 0.4278187155723572 0.1552443951368332
0.061863645911216736 -0.48552727699279785 -0.10882920771837234
0.3356913924217224 -0.31718239188194275 0.07495605200529099
-0.4413559138774872 0.1537339687347412 0.24944019317626953
-0.0008777037146501243 0.1537339687347412 0.07782332599163055
0.5830225348472595 0.18835946917533875 -0.3015211820602417
-0.3401090204715729 -0.07601737231016159 0.07495605200529099
0.6564006209373474 0.1537339687347412 0.08323404937982559
-0.6513118147850037 0.4278187155723572 0.4419153034687042
0.44282591342926025 0.4198112487792969 -0.17305684089660645
-0.8072101473808289 0.009284361265599728 0.07495605200529099
-0.5850600004196167 -0.4314688742160797 -0.36711612343788147
-0.25913527607917786 0.26242974400520325 -0.17305684089660645
0.8915455937385559 -0.4239404797554016 -0.36711612343788147
0.53228360414505 -0.0804864689707756 0.07495605200529099
0.9893258810043335 -0.4239194095134735 -0.08845661580562592
0.9893258810043335 -0.37595605850219727 -0.32596680521965027
-0.46820366382598877 -0.07300382852554321 -0.17305684089660645
0.09381157904863358 0.4278187155723572 0.15583036839962006
-0.8882555961608887 -0.2935022711753845 -0.36711612343788147
0.47913023829460144 0.09596364945173264 0.07495605200529099
-0.999998927116394 -0.4111911952495575 0.07472044974565506
0.5787729620933533 -0.413602352142334 -0.17305684089660645
0.5868445634841919 0.4278187155723572 0.2272847294807434
-0.6541734933853149 0.1238831952214241 0.07495605200529099
0.9794706702232361 -0.25305408239364624 0.07495605200529099
-0.999998927116394 -0.11497516930103302 0.015523134730756283
0.36514678597450256 0.4278187155723572 0.3856843411922455
-0.999998927116394 0.23748785257339478 -0.06950267404317856
-0.1601451337337494 0.18180590867996216 -0.17305684089660645
-0.920863926410675 0.4278187155723572 -0.23608818650245667
0.534548819065094 0.1537339687347412 0.47497034072875977
0.9893258810043335 0.3963311016559601 0.02796817757189274
0.5980633497238159 -0.5351547598838806 -0.36711612343788147
0.9893258810043335 -0.13922400772571564 -0.04635588824748993
-0.6281376481056213 -0.3494108021259308 -0.17305684089660645
0.24752633273601532 0.1537339687347412 0.3543289601802826
0.8827092051506042 0.11174878478050232 0.07495605200529099
-0.5704455971717834 -0.4149942994117737 -0.36711612343788147
-0.8168728351593018 0.12797604501247406 -0.36711612343788147
-0.999998927116394 0.36099773645401 -0.1357996016740799
-0.5144591331481934 0.4278187155723572 0.161625474691391
-0.18690314888954163 0.379994660615921 0.5442793965339661
0.3241257071495056 -0.04463564231991768 -0.17305684089660645
0.9893258810043335 0.30914172530174255 0.21950191259384155
0.6054186224937439 0.01668453961610794 -0.36711612343788147
0.9893258810043335 -0.275835245847702 -0.06758232414722443
0.24642792344093323 -0.36601775884628296 0.07495605200529099
-0.03402247279882431 -0.49227267503738403 -0.11561955511569977
-0.6502355337142944 0.3734384775161743 -0.36711612343788147
0.9291760921478271 0.16854766011238098 -0.36711612343788147
0.7519841194152832 -0.17037981748580933 0.07495605200529099
-0.4762175977230072 0.4124581217765808 -0.17305684089660645
0.5640720129013062 -0.43235185742378235 -0.3362738788127899
-0.28527316451072693 0.4278187155723572 -0.1018732413649559
-0.6469664573669434 0.4278187155723572 0.18334417045116425
0.4310343265533447 -0.168275848031044 0.07495605200529099
-0.004550905432552099 0.4278187155723572 0.4320794641971588
0.9893258810043335 0.3540356755256653 -0.35133832693099976
0.5378855466842651 0.2966017425060272 0.5442793965339661
0.7311347723007202 0.4278187155723572 0.3018665313720703
0.3237787187099457 -0.41468483209609985 0.07495605200529099
0.6644067764282227 0.4278187155723572 -0.20807336270809174
-0.3340374827384949 0.4278187155723572 0.24467438459396362
0.558696448802948 0.1537339687347412 0.5393195748329163
-0.8796750903129578 0.4278187155723572 0.2017146199941635
-0.032165125012397766 -0.5395200848579407 -0.17305684089660645
0.8061457872390747 -0.060768190771341324 -0.36711612343788147
-0.00041077903006225824 0.4278187155723572 0.32687345147132874
-0.14835883677005768 0.1537339687347412 0.16140025854110718
-0.26376113295555115 -0.510298490524292 -0.17305684089660645
-0.1610303819179535 -0.5889472961425781 0.04132832959294319
0.8143341541290283 0.4278187155723572 0.07662834227085114
-0.36355751752853394 0.16935066878795624 -0.17305684089660645
0.9893258810043335 0.10893359780311584 -0.1215531975030899
-0.6639084219932556 -0.5889472961425781 -0.3154098391532898
0.7250735759735107 -0.3115752041339874 0.07495605200529099
0.39057934284210205 -0.20129606127738953 0.07495605200529099
-0.38966691493988037 0.03918512165546417 0.07495605200529099
-0.6392948627471924 -0.22363850474357605 -0.2178986817598343
0.17232543230056763 0.4278187155723572 0.46812713146209717
-0.8004872798919678 0.4040338397026062 -0.36711612343788147
0.2923084795475006 0.2546720504760742 -0.17305684089660645
0.0823245421051979 0.04421531409025192 -0.0694638341665268
-0.999998927116394 0.3300345540046692 0.23680534958839417
-0.36769339442253113 -0.28729918599128723 0.07495605200529099
-0.15828055143356323 0.1537339687347412 0.187818244099617
-0.38648757338523865 0.009916202165186405 -0.17305684089660645
-0.3263648748397827 0.24904659390449524 0.5442793965339661
-0.14612974226474762 0.3474853038787842 -0.17305684089660645
0.5792933106422424 0.1537339687347412 0.3513864278793335
0.5699593424797058 -0.09380795806646347 -0.32547739148139954
-0.7437503337860107 -0.4884124994277954 -0.36711612343788147
0.9893258810043335 -0.5190185308456421 -0.20771336555480957
-0.8993331789970398 -0.5681338906288147 -0.36711612343788147
0.27283239364624023 0.4278187155723572 0.4060728847980499
-0.01665544882416725 0.3637707829475403 0.5442793965339661
-0.4119085371494293 -0.5889472961425781 -0.12755931913852692
-0.6040311455726624 0.3403124511241913 -0.17305684089660645
-0.6372292041778564 0.05059835687279701 -0.22168688476085663
0.565372884273529 0.4278187155723572 -0.3350423276424408
0.5759910345077515 0.019421013072133064 -0.31441596150398254
-0.26545989513397217 0.4278187155723572 0.35183843970298767
-0.350414514541626 0.1537339687347412 0.32551804184913635
0.05278826877474785 0.397329181432724 0.5442793965339661
0.6794856190681458 0.0702081173658371 0.07495605200529099
0.9893258810043335 -0.20678234100341797 -0.24436776340007782
0.8486397862434387 0.1537339687347412 0.21215380728244781
0.4803095757961273 -0.4253428876399994 -0.17305684089660645
0.6533254981040955 0.34745723009109497 0.5442793965339661
0.7337498068809509 -0.34321752190589905 0.07495605200529099
-0.9236692786216736 0.17719988524913788 -0.36711612343788147
-0.6697044372558594 0.4278187155723572 0.21888959407806396
-0.5682289004325867 0.3523561358451843 -0.36711612343788147
0.22050395607948303 0.0008105123415589333 0.07495605200529099
-0.40463122725486755 0.2275560051202774 -0.17305684089660645
0.9893258810043335 0.39138567447662354 0.001236289506778121
