-0.29216042160987854 -0.018515612930059433 -0.6373220086097717
0.29620179533958435 0.018393587321043015 0.7731494903564453
0.6400299668312073 -0.018515612930059433 -0.17119631171226501
0.7363178133964539 0.018393587321043015 -0.8735026717185974
0.1026712954044342 -0.018515612930059433 0.9702938199043274
0.0029392766300588846 0.018393587321043015 0.5408179759979248
-0.07347863912582397 0.018393587321043015 0.5444586277008057
-0.30042871832847595 -0.018515612930059433 0.6867977976799011
-0.5993792414665222 0.018393587321043015 -0.6480622887611389
0.3158380389213562 -0.007318256888538599 0.999998927116394
0.411197304725647 0.018393587321043015 0.7158925533294678
0.6161900758743286 0.010166083462536335 -0.3395872414112091
0.03907646983861923 0.008081015199422836 -0.9783342480659485
-0.19778752326965332 -0.018515612930059433 0.953227698802948
0.5279675126075745 -0.018515612930059433 -0.6150623559951782
0.3798815906047821 0.018393587321043015 -0.7928946614265442
0.6038954854011536 0.007895362563431263 0.5892260074615479
-0.20117706060409546 -0.018515612930059433 0.8165631890296936
-0.41213107109069824 -0.018515612930059433 0.9840247631072998
-0.03423706069588661 0.018393587321043015 -0.557914137840271
-0.7111634016036987 0.018393587321043015 -0.583082377910614
0.4254259169101715 -0.018515612930059433 0.6558907628059387
0.09925279766321182 -0.018515612930059433 0.8532161712646484
0.47830700874328613 -0.018515612930059433 -0.8254525661468506
-0.0034753892105072737 -0.018515612930059433 -0.47158485651016235
0.5120220184326172 -0.01784168928861618 -0.5835360288619995
0.10064275562763214 -0.018515612930059433 0.9940099716186523
-0.8006981611251831 -0.018515612930059433 0.7186989188194275
-0.8283196687698364 -0.018515612930059433 -0.9305442571640015
-0.6862978339195251 0.018393587321043015 -0.8425379991531372
0.2416462004184723 0.018393587321043015 -0.7714905142784119
0.4042665958404541 0.018393587321043015 -0.6931369304656982
0.722891628742218 0.018393587321043015 0.13615676760673523
-0.1824095994234085 -0.018515612930059433 -0.33453312516212463
-0.41018831729888916 0.018393587321043015 0.8036978840827942
-0.09957601875066757 0.018393587321043015 -0.4258597493171692
0.3707163333892822 0.018393587321043015 -0.9146833419799805
0.7085061073303223 -0.018515612930059433 -0.7491127252578735
-0.794287919998169 -0.018515612930059433 -0.1585623323917389
0.6161900758743286 -0.010562082752585411 0.23289500176906586
0.4561569392681122 0.018393587321043015 -0.8577908873558044
-0.44056233763694763 0.018393587321043015 0.9780430793762207
-0.6568515300750732 -0.018515612930059433 0.9460853934288025
0.24747556447982788 -0.018515612930059433 0.9979228973388672
-0.8477656841278076 -0.014836268499493599 0.6000962853431702
0.11441106349229813 -0.018515612930059433 -0.7712059020996094
0.2805215120315552 0.018393587321043015 0.728313684463501
-0.6259629130363464 -0.018515612930059433 0.8491852879524231
-0.6706632375717163 -0.018515612930059433 0.8593470454216003
-0.5546019673347473 0.018393587321043015 0.8860440254211426
0.16624048352241516 -0.018515612930059433 -0.08792725950479507
-0.22449900209903717 0.018393587321043015 0.6568535566329956
0.6387004852294922 0.018393587321043015 0.8935417532920837
-0.7072402238845825 0.018393587321043015 -0.048849236220121384
-0.7772122621536255 0.0026580267585814 0.9357173442840576
0.1366366595029831 0.018393587321043015 -0.8651694059371948
-0.09612667560577393 0.018393587321043015 0.18385525047779083
0.7338528037071228 0.018393587321043015 0.6711461544036865
-0.837101399898529 0.018393587321043015 -0.7881671786308289
-0.34379464387893677 0.018393587321043015 0.8594790697097778
-0.6244383454322815 0.018393587321043015 -0.019108595326542854
0.14890378713607788 -0.018515612930059433 0.3095571994781494
0.10705681890249252 0.018393587321043015 -0.9442223310470581
-0.7998630404472351 -0.018515612930059433 0.9931789636611938
-0.30057090520858765 0.018393587321043015 -0.8191667795181274
-0.8477656841278076 -0.007550287060439587 0.997721791267395
-0.02678791619837284 -0.018515612930059433 -0.42783910036087036
0.048976801335811615 -0.018515612930059433 -0.8231077194213867
-0.09959643334150314 -0.018515612930059433 -0.6867092251777649
-0.6489354372024536 -0.018515612930059433 0.7350151538848877
0.23353369534015656 -0.018515612930059433 0.8882811069488525
0.8435615301132202 -0.004400536417961121 -0.06189979240298271
-0.6383645534515381 0.018393587321043015 0.051755648106336594
-0.16311146318912506 0.018393587321043015 -0.938475489616394
0.3934312164783478 -0.018515612930059433 0.8359101414680481
-0.05277928709983826 0.018393587321043015 0.9885815382003784
-0.4667237102985382 0.018393587321043015 0.7606446743011475
0.6894627213478088 -0.018515612930059433 0.6884860396385193
-0.06039328873157501 -0.018515612930059433 -0.3002324402332306
-0.09230280667543411 -0.018515612930059433 0.4172190725803375
0.2970678508281708 0.018393587321043015 0.8721193075180054
0.49943894147872925 0.018393587321043015 0.9610540866851807
0.04453325271606445 -0.018515612930059433 0.42392274737358093
0.1039217934012413 0.018393587321043015 0.20604373514652252
0.5400837659835815 0.018393587321043015 0.6491223573684692
-0.8477656841278076 0.004839799366891384 -0.37787842750549316
0.030697010457515717 -0.018515612930059433 0.21066901087760925
-0.16901558637619019 0.018393587321043015 0.4347536265850067
0.7137298583984375 0.018393587321043015 0.6018612384796143
0.1984856128692627 0.018393587321043015 0.1916116625070572
-0.42664775252342224 0.018393587321043015 -0.6284502148628235
-0.11210240423679352 0.018393587321043015 -0.8629370331764221
0.024456333369016647 -0.018515612930059433 -0.7696059346199036
0.03497464954853058 0.018393587321043015 -0.9209369421005249
0.7200464606285095 0.018393587321043015 0.9791066646575928
-0.8240269422531128 0.018393587321043015 -0.07890177518129349
0.7388070225715637 0.018393587321043015 0.5103074908256531
-0.4302619695663452 -0.018515612930059433 -0.8509077429771423
0.6976931095123291 -0.018515612930059433 0.00812273658812046
0.7335097789764404 -0.018515612930059433 0.6403419375419617
-0.6720970869064331 -0.018515612930059433 0.8543509840965271
0.3790980875492096 0.018393587321043015 0.9829884767532349
-0.0192271638661623 -0.018515612930059433 0.46296948194503784
-0.40174540877342224 0.018393587321043015 0.7141036987304688
-0.16933579742908478 0.018393587321043015 -0.33655327558517456
0.6900618672370911 0.018393587321043015 0.815651535987854
-0.030628595501184464 0.018393587321043015 -0.43605318665504456
0.6964471340179443 -0.018515612930059433 0.30839651823043823
-0.8248603343963623 -0.018515612930059433 -0.11924577504396439
0.69334477186203 -0.018515612930059433 0.2280072718858719
-0.83039391040802 0.018393587321043015 0.9960193634033203
0.19055019319057465 -0.018515612930059433 -0.1422571986913681
0.47722524404525757 -0.004537876229733229 0.6552701592445374
-0.45601847767829895 0.002759798662737012 -0.9783342480659485
0.7296097278594971 0.018393587321043015 0.7187838554382324
0.6880638599395752 0.018393587321043015 0.4878537952899933
-0.694346010684967 -0.018515612930059433 -0.3133314549922943
-0.6316772699356079 0.018393587321043015 0.2591785192489624
0.21426747739315033 0.018393587321043015 -0.6591050028800964
-0.39280104637145996 -0.018515612930059433 -0.8306663632392883
0.1575145572423935 -0.018515612930059433 -0.8494183421134949
0.7864993810653687 0.018393587321043015 -0.12646420300006866
-0.10235914587974548 0.018393587321043015 0.3835337162017822
-0.780855119228363 0.018393587321043015 -0.6846606135368347
0.13314063847064972 -0.018515612930059433 -0.3698106110095978
-0.8477656841278076 0.008779212832450867 -0.17538690567016602
-0.07287192344665527 -0.018515612930059433 0.013640156015753746
-0.660427987575531 -0.018515612930059433 0.6316064596176147
0.0031378467101603746 0.018393587321043015 -0.024964913725852966
-0.7414048910140991 -0.018515612930059433 -0.6260088086128235
0.1714235544204712 0.018393587321043015 -0.1536739468574524
0.8396939039230347 0.018393587321043015 -0.45751523971557617
0.2465038150548935 0.018393587321043015 0.7189999222755432
-0.7935365438461304 0.018393587321043015 -0.8329447507858276
0.07654932141304016 0.018393587321043015 -0.5057437419891357
0.24842093884944916 0.018393587321043015 0.755481481552124
0.6176272630691528 0.018393587321043015 0.6665267944335938
-0.6957002878189087 0.018393587321043015 -0.6264635324478149
-0.8075660467147827 -0.018515612930059433 0.003503372659906745
0.08605794608592987 0.018393587321043015 0.016658321022987366
0.40398672223091125 -0.018515612930059433 -0.6399272084236145
0.7566208839416504 0.018393587321043015 -0.04940347746014595
-0.04266437888145447 -0.018515612930059433 -0.542288064956665
0.059026483446359634 0.018393587321043015 -0.04666794091463089
0.6155393719673157 0.018393587321043015 -0.952836275100708
0.18697001039981842 0.018393587321043015 0.16167964041233063
-0.10076028108596802 -0.018515612930059433 -0.7032314538955688
-0.7025485038757324 -0.018515612930059433 -0.21275688707828522
0.7673453092575073 -0.018515612930059433 0.1750229299068451
-0.7847498655319214 0.018393587321043015 0.6533015966415405
0.8435615301132202 0.007375403307378292 -0.6531563401222229
-0.38641226291656494 0.011524159461259842 -0.9783342480659485
0.6124879121780396 -0.018515612930059433 -0.5657891631126404
-0.021051613613963127 0.018393587321043015 -0.754348874092102
0.33195021748542786 -0.018515612930059433 -0.5973206162452698
0.7509554624557495 -0.0035839432384818792 -0.9783342480659485
0.6502223610877991 0.018393587321043015 0.5502006411552429
-0.29331761598587036 -0.018515612930059433 -0.7957887649536133
0.16388177871704102 -0.018515612930059433 -0.7393620014190674
-0.7518154978752136 -0.018515612930059433 -0.8427398800849915
0.49445003271102905 -0.018515612930059433 -0.974513590335846
0.23720403015613556 0.007514475379139185 0.999998927116394
-0.4658244550228119 -0.006353536620736122 0.999998927116394
0.04708288237452507 -0.018515612930059433 0.8093921542167664
-0.21231645345687866 -0.018515612930059433 -0.3205299973487854
0.03269675374031067 0.018393587321043015 0.3507864475250244
0.829293429851532 -0.018515612930059433 -0.6153948307037354
-0.8162909150123596 0.018393587321043015 0.00321747618727386
0.17096157371997833 0.018393587321043015 0.570306122303009
-0.09345563501119614 -0.018515612930059433 -0.7558431625366211
0.6542094945907593 -0.018515612930059433 0.5321652889251709
-0.7751353979110718 0.018393587321043015 -0.7538238763809204
0.0914175733923912 -0.018515612930059433 0.9224162697792053
0.6629664301872253 0.018393587321043015 -0.6532959342002869
0.6305612921714783 -0.018515612930059433 0.9258890151977539
0.8435615301132202 0.0036076181568205357 -0.7432440519332886
0.7890239357948303 0.018393587321043015 -0.013494535349309444
-0.6293637752532959 -0.018515612930059433 -0.014067492447793484
-0.559712290763855 0.018393587321043015 -0.5767238140106201
-0.4185096025466919 0.018393587321043015 -0.7986860275268555
-0.181478813290596 0.018393587321043015 -0.2900579571723938
0.29539984464645386 -0.018515612930059433 0.659112811088562
0.1442929059267044 0.018393587321043015 -0.7830016613006592
0.5759862661361694 -0.013642486184835434 0.625475287437439
0.13205938041210175 -0.018515612930059433 0.17891857028007507
0.10188068449497223 -0.018515612930059433 -0.033471107482910156
0.11057409644126892 -0.018515612930059433 -0.5577945113182068
-0.12290086597204208 -0.018515612930059433 0.5663796067237854
-0.1391478329896927 -0.018515612930059433 0.5275797843933105
-0.6467318534851074 -0.018515612930059433 -0.7543925642967224
0.8199976682662964 -0.018515612930059433 0.5793319940567017
0.0848826915025711 -0.018515612930059433 0.21322673559188843
-0.735118567943573 0.018393587321043015 -0.7999982833862305
0.19668257236480713 -0.018515612930059433 0.8293514251708984
0.12442271411418915 0.018393587321043015 -0.5421392917633057
-0.28169265389442444 0.018393587321043015 -0.7857732176780701
-0.7596569657325745 0.018393587321043015 0.2589895725250244
0.37258777022361755 -0.018515612930059433 -0.8078131079673767
-0.6219380497932434 0.018393587321043015 0.8547427654266357
-0.7272049188613892 -0.018515612930059433 0.3696408271789551
-0.39158564805984497 -0.018515612930059433 -0.9715816378593445
-0.7413941025733948 0.018393587321043015 0.4745612144470215
0.7697416543960571 -0.018515612930059433 0.5738056302070618
0.8435615301132202 -0.008580214343965054 -0.7216432094573975
0.36970171332359314 -0.018515612930059433 0.8112677931785583
-0.6814245581626892 0.018393587321043015 -0.41567525267601013
0.0043626269325613976 -0.018515612930059433 -0.9769377112388611
-0.09956014901399612 0.018393587321043015 -0.4464602768421173
-0.1343979686498642 -0.018515612930059433 -0.7998446226119995
-0.620394229888916 -0.013523027300834656 -0.3434161841869354
-0.45703569054603577 0.018393587321043015 0.8045838475227356
0.7915907502174377 0.018393587321043015 -0.7628492712974548
0.4127017557621002 0.018393587321043015 0.798832893371582
0.6171099543571472 -0.018515612930059433 -0.8187546730041504
0.20050711929798126 0.018393587321043015 0.20050148665905
-0.060779765248298645 -0.018515612930059433 0.1910960078239441
-0.6700555086135864 -0.018515612930059433 -0.51674485206604
-0.1864914894104004 -0.018515612930059433 0.4026678204536438
0.08949525654315948 0.018393587321043015 0.2436622530221939
0.6811568737030029 -0.018515612930059433 0.4941501021385193
-0.7443061470985413 -0.018515612930059433 -0.8440878391265869
-0.04146866127848625 0.018393587321043015 0.20368142426013947
-0.43873298168182373 0.018393587321043015 -0.6064674258232117
-0.3666543662548065 -0.018515612930059433 -0.9682834148406982
0.7051410675048828 -0.018515612930059433 -0.5839056372642517
-0.03818066418170929 0.018393587321043015 -0.3755081295967102
-0.8288281559944153 0.018393587321043015 0.16905203461647034
-0.7986310720443726 0.005633809603750706 0.999998927116394
0.3680247366428375 0.018393587321043015 0.9987510442733765
-0.029131310060620308 0.018393587321043015 0.7147253751754761
-0.023002341389656067 -0.018515612930059433 -0.2287243753671646
0.13276568055152893 0.018393587321043015 0.659261167049408
-0.13472987711429596 0.018393587321043015 0.349558562040329
-0.2791966497898102 0.018393587321043015 -0.7991761565208435
-0.7716856598854065 -0.018515612930059433 -0.6013358235359192
-0.09354618936777115 0.018393587321043015 0.6168938875198364
0.8234983086585999 -0.018515612930059433 0.008098490536212921
0.03668441250920296 -0.018515612930059433 0.12154576182365417
-0.22811591625213623 -0.018515612930059433 -0.9253901243209839
-0.6569462418556213 0.018393587321043015 0.051174987107515335
0.7163360118865967 0.018393587321043015 0.4299391508102417
0.5506063103675842 -0.018515612930059433 0.9189538359642029
-0.01048510242253542 0.018393587321043015 0.6172716021537781
-0.837128758430481 0.018393587321043015 -0.8986879587173462
0.8245919942855835 -0.018515612930059433 -0.5043635368347168
-0.6334193348884583 -0.018515612930059433 0.8798413872718811
0.0031898156739771366 0.018393587321043015 0.25026896595954895
0.18857784569263458 -0.018515612930059433 0.5558923482894897
0.1120636910200119 0.018393587321043015 0.06984987109899521
-0.7334293723106384 -0.018515612930059433 0.4014730155467987
-0.34666237235069275 0.018393587321043015 0.8126663565635681
0.08594033867120743 0.018393587321043015 -0.7692598700523376
-0.0068699950352311134 -0.018515612930059433 0.07109110802412033
-0.24982888996601105 0.018393587321043015 -0.8282573819160461
-0.6938188076019287 -0.016037439927458763 -0.9783342480659485
0.36231598258018494 0.018393587321043015 -0.8629021048545837
-0.1367829293012619 -0.018515612930059433 0.9323366284370422
-0.07127795368432999 0.018393587321043015 -0.6784285306930542
-0.6385381817817688 0.018393587321043015 0.08514947444200516
0.19481544196605682 0.018393587321043015 -0.5241380929946899
0.7035295963287354 0.018393587321043015 0.0079894894734025
-0.624125599861145 -0.018515612930059433 -0.5977740287780762
-0.8477656841278076 0.0181825440376997 -0.5468953251838684
0.6504983305931091 0.018393587321043015 0.2503409683704376
0.5884037613868713 0.01833314821124077 -0.5419939756393433
0.2965192496776581 0.018393587321043015 -0.8595729470252991
0.1620410829782486 0.018393587321043015 0.4173559546470642
-0.6820155382156372 -0.018515612930059433 -0.1445838361978531
-0.1903250366449356 0.018393587321043015 -0.0325503908097744
-0.6826497316360474 -0.018515612930059433 -0.9416698217391968
-0.3579619526863098 0.018393587321043015 -0.7762420773506165
-0.7176306247711182 0.018393587321043015 -0.5272257328033447
0.0039053810760378838 0.018393587321043015 0.28674253821372986
-0.7404588460922241 -0.018515612930059433 -0.3566589057445526
-0.3443339169025421 -0.018515612930059433 0.668870210647583
-0.7340260744094849 0.018393587321043015 -0.5683193802833557
-0.6279747486114502 -0.018515612930059433 -0.7794023156166077
0.6914944648742676 -0.018515612930059433 -0.9180089235305786
0.042511966079473495 0.018393587321043015 0.03598940744996071
0.6248784065246582 -0.018515612930059433 -0.48158735036849976
0.7959230542182922 -0.018515612930059433 -0.34071484208106995
-0.8129222393035889 -0.018515612930059433 -0.6138504147529602
-0.6896554827690125 0.018393587321043015 0.7849632501602173
-0.34033021330833435 0.018393587321043015 -0.6354418396949768
0.026393257081508636 -0.018515612930059433 0.28923389315605164
-0.14456866681575775 0.018393587321043015 -0.046253129839897156
-0.3241370618343353 0.018393587321043015 -0.8701258301734924
-0.3258061408996582 0.018393587321043015 -0.6770792007446289
-0.4374646544456482 0.018393587321043015 -0.6470589637756348
-0.14680804312229156 -0.018515612930059433 0.2918960750102997
-0.0742005854845047 0.018393587321043015 0.32160043716430664
-0.41459712386131287 0.008485840633511543 0.999998927116394
-0.21764102578163147 -0.002462283708155155 -0.3950696885585785
0.21343693137168884 0.01272022444754839 -0.3485511541366577
-0.04128660261631012 -0.018515612930059433 -0.9011539220809937
0.09811283648014069 0.018393587321043015 -0.1431892067193985
0.28302058577537537 -0.018515612930059433 0.7553281188011169
-0.8210772275924683 0.018393587321043015 -0.8230254054069519
-0.6186967492103577 0.018393587321043015 -0.8553141951560974
0.4225734770298004 -0.018515612930059433 0.9125678539276123
0.747585654258728 0.018393587321043015 -0.7526203393936157
0.7706708312034607 -0.018515612930059433 0.5706422328948975
-0.39780351519584656 0.003801666432991624 -0.9783342480659485
0.07982878386974335 0.018393587321043015 -0.03266913816332817
0.0942748636007309 -0.018515612930059433 -0.6739903688430786
0.8122448921203613 -0.018515612930059433 0.3643680512905121
-0.6429129242897034 -0.018515612930059433 -0.2585112750530243
-0.5914791226387024 0.018393587321043015 0.9399274587631226
-0.15535303950309753 0.018393587321043015 -0.09909411519765854
0.49532169103622437 0.017426444217562675 0.999998927116394
0.7818775177001953 0.018393587321043015 0.13573366403579712
0.06471884250640869 -0.018515612930059433 -0.4802009165287018
-0.004116982687264681 -0.018515612930059433 0.6592918038368225
-0.21764102578163147 -0.004612780176103115 -0.37841612100601196
-0.04938817396759987 -0.018515612930059433 -0.2169257402420044
0.5993637442588806 -0.018515612930059433 0.9314614534378052
0.5932554602622986 -0.018515612930059433 -0.7837504148483276
0.5054869651794434 0.018393587321043015 0.8833432793617249
-0.2128319889307022 -0.018515612930059433 -0.04058185592293739
-0.19897900521755219 0.018393587321043015 0.7421969771385193
-0.5479975938796997 -0.018515612930059433 0.9646619558334351
-0.801811695098877 0.018393587321043015 -0.907006025314331
-0.1430521011352539 -0.018515612930059433 0.3692145049571991
0.202560693025589 0.018393587321043015 -0.5410326719284058
0.8435615301132202 0.003284432692453265 0.7807486057281494
-0.2872501611709595 -0.018515612930059433 0.9137502312660217
0.6360658407211304 0.018393587321043015 -0.3524129390716553
-0.6310213804244995 -0.018515612930059433 0.5774921774864197
0.7395101189613342 0.018393587321043015 -0.8255656957626343
0.3896353542804718 0.018393587321043015 -0.5878083109855652
0.1264503449201584 0.018393587321043015 -0.8608592748641968
-0.21837610006332397 0.010613939724862576 0.5481595396995544
0.17064963281154633 0.018393587321043015 -0.13275843858718872
-0.8225840926170349 -0.018515612930059433 -0.1670515388250351
0.4782137870788574 0.018393587321043015 0.8701605796813965
-0.8477656841278076 0.017803341150283813 0.6999698877334595
-0.5357338190078735 -0.018515612930059433 -0.6444364190101624
-0.04099810868501663 -0.018515612930059433 0.10934749990701675
-0.7749309539794922 0.018393587321043015 0.5139563083648682
0.17326341569423676 -0.018515612930059433 -0.8529248237609863
-0.8477656841278076 0.007994919084012508 0.5594546794891357
0.10133856534957886 -0.018515612930059433 -0.1947847455739975
-0.6902199387550354 0.018393587321043015 0.4357328712940216
-0.6244755387306213 -0.018515612930059433 0.7321286201477051
-0.10467442125082016 0.018393587321043015 0.3041430115699768
0.7104300856590271 -0.018515612930059433 -0.19534488022327423
-0.056128811091184616 0.018393587321043015 -0.5224676728248596
-0.620394229888916 0.014682337641716003 0.08153218030929565
0.013651901856064796 -0.018515612930059433 0.04328731447458267
-0.17946328222751617 -0.018515612930059433 0.22910469770431519
0.15521354973316193 -0.018515612930059433 0.6710425615310669
-0.6439520716667175 0.018393587321043015 0.5902457237243652
-0.4083452820777893 -0.018515612930059433 0.8675801157951355
-0.19763065874576569 -0.018515612930059433 0.9753172397613525
-0.08270502835512161 0.018393587321043015 -0.02380029857158661
-0.4937378168106079 -0.018515612930059433 -0.9559532403945923
-0.7430064678192139 -0.018515612930059433 -0.28136372566223145
-0.8441691398620605 -0.006875368766486645 -0.9783342480659485
0.5150373578071594 0.018393587321043015 0.7008750438690186
0.6714264750480652 -0.018515612930059433 0.4317552447319031
0.1069926992058754 -0.018515612930059433 -0.41715896129608154
-0.7371304035186768 -0.018515612930059433 0.12242822349071503
-0.5223686099052429 -0.018515612930059433 0.8023678660392761
-0.8410476446151733 0.018393587321043015 0.5017852187156677
0.08938760310411453 -0.018515612930059433 -0.9685226082801819
-0.7386112213134766 0.018393587321043015 0.4862222671508789
-0.5746416449546814 -0.018515612930059433 -0.8060969114303589
-0.17828568816184998 0.018393587321043015 0.6310446858406067
-0.57924485206604 -0.018515612930059433 -0.8891582489013672
-0.15955297648906708 -0.018515612930059433 0.7825767993927002
-0.8230375647544861 -0.0032931105233728886 -0.9783342480659485
0.6594482064247131 0.018393587321043015 -0.30084463953971863
-0.12603242695331573 0.018393587321043015 0.24486269056797028
-0.1200854629278183 0.018393587321043015 0.27988409996032715
0.41531914472579956 0.018393587321043015 0.7280057072639465
0.32608115673065186 -0.018515612930059433 -0.6842182278633118
0.820982038974762 -0.018515612930059433 -0.8901164531707764
-0.7036536931991577 -0.0175600778311491 -0.9152140021324158
-0.2658766210079193 -0.018515612930059433 -0.7966379523277283
-0.11291497200727463 -0.018515612930059433 0.6025978326797485
-0.018664127215743065 -0.018515612930059433 -0.0437844879925251
-0.07507456094026566 0.018393587321043015 -0.8603726029396057
0.7259864211082458 -0.018515612930059433 -0.2381412535905838
0.12648944556713104 0.018393587321043015 -0.6432905793190002
0.6629025936126709 0.005873985588550568 0.999998927116394
-0.6854853630065918 -0.018515612930059433 0.12120290845632553
0.5801813006401062 -0.018515612930059433 -0.6362363696098328
0.12017083913087845 0.018393587321043015 0.5741531848907471
-0.4009532630443573 0.018393587321043015 0.7975884079933167
-0.40142807364463806 0.018393587321043015 0.8852724432945251
0.08086896687746048 0.018393587321043015 0.985805869102478
-0.706303596496582 0.018393587321043015 0.008967632427811623
-0.7239441275596619 0.003960066474974155 0.965374231338501
0.6306059956550598 0.018393587321043015 0.23704229295253754
-0.036061208695173264 0.018393587321043015 -0.5021660923957825
0.1859567016363144 0.018393587321043015 -0.0407714881002903
0.02171207405626774 0.018393587321043015 0.4873391389846802
-0.7800552845001221 0.018393587321043015 0.5219992995262146
0.2855128049850464 0.018393587321043015 -0.6400128602981567
0.7665671110153198 0.018393587321043015 -0.8028180003166199
0.614865243434906 -0.018515612930059433 -0.7809103727340698
0.8176225423812866 0.018393587321043015 0.42523133754730225
0.8435615301132202 0.0021585701033473015 -0.7894394397735596
-0.8477656841278076 0.009826432913541794 -0.7139953374862671
-0.4642449915409088 -0.004586606752127409 0.999998927116394
-0.3584255278110504 -0.0034334382507950068 0.6552701592445374
-0.5501011610031128 0.018393587321043015 -0.5913147926330566
-0.2070278376340866 -0.018515612930059433 -0.13249745965003967
0.007192813325673342 -0.018515612930059433 -0.6421443819999695
0.559015691280365 0.018393587321043015 0.9945086240768433
0.17920199036598206 0.018393587321043015 -0.5520573854446411
-0.13379879295825958 0.018393587321043015 0.9341495037078857
-0.15049993991851807 0.018393587321043015 -0.8706487417221069
0.7781527638435364 0.018393587321043015 -0.9561569094657898
-0.5470070242881775 -0.016635484993457794 0.6463953852653503
-0.7388525009155273 -0.018515612930059433 0.2732694149017334
0.3157276213169098 0.018393587321043015 -0.8770694732666016
-0.7991494536399841 -0.018515612930059433 0.01729358360171318
0.777521014213562 -0.018515612930059433 -0.5136924982070923
-0.620394229888916 -0.002610959345474839 -0.4405447244644165
-0.16311924159526825 -0.018515612930059433 -0.8046637177467346
-0.17234501242637634 -0.018515612930059433 0.756212055683136
-0.029378516599535942 -0.018515612930059433 -0.7608284950256348
-0.36788979172706604 -0.018515612930059433 0.7984461188316345
-0.48005950450897217 -0.018515612930059433 -0.6214015483856201
0.19386336207389832 0.018393587321043015 -0.6883267760276794
-0.6348116993904114 0.018393587321043015 0.3062840700149536
-0.18981972336769104 0.018393587321043015 0.44335806369781494
-0.7407734394073486 0.018393587321043015 0.8545401096343994
-0.07244490832090378 -0.018515612930059433 -0.3125946521759033
-0.8390589952468872 -0.018515612930059433 -0.04667861759662628
0.14603291451931 0.018393587321043015 -0.682917058467865
0.37567654252052307 0.018393587321043015 -0.8005276322364807
0.318126380443573 -0.018515612930059433 0.7965317368507385
-0.7956481575965881 -0.018515612930059433 -0.003703138791024685
-0.3273197412490845 -0.018515612930059433 -0.7050725817680359
-0.16747689247131348 0.018393587321043015 0.4267994165420532
-0.3910803496837616 -0.018515612930059433 0.8396067023277283
-0.15488044917583466 -0.018515612930059433 0.6932516694068909
-0.3413692116737366 -0.018515612930059433 0.8806113600730896
0.7500625252723694 0.018393587321043015 0.7396225333213806
0.7441006302833557 0.018393587321043015 -0.7146846055984497
-0.7552028298377991 0.018393587321043015 0.9972226619720459
0.19617265462875366 0.018393587321043015 0.8032504320144653
-0.21251456439495087 0.018393587321043015 -0.8824865221977234
0.3603638708591461 -0.018515612930059433 -0.6534477472305298
-0.7577890753746033 -0.018515612930059433 -0.28572502732276917
0.290075421333313 0.015648217871785164 -0.5771074891090393
-0.33339715003967285 -0.018515612930059433 -0.8176344037055969
0.1817500740289688 0.018393587321043015 -0.4991883933544159
0.5977461338043213 -0.018515612930059433 -0.6284563541412354
0.2911169230937958 0.018393587321043015 0.8750948309898376
0.14250686764717102 -0.018515612930059433 -0.3969692885875702
-0.8102806210517883 -0.018515612930059433 0.8059821128845215
0.08914609998464584 0.018393587321043015 0.3846403956413269
-0.060834094882011414 -0.018515612930059433 -0.16629059612751007
-0.002557388273999095 0.018393587321043015 0.18437020480632782
-0.0620332732796669 0.018393587321043015 0.18255615234375
0.8198448419570923 -0.018515612930059433 -0.8511605262756348
0.7704834342002869 -0.018515612930059433 -0.7180709838867188
0.8367031812667847 0.018393587321043015 -0.7631797194480896
0.8001903295516968 0.018393587321043015 0.9745603203773499
-0.06802285462617874 0.018393587321043015 -0.08032830059528351
0.3457474410533905 -0.018515612930059433 0.6824935078620911
-0.20239555835723877 0.018393587321043015 -0.6125141382217407
0.5333431959152222 0.018393587321043015 0.9287287592887878
0.30442512035369873 -0.018515612930059433 -0.9311168789863586
0.7992191314697266 0.013941958546638489 0.999998927116394
-0.34206849336624146 -0.018515612930059433 0.8194774985313416
-0.8356986045837402 -0.018515612930059433 0.7631297707557678
-0.5254456996917725 -0.01696750335395336 0.999998927116394
-0.19278579950332642 0.018393587321043015 -0.036765336990356445
-0.38651108741760254 0.018393587321043015 0.936536431312561
-0.5289509296417236 0.018393587321043015 -0.7317696809768677
-0.24041041731834412 -0.006294570863246918 -0.5359957218170166
0.1907147765159607 0.018393587321043015 0.4281308948993683
-0.3184744715690613 -0.018515612930059433 -0.771541178226471
-0.704530656337738 -0.00033416939550079405 -0.9232872724533081
0.5968930125236511 -0.018515612930059433 0.6176173686981201
0.7329657673835754 0.01659408025443554 0.999998927116394
0.060269344598054886 -0.018515612930059433 -0.2594562768936157
-0.21764102578163147 -0.01201252918690443 -0.2607364356517792
-0.06933309137821198 -0.018515612930059433 -0.05790933594107628
0.19478031992912292 0.018393587321043015 0.6216227412223816
0.2048254758119583 0.018393587321043015 -0.9153776168823242
-0.19790469110012054 -0.018515612930059433 0.8758798241615295
0.7552462220191956 -0.0023417759221047163 -0.8789780735969543
0.5532966256141663 0.0024556817952543497 -0.571090042591095
-0.32329097390174866 0.018393587321043015 -0.8004029393196106
-0.31665515899658203 0.018393587321043015 0.8716285824775696
0.15028618276119232 -0.018515612930059433 0.0492674820125103
-0.8379855155944824 -0.018515612930059433 -0.7868873476982117
-0.7486959099769592 0.018393587321043015 0.01029225904494524
0.6765182614326477 -0.018515612930059433 0.9972130060195923
-0.8328864574432373 -0.018515612930059433 0.1710316687822342
0.7119577527046204 0.018393587321043015 -0.2335958331823349
-0.6150038838386536 0.018393587321043015 0.757218062877655
-0.7607451677322388 0.018393587321043015 0.4775662422180176
0.7818151712417603 -0.018515612930059433 0.009382817894220352
-0.002310166833922267 0.018393587321043015 0.6835336685180664
0.07454787194728851 0.018393587321043015 0.9807196259498596
-0.2612704336643219 -0.018515612930059433 -0.6138675212860107
0.7687281370162964 0.018393587321043015 0.2772819697856903
-0.825087308883667 0.018393587321043015 -0.8192198276519775
-0.1188429668545723 -0.018515612930059433 0.5377630591392517
0.1548238843679428 -0.018515612930059433 0.14440026879310608
0.0066724130883812904 -0.018515612930059433 -0.3309271037578583
-0.4884346127510071 0.018393587321043015 -0.5889381170272827
-0.028915973380208015 -0.018515612930059433 0.7950723767280579
-0.41913628578186035 -0.018515612930059433 -0.762846052646637
-0.6538746356964111 -0.018515612930059433 0.5148164629936218
0.6405372023582458 -0.018515612930059433 -0.6104462742805481
0.6012524366378784 0.018393587321043015 0.6263723969459534
-0.1293754279613495 -0.018515612930059433 0.6001311540603638
0.6843691468238831 0.018393587321043015 -0.08514848351478577
0.2537655830383301 -0.018515612930059433 0.8352552056312561
0.8367115259170532 0.018393587321043015 0.10952161997556686
0.26162806153297424 0.018393587321043015 -0.7470566034317017
-0.5513095855712891 -0.018515612930059433 0.7599880695343018
0.12868854403495789 -0.018515612930059433 0.8511501550674438
0.713105320930481 0.018393587321043015 -0.7527632713317871
-0.6079490780830383 -0.018515612930059433 -0.6727626919746399
0.19752530753612518 0.018393587321043015 0.7357103228569031
-0.05566367506980896 0.018393587321043015 -0.07065021246671677
-0.2173338234424591 0.018393587321043015 -0.14372217655181885
0.3782862424850464 0.018393587321043015 0.8936419486999512
0.6283696889877319 0.018393587321043015 -0.5519552826881409
0.05496067553758621 -0.018515612930059433 -0.21678748726844788
-0.04221522808074951 -0.018515612930059433 -0.7890215516090393
0.2042831927537918 -0.018515612930059433 -0.9222901463508606
-0.16330739855766296 -0.018515612930059433 0.8981287479400635
-0.030913595110177994 -0.018515612930059433 0.024594206362962723
-0.6893343329429626 0.018393587321043015 0.17899982631206512
0.06062369421124458 0.018393587321043015 -0.6882832646369934
-0.04283638298511505 0.018393587321043015 0.30822068452835083
0.6545194983482361 0.018393587321043015 -0.6259941458702087
-0.350048691034317 0.018393587321043015 -0.8066304922103882
0.2838440537452698 -0.018515612930059433 -0.7656877040863037
-0.15234258770942688 0.018393587321043015 0.6982154846191406
0.6403685212135315 -0.018515612930059433 0.07968198508024216
0.08207717537879944 0.018393587321043015 -0.1618282049894333
-0.11846315115690231 0.018393587321043015 0.9112476110458374
-0.620394229888916 -0.002471137559041381 0.28634941577911377
0.0009044150938279927 0.018393587321043015 0.7327278256416321
-0.8092251420021057 0.018393587321043015 0.38299423456192017
-0.09775131195783615 -0.018515612930059433 -0.7113813161849976
-0.7442417144775391 0.013877106830477715 -0.8737612366676331
-0.8477656841278076 0.01070660911500454 -0.2462082803249359
0.5263970494270325 -0.018515612930059433 -0.8745774030685425
-0.09310831874608994 -0.018515612930059433 0.7255057096481323
0.02577158436179161 0.010515484027564526 0.9575268030166626
0.6831081509590149 -0.018008939921855927 -0.9783342480659485
-0.6474138498306274 -0.018515612930059433 -0.20231106877326965
0.8435615301132202 -0.006215447094291449 0.13707353174686432
0.6565854549407959 0.018393587321043015 -0.6556307077407837
-0.13254843652248383 -0.018515612930059433 0.14102491736412048
-0.8410276174545288 0.018393587321043015 0.040499813854694366
-0.5898484587669373 0.018393587321043015 0.7975204586982727
-0.6395996809005737 0.018393587321043015 -0.5999862551689148
-0.685950756072998 -0.018515612930059433 -0.6012945771217346
-0.3636978566646576 0.018393587321043015 0.76038658618927
0.8369290828704834 0.018393587321043015 -0.5963138937950134
0.18424667418003082 0.018393587321043015 -0.005344581790268421
-0.812383770942688 0.018393587321043015 0.8215032815933228
0.30016565322875977 -0.018515612930059433 -0.7660943865776062
0.8435615301132202 -0.011119881644845009 -0.26893511414527893
-0.6562718749046326 0.018393587321043015 0.688242495059967
0.8391982913017273 0.018393587321043015 -0.17247486114501953
0.359281063079834 -0.018515612930059433 -0.8310537338256836
-0.6358507871627808 0.018393587321043015 0.13360653817653656
0.7540178894996643 0.018393587321043015 0.5392255783081055
0.6136758923530579 0.018393587321043015 -0.9138152003288269
-0.3951469361782074 0.018393587321043015 -0.7333447933197021
-0.8210181593894958 0.018393587321043015 0.9520912766456604
-0.7799494862556458 0.018393587321043015 -0.9355046153068542
0.5412124395370483 -0.018515612930059433 -0.804683268070221
0.12029220163822174 0.018393587321043015 0.8001107573509216
0.05587880685925484 -0.018515612930059433 -0.14132502675056458
-0.180851012468338 0.018393587321043015 -0.3555120825767517
0.8435615301132202 -0.014962008222937584 -0.8204463720321655
0.45550602674484253 0.018393587321043015 -0.5904787182807922
0.7440229058265686 0.018393587321043015 0.5098925232887268
0.05166347697377205 -0.018515612930059433 0.3463365435600281
0.15535330772399902 0.018393587321043015 0.2188822627067566
-0.7328658103942871 -0.018515612930059433 -0.3824622631072998
0.6371214389801025 0.018393587321043015 0.15827669203281403
-0.2857556939125061 0.018393587321043015 0.8183417320251465
-0.12258332967758179 0.018393587321043015 -0.3856827914714813
-0.33273106813430786 0.018393587321043015 0.7260516881942749
0.7318093776702881 -0.018515612930059433 0.972893476486206
0.48995083570480347 0.018393587321043015 -0.8937845826148987
-0.11549229919910431 -0.018515612930059433 -0.24655452370643616
-0.33034250140190125 0.018393587321043015 -0.9767286777496338
-0.34888702630996704 -0.018515612930059433 0.9078329205513
-0.7065680027008057 -0.018515612930059433 0.27476993203163147
-0.12024205923080444 0.018393587321043015 0.9410735368728638
0.4713553786277771 0.018393587321043015 -0.7789185047149658
-0.20095092058181763 -0.018515612930059433 -0.20699985325336456
-0.7610768675804138 0.018393587321043015 -0.10280734300613403
0.574251651763916 -0.018515612930059433 -0.6150748133659363
0.7192177772521973 -0.018515612930059433 0.5602752566337585
-0.47208818793296814 -0.018515612930059433 -0.9577730894088745
-0.33953240513801575 -0.018515612930059433 0.6782791614532471
0.15796656906604767 -0.018515612930059433 -0.1440475434064865
-0.18365293741226196 0.018393587321043015 -0.49704793095588684
-0.004505343269556761 0.018393587321043015 0.6231208443641663
0.10939206182956696 -0.018515612930059433 0.9260264039039612
-0.7848103642463684 0.018393587321043015 -0.012588953599333763
-0.6656373143196106 -0.018515612930059433 0.9544242024421692
0.17789271473884583 0.018393587321043015 0.316448450088501
-0.7349812984466553 0.018393587321043015 -0.04835197702050209
0.3882421851158142 0.018393587321043015 0.7908992171287537
-0.051241446286439896 -0.018515612930059433 0.13966116309165955
0.8151102662086487 0.018393587321043015 0.4582750201225281
-0.6872920393943787 -0.018515612930059433 -0.4565857946872711
0.05716083571314812 0.018393587321043015 0.05111341550946236
0.1528695672750473 0.018393587321043015 0.5781843066215515
0.5690880417823792 -0.018515612930059433 -0.6463056802749634
0.055382467806339264 0.018393587321043015 0.9982056021690369
0.10590486973524094 -0.018515612930059433 0.4332111179828644
0.10776607692241669 -0.018515612930059433 -0.1766209453344345
-0.09836296737194061 0.018393587321043015 0.4648646116256714
0.31467127799987793 -0.018515612930059433 0.811026394367218
-0.008693666197359562 -0.018515612930059433 0.5065126419067383
-0.12457713484764099 -0.018515612930059433 -0.840522050857544
-0.5546822547912598 -0.018515612930059433 -0.7699277997016907
-0.6853570342063904 0.018393587321043015 0.41385015845298767
-0.6367913484573364 0.018393587321043015 -0.5845835208892822
-0.7942562699317932 0.018393587321043015 0.6060810089111328
0.5412366986274719 -0.018515612930059433 0.6852745413780212
-0.05883193016052246 0.018393587321043015 -0.45228347182273865
-0.1652441769838333 0.018393587321043015 0.624893844127655
-0.782900333404541 0.018393587321043015 0.4424642026424408
0.6380695104598999 0.018393587321043015 -0.9389044642448425
0.3582497835159302 -0.018515612930059433 -0.8115315437316895
0.17536194622516632 -0.018515612930059433 -0.05391166731715202
-0.0825425237417221 0.018393587321043015 0.42297396063804626
-0.7848504781723022 0.018393587321043015 0.11887884140014648
-0.1141599714756012 0.018393587321043015 0.30529335141181946
-0.7301104068756104 0.018393587321043015 -0.16235798597335815
-0.11070263385772705 -0.018515612930059433 -0.6188130974769592
0.17582808434963226 -0.018515612930059433 -0.09871471673250198
0.18920768797397614 0.018393587321043015 0.8757162690162659
-0.1441705971956253 -0.018515612930059433 0.819437563419342
-0.14465147256851196 -0.01771385408937931 0.999998927116394
-0.42283061146736145 0.018393587321043015 -0.7733997106552124
0.028238914906978607 -0.018515612930059433 -0.8326213359832764
0.825592577457428 -0.018515612930059433 -0.8059202432632446
0.014590813778340816 -0.015365705825388432 0.8990510702133179
-0.2054942101240158 -0.018515612930059433 -0.15082941949367523
0.02764088101685047 0.0004068380512762815 0.9104967713356018
-0.23143349587917328 0.018393587321043015 0.8099631071090698
0.12392248213291168 -0.018515612930059433 -0.467685341835022
0.6975456476211548 0.018393587321043015 0.1574074625968933
0.7417564988136292 0.018393587321043015 0.13326908648014069
0.8155480027198792 0.018393587321043015 -0.4134930372238159
-0.038210757076740265 -0.018515612930059433 0.4868543744087219
-0.8032845854759216 0.018393587321043015 0.5995433330535889
0.7459237575531006 0.018393587321043015 0.12057166546583176
-0.1937803030014038 -0.018515612930059433 -0.44059547781944275
0.2883422076702118 -0.013446683995425701 0.6468745470046997
-0.27283889055252075 -0.018515612930059433 -0.6370656490325928
0.7852094173431396 0.018393587321043015 0.5670146942138672
0.4571371078491211 0.018393587321043015 -0.6801114082336426
0.717012345790863 0.018393587321043015 -0.2575366497039795
0.5790658593177795 0.014539615251123905 0.999998927116394
-0.7979180812835693 -0.018515612930059433 0.21004925668239594
0.6610347628593445 0.018393587321043015 0.780074417591095
-0.2034914195537567 0.018393587321043015 -0.07217918336391449
-0.5726438760757446 0.018393587321043015 0.8889890313148499
-0.1581958830356598 0.018393587321043015 -0.007837572135031223
-0.3000505566596985 -0.018515612930059433 0.6707048416137695
-0.1762770265340805 0.018393587321043015 0.8092045783996582
0.02352219820022583 0.018393587321043015 0.7827675342559814
0.044964004307985306 -0.018515612930059433 -0.7565043568611145
0.040226858109235764 -0.018515612930059433 0.4531872272491455
-0.33875763416290283 0.018393587321043015 -0.7929227948188782
0.2097659707069397 -0.018515612930059433 -0.4683368504047394
-0.620394229888916 0.017392892390489578 -0.09067780524492264
-0.5415523052215576 0.018393587321043015 -0.947516679763794
-0.15647050738334656 0.018393587321043015 -0.0671599879860878
-0.03500571474432945 0.018393587321043015 -0.6022113561630249
0.8423716425895691 -0.018515612930059433 0.631721019744873
0.7068666815757751 -0.018515612930059433 0.9570057392120361
-0.1976756900548935 0.018393587321043015 0.6257098317146301
0.02043026126921177 -0.018515612930059433 0.04803232103586197
-0.19540643692016602 0.018393587321043015 -0.5170469284057617
-0.09307117760181427 0.018393587321043015 -0.18525540828704834
0.591096043586731 0.014894645661115646 0.999998927116394
0.8042207956314087 -0.018515612930059433 -0.14738981425762177
-0.8352578282356262 -0.018515612930059433 0.22550497949123383
0.16740106046199799 -0.018515612930059433 0.08997438848018646
0.4714854955673218 -0.004405235406011343 -0.5848789811134338
-0.19742760062217712 -0.018515612930059433 -0.20990245044231415
0.013953405432403088 -0.018515612930059433 -0.23457978665828705
-0.788855254650116 -0.018515612930059433 -0.31881049275398254
0.20478172600269318 0.018393587321043015 0.6112440824508667
-0.7909444570541382 0.018393587321043015 -0.2580268383026123
-0.7060272097587585 0.018393587321043015 -0.5720598101615906
-0.8477656841278076 0.005842356011271477 -0.11684050410985947
-0.6053924560546875 -0.0006318187806755304 -0.5239834189414978
0.42819809913635254 -0.018515612930059433 -0.7948824167251587
-0.7626087069511414 -0.016920093446969986 0.999998927116394
-0.5025734305381775 0.018393587321043015 0.9117324948310852
0.5361955165863037 -0.018515612930059433 0.9082386493682861
-0.04054587706923485 0.018393587321043015 0.8733389377593994
0.1668369323015213 -0.018515612930059433 -0.15767993032932281
-0.018105410039424896 0.018393587321043015 0.7344064712524414
0.6712498068809509 -0.018515612930059433 0.18447834253311157
-0.11868684738874435 0.018393587321043015 -0.0502241849899292
0.12813830375671387 0.018393587321043015 0.4078048765659332
-0.44977355003356934 -0.018515612930059433 0.8784329891204834
0.11800294369459152 0.018393587321043015 0.08913084864616394
-0.16457389295101166 -0.018515612930059433 0.6262471079826355
0.7048760652542114 0.018393587321043015 0.6804248094558716
0.5462431907653809 0.018393587321043015 -0.838258683681488
-0.07286283373832703 0.018393587321043015 -0.14421135187149048
0.33521461486816406 0.018393587321043015 0.7121939063072205
0.13709059357643127 0.018393587321043015 -0.8927343487739563
-0.8357565402984619 -0.018515612930059433 -0.84214848279953
-0.20408222079277039 -0.018515612930059433 -0.03566037490963936
-0.26132431626319885 -0.018515612930059433 0.8847452998161316
0.6816483736038208 0.018393587321043015 0.40440821647644043
-0.12511414289474487 0.018393587321043015 0.31573519110679626
-0.6909281015396118 -0.018515612930059433 -0.1203588992357254
-0.42271688580513 0.018393587321043015 0.7407673597335815
0.8233794569969177 0.018393587321043015 -0.6898499727249146
0.13047920167446136 0.018393587321043015 0.9410350918769836
0.7368428111076355 -0.018515612930059433 0.03751911222934723
-0.6346486210823059 -0.018515612930059433 0.370990127325058
0.10978096723556519 0.018393587321043015 0.3247586190700531
-0.6453176140785217 0.018393587321043015 0.6616499423980713
-0.6729758381843567 0.018393587321043015 -0.48500800132751465
0.8390711545944214 -0.018515612930059433 0.4407155215740204
0.5250604748725891 -0.018515612930059433 0.7661049962043762
0.22226321697235107 -0.018515612930059433 0.7943946123123169
0.7874700427055359 -0.018515612930059433 -0.4614162743091583
-0.2662571966648102 -0.018515612930059433 -0.8984515070915222
-0.5508803725242615 0.018393587321043015 -0.7779412269592285
0.14379367232322693 -0.018515612930059433 -0.026810569688677788
-0.029841026291251183 -0.018515612930059433 -0.0884304940700531
0.7898852825164795 0.018393587321043015 0.26423925161361694
0.422086626291275 0.018393587321043015 -0.8775818347930908
0.7884760499000549 0.018393587321043015 -0.8920689225196838
0.40949851274490356 -0.018515612930059433 -0.7298794388771057
0.6253284215927124 0.018393587321043015 -0.28365153074264526
0.12246519327163696 0.018393587321043015 0.6660491824150085
0.6142473816871643 0.018393587321043015 0.8840789198875427
0.2573864459991455 -0.018515612930059433 0.7030475735664368
-0.026589684188365936 0.018393587321043015 0.4242208003997803
0.07397368550300598 -0.018515612930059433 -0.22832714021205902
0.8005289435386658 -0.018515612930059433 -0.23339170217514038
-0.7638676166534424 0.018393587321043015 0.5850287675857544
0.24415577948093414 0.018393587321043015 -0.9539455771446228
0.12236811965703964 0.018393587321043015 -0.04183691367506981
-0.21321192383766174 -0.018515612930059433 -0.0005536110838875175
0.6589805483818054 0.018393587321043015 -0.783615231513977
0.7354369163513184 0.005129800643771887 0.9695865511894226
-0.6293899416923523 0.018393587321043015 0.8892123699188232
0.6787078976631165 -0.018515612930059433 0.13709580898284912
0.3895642161369324 0.0009434051462449133 0.6552701592445374
-0.21727533638477325 0.018393587321043015 0.5224512815475464
-0.05576714500784874 0.018393587321043015 -0.23812004923820496
0.8179762959480286 -0.018515612930059433 -0.4145933985710144
-0.30423182249069214 -0.018515612930059433 0.9348448514938354
0.13529354333877563 0.018393587321043015 0.708209216594696
-0.6099374294281006 0.018393587321043015 -0.7988476157188416
0.21343693137168884 0.008092863485217094 0.04598494991660118
-0.1646929830312729 -0.018515612930059433 0.25776615738868713
-0.5417215824127197 -0.018515612930059433 -0.5912559628486633
-0.2799311876296997 0.018393587321043015 0.9565791487693787
-0.6599976420402527 -0.018515612930059433 0.08288232237100601
-0.40127822756767273 0.018393587321043015 0.7748733758926392
0.0711556151509285 0.018393587321043015 0.46681833267211914
-0.7295089364051819 0.018393587321043015 -0.24841588735580444
-0.1840742528438568 0.018393587321043015 -0.6164435148239136
-0.8274402618408203 0.018393587321043015 0.6935132145881653
0.5932663083076477 0.018393587321043015 -0.7475594878196716
-0.7286957502365112 0.018393587321043015 0.8455477952957153
0.6101722717285156 0.018393587321043015 0.9361607432365417
-0.08057025820016861 0.018393587321043015 0.8300988078117371
0.624180257320404 -0.018515612930059433 0.37342533469200134
0.3909520208835602 0.018393587321043015 0.9690616726875305
0.003079228801652789 0.018393587321043015 0.16974180936813354
0.032784901559352875 -0.018515612930059433 -0.5002372860908508
0.1489989161491394 -0.018515612930059433 -0.7031179070472717
