-0.5646587610244751 -0.8149035573005676 0.040319494903087616
-0.4861402213573456 0.871347188949585 -0.3372756242752075
-0.82682865858078 -0.46429088711738586 -0.36482492089271545
-0.82682865858078 -0.25475120544433594 -0.20434361696243286
0.11175141483545303 -0.9868884086608887 -0.38563916087150574
0.29688823223114014 -0.9485510587692261 -0.2036026269197464
0.15156255662441254 -0.17464542388916016 0.08859235048294067
0.8338385820388794 -0.09859464317560196 -0.2310521900653839
0.580024242401123 -0.8090445399284363 0.2325328141450882
0.8338385820388794 0.21765626966953278 -0.11697322875261307
-0.7673331499099731 0.5400998592376709 0.3948744833469391
-0.7604601383209229 0.11242185533046722 0.4207257926464081
-0.5744974613189697 -0.8079607486724854 0.12742115557193756
0.04780258610844612 -0.1991063803434372 0.04349971562623978
0.7695944309234619 0.015397283248603344 0.4207257926464081
0.006309781223535538 0.21107664704322815 -0.28842735290527344
0.17563652992248535 -0.11218007653951645 0.04032943397760391
-0.5965369343757629 -0.7918054461479187 0.03161690756678581
0.18069760501384735 0.11144337058067322 -0.2876155376434326
0.13948756456375122 -0.5857083201408386 -0.40960779786109924
0.8338385820388794 0.43301209807395935 0.34901368618011475
0.7677389979362488 0.41976985335350037 -0.40960779786109924
0.08931872993707657 -0.36778947710990906 0.4207257926464081
0.4462396204471588 -0.8890040516853333 -0.3690180778503418
-0.1333746612071991 -0.2662205696105957 -0.40960779786109924
-0.82682865858078 -0.10311710834503174 0.4091919958591461
-0.4618750810623169 0.2660902738571167 -0.40960779786109924
-0.4417223334312439 -0.8877328038215637 -0.043387942016124725
-0.17355728149414062 -0.22243312001228333 0.08859235048294067
0.5956506133079529 0.05088946968317032 0.4207257926464081
0.378714919090271 0.5336421728134155 -0.40960779786109924
0.012830148451030254 -0.5383425354957581 0.4207257926464081
0.8338385820388794 0.07939964532852173 -0.33690816164016724
-0.138714998960495 -0.14729522168636322 -0.05888368934392929
0.8338385820388794 -0.1443522870540619 0.4204777777194977
-0.4009890854358673 -0.054794423282146454 0.4207257926464081
-0.39378634095191956 0.2719370722770691 -0.40960779786109924
0.6855957508087158 0.729912519454956 -0.07558944821357727
0.20649801194667816 0.046938393265008926 -0.11668498814105988
0.1295144259929657 -0.1612825095653534 -0.2794099450111389
0.6669327616691589 -0.19770556688308716 -0.40960779786109924
-0.7984856963157654 -0.3045232892036438 0.4207257926464081
-0.6380730867385864 -0.6226255297660828 -0.40960779786109924
-0.6912904977798462 0.7177356481552124 0.13299840688705444
0.08955782651901245 0.9962601661682129 -0.3275447189807892
0.8338385820388794 0.16905774176120758 -0.04403965175151825
-0.4174638092517853 0.3186066746711731 0.4207257926464081
-0.1753879338502884 -0.5096343755722046 0.4207257926464081
0.12901341915130615 0.1688632071018219 -0.2592892646789551
-0.2503175139427185 0.4577747881412506 0.4207257926464081
0.324558824300766 0.08831388503313065 0.1629199981689453
-0.4973447620868683 -0.2679031491279602 0.4207257926464081
-0.4519404470920563 -0.8826150894165039 -0.023975897580385208
-0.08066762983798981 0.9963951706886292 0.22666563093662262
0.3322432041168213 0.05044091120362282 0.3572347164154053
0.14451704919338226 0.1649637073278427 -0.3335527181625366
-0.82682865858078 0.08947896957397461 -0.24697114527225494
-0.18894273042678833 -0.751119077205658 -0.40960779786109924
-0.1749144047498703 0.10961034893989563 0.012401362881064415
0.8073572516441345 0.5922927260398865 0.2953251302242279
-0.3896127939224243 0.37704235315322876 -0.40960779786109924
0.7901958227157593 -0.6078540682792664 -0.009024244733154774
-0.82682865858078 0.012522157281637192 0.13701961934566498
-0.5024776458740234 0.13218143582344055 -0.40960779786109924
-0.11522182822227478 -0.257794588804245 -0.40632423758506775
0.8338385820388794 -0.5374476909637451 0.12381142377853394
-0.49421200156211853 0.18775807321071625 0.4207257926464081
-0.17165236175060272 0.9248340725898743 0.39631932973861694
0.20922914147377014 0.02983463555574417 -0.21659952402114868
-0.82682865858078 -0.12737831473350525 0.08041857182979584
-0.42158496379852295 -0.47835180163383484 -0.40960779786109924
0.2808029353618622 0.4647699296474457 0.4207257926464081
-0.82682865858078 0.5260362029075623 0.1066817045211792
-0.82682865858078 0.17086336016654968 0.16576062142848969
0.34105443954467773 0.9410614967346191 0.1737709939479828
-0.6229110360145569 0.6884817481040955 0.40592697262763977
-0.5250953435897827 0.8071597218513489 0.37222784757614136
0.17673109471797943 -0.9775628447532654 0.31813758611679077
0.2882955074310303 -0.1672326922416687 0.3673202395439148
0.03671513870358467 0.9994181990623474 0.08511929959058762
-0.29613104462623596 0.9538573622703552 0.00424076896160841
-0.82682865858078 -0.3342481553554535 -0.3989001214504242
-0.5168043971061707 -0.02359790913760662 0.4207257926464081
-0.13220539689064026 0.38308185338974 -0.40960779786109924
-0.5893506407737732 0.5251709818840027 0.4207257926464081
-0.1629762053489685 0.985934317111969 -0.15708120167255402
0.37276920676231384 0.7891531586647034 -0.40960779786109924
0.269730806350708 0.6935548782348633 -0.40960779786109924
0.8025001883506775 0.5989046096801758 -0.40003231167793274
0.6226863861083984 0.7841961979866028 0.2718822658061981
-0.35458260774612427 -0.7897928357124329 0.4207257926464081
-0.6703029870986938 -0.690629243850708 0.3665703535079956
0.6328157782554626 0.7602454423904419 -0.40960779786109924
-0.6839332580566406 0.6454832553863525 -0.40960779786109924
0.5219208598136902 -0.5235438346862793 0.4207257926464081
0.20834141969680786 -0.4205896854400635 -0.40960779786109924
0.5776379108428955 0.8179346323013306 -0.36682599782943726
0.23438304662704468 0.24220915138721466 0.21487115323543549
-0.13306505978107452 0.30631503462791443 0.20857082307338715
-0.82682865858078 0.06570663303136826 0.09389394521713257
0.09491527825593948 -0.9869540333747864 0.33930593729019165
-0.3957897126674652 0.9164528250694275 -0.33955323696136475
0.07057719677686691 -0.5735956430435181 -0.40960779786109924
0.8338385820388794 -0.2205580174922943 0.27447405457496643
-0.7427581548690796 0.30958113074302673 0.4207257926464081
-0.0326901376247406 -0.7965320348739624 0.4207257926464081
0.25903478264808655 0.3975127935409546 0.4207257926464081
0.29890844225883484 0.4449208676815033 -0.40960779786109924
-0.5288682579994202 0.32094788551330566 0.4207257926464081
0.8338385820388794 0.046740226447582245 -0.33083197474479675
0.045435257256031036 0.33292531967163086 0.39502421021461487
0.14211194217205048 -0.6281763911247253 0.4207257926464081
0.2704661190509796 0.9635566473007202 -0.12452913820743561
0.8338385820388794 0.41502663493156433 -0.3683736324310303
0.29941582679748535 -0.147083580493927 0.2463650107383728
0.2856432795524597 0.10246244817972183 0.08859235048294067
0.5049008727073669 -0.15500476956367493 -0.40960779786109924
-0.10003053396940231 0.9945590496063232 -0.17077979445457458
-0.15058040618896484 -0.7878315448760986 0.4207257926464081
-0.4913855791091919 -0.6307554841041565 0.4207257926464081
-0.12352225929498672 0.43790239095687866 -0.40960779786109924
-0.6307610273361206 -0.33528009057044983 -0.40960779786109924
0.4354819655418396 -0.89425128698349 0.06140681728720665
0.6708676815032959 0.7163153290748596 0.3576587438583374
-0.10922703891992569 0.9834086894989014 0.34779056906700134
0.009679322130978107 0.9999493956565857 0.3163214325904846
-0.03916076198220253 0.9990458488464355 -0.3065003752708435
0.26091116666793823 -0.2209109365940094 0.41363033652305603
0.8338385820388794 -0.44244521856307983 0.015306251123547554
0.40767380595207214 0.7846839427947998 0.4207257926464081
0.28923237323760986 -0.24859443306922913 -0.40960779786109924
-0.32550308108329773 -0.672207236289978 0.4207257926464081
0.8338385820388794 0.5211664438247681 0.28191128373146057
-0.82682865858078 -0.1417384296655655 0.2379133254289627
-0.82682865858078 -0.48043105006217957 -0.37151527404785156
0.6163407564163208 0.789238452911377 0.3070295751094818
0.28790631890296936 -0.18628892302513123 -0.40960779786109924
0.5167832970619202 0.8575936555862427 0.1595638245344162
0.2151745855808258 -0.08379778265953064 -0.3481205701828003
-0.82682865858078 0.2921297550201416 0.15410856902599335
0.5241915583610535 0.8530704975128174 -0.39368924498558044
-0.2774837613105774 -0.9522725939750671 -0.12099340558052063
-0.03181026130914688 0.34118208289146423 0.41164979338645935
-0.4284774363040924 0.5851768851280212 0.4207257926464081
0.06949109584093094 0.20038865506649017 0.062478333711624146
-0.789833128452301 -0.4445478320121765 -0.40960779786109924
-0.4962921142578125 0.8655481338500977 0.22680793702602386
0.2173437923192978 0.1977437138557434 0.08859235048294067
-0.07720046490430832 0.8461408615112305 -0.40960779786109924
-0.19686086475849152 0.05671268329024315 -0.057573068886995316
-0.2644523084163666 -0.18413794040679932 0.08859235048294067
-0.18273386359214783 -0.9751608371734619 0.02130342274904251
-0.82682865858078 0.43509751558303833 0.3960965573787689
0.2260076254606247 0.8263807892799377 -0.40960779786109924
0.43154725432395935 0.2904478907585144 -0.40960779786109924
0.32318970561027527 0.2816610634326935 0.4207257926464081
-0.7361879348754883 0.6711485981941223 0.14515919983386993
-0.3313419818878174 -0.7411292791366577 -0.40960779786109924
-0.6489758491516113 -0.7494034171104431 0.2947175204753876
-0.82682865858078 0.45810019969940186 -0.18580301105976105
0.7427802681922913 0.14915013313293457 0.4207257926464081
-0.12106917053461075 0.16936346888542175 -0.16274641454219818
-0.7212433815002441 0.03731873631477356 0.4207257926464081
0.7586087584495544 0.6536122560501099 -0.2596661150455475
0.2435595840215683 0.9706204533576965 0.23140472173690796
0.4579450488090515 0.8903077840805054 0.1322212964296341
-0.06880402565002441 0.9973523616790771 -0.04470624402165413
-0.5378446578979492 0.27246278524398804 0.4207257926464081
-0.7145033478736877 0.1507052332162857 0.4207257926464081
-0.6679549813270569 -0.6565002202987671 0.3924931585788727
0.15504558384418488 -0.5335890650749207 -0.40960779786109924
0.11426230520009995 -0.24210010468959808 -0.38854607939720154
0.8338385820388794 0.1922222077846527 0.30271056294441223
-0.7897950410842896 -0.5991686582565308 -0.21359215676784515
0.6937922835350037 -0.7148182392120361 0.2712346911430359
-0.11483734846115112 0.30465030670166016 -0.40960779786109924
0.4728056490421295 -0.8753385543823242 -0.2865039110183716
-0.5049577951431274 0.8604627251625061 -0.2817641496658325
-0.82682865858078 0.2882772982120514 -0.1490878462791443
0.7434031963348389 -0.22243264317512512 -0.40960779786109924
0.8158815503120422 0.5805125832557678 0.11301732063293457
0.3270629346370697 0.6151435375213623 0.4207257926464081
0.06425751745700836 0.8885834217071533 0.4207257926464081
0.512437641620636 -0.5969913601875305 -0.40960779786109924
0.13851134479045868 -0.9835917949676514 -0.24374748766422272
-0.31975358724594116 0.568385124206543 0.4207257926464081
0.32659071683883667 0.39766091108322144 0.4207257926464081
0.6030752658843994 0.7993297576904297 0.20466184616088867
-0.36195850372314453 -0.38981491327285767 0.4207257926464081
0.6308619379997253 -0.4510103166103363 -0.40960779786109924
0.8338385820388794 -0.31787246465682983 -0.2965782880783081
-0.020671658217906952 -0.32759425044059753 0.16538341343402863
-0.251009464263916 -0.9596859812736511 -0.1084834560751915
-0.82682865858078 0.4510299563407898 0.17224016785621643
0.036351293325424194 0.9994363188743591 -0.004974197130650282
0.1570402830839157 0.988051176071167 0.2497447431087494
-0.6331585049629211 0.7700254917144775 -0.0026862137019634247
-0.19899848103523254 -0.9719933867454529 -0.05756257474422455
-0.2893228828907013 -0.5557389259338379 0.4207257926464081
-0.82682865858078 0.29324227571487427 -0.2718638777732849
0.12637291848659515 0.9923453330993652 -0.3155517578125
0.010042084380984306 0.9999119639396667 0.23164838552474976
0.8302518725395203 -0.5524464249610901 0.3353302776813507
-0.2533343434333801 0.3840172588825226 -0.40960779786109924
0.8338385820388794 -0.3798850178718567 0.12442350387573242
-0.82682865858078 0.43311789631843567 0.17638464272022247
-0.4812946915626526 0.8740097284317017 -0.2025074064731598
-0.20507851243019104 -0.9706939458847046 -0.04520223289728165
-0.7261722087860107 0.6820147037506104 -0.22623398900032043
0.28018268942832947 -0.6955124139785767 0.4207257926464081
-0.4352600574493408 0.8071367144584656 0.41848939657211304
0.18879146873950958 -0.08989090472459793 -0.029762154445052147
0.8338385820388794 -0.3965821862220764 0.15972790122032166
0.09446454793214798 0.7274043560028076 0.4207257926464081
-0.29223206639289856 -0.4245401918888092 -0.40960779786109924
-0.40840473771095276 0.9108009338378906 -0.08563055098056793
0.8338385820388794 -0.050895918160676956 0.24937671422958374
-0.2859569787979126 -0.46610140800476074 -0.40960779786109924
0.2459300309419632 -0.08188741654157639 -0.3763028085231781
-0.3955526351928711 0.11136642098426819 0.4207257926464081
0.3016900420188904 -0.15932908654212952 0.41191935539245605
0.5044782161712646 -0.05291168391704559 -0.40960779786109924
0.02391204796731472 -0.9394298791885376 0.3908049762248993
0.26062867045402527 -0.7548822164535522 -0.40960779786109924
-0.18649868667125702 -0.9572124481201172 0.3546293079853058
-0.6868822574615479 -0.7147144675254822 -0.3461564779281616
-0.430899977684021 0.9002947211265564 -0.01160929724574089
-0.25376635789871216 0.002235270105302334 0.08859235048294067
-0.82682865858078 0.03596224635839462 0.012688692659139633
0.5478785634040833 0.8381240963935852 -0.36312735080718994
-0.4192329943180084 0.5624316334724426 -0.40960779786109924
-0.6571167707443237 0.7494843602180481 -0.15078260004520416
-0.3388592600822449 0.5348629951477051 -0.40960779786109924
-0.03018306754529476 -0.20114117860794067 -0.11952409893274307
-0.034735046327114105 0.3342433273792267 0.40507572889328003
-0.053984466940164566 0.3306465446949005 0.37963545322418213
-0.5792720913887024 -0.3795986771583557 -0.40960779786109924
-0.82682865858078 0.3111536502838135 0.3549254536628723
-0.11516106873750687 -0.9856565594673157 0.15645234286785126
0.2918260991573334 0.26357579231262207 0.4207257926464081
0.05983630567789078 -0.7178666591644287 -0.40960779786109924
0.8338385820388794 -0.39368465542793274 0.19768169522285461
-0.33249005675315857 -0.8073017597198486 0.4207257926464081
-0.09550261497497559 0.8715551495552063 -0.40960779786109924
-0.42823368310928345 -0.8943955302238464 0.007030242122709751
0.699043869972229 -0.0951615497469902 0.4207257926464081
-0.2719740569591522 -0.18177543580532074 0.37288209795951843
-0.15225562453269958 0.9876823425292969 -0.26379984617233276
-0.6417331695556641 -0.7555481791496277 -0.3839452266693115
-0.1556948721408844 -0.9799299240112305 -0.21848435699939728
-0.2802037298679352 -0.01237572357058525 -0.4033645987510681
0.8338385820388794 0.11469003558158875 -0.10603059083223343
-0.63851398229599 0.5548272132873535 0.4207257926464081
0.1949225813150406 -0.07659239321947098 -0.24224430322647095
-0.82682865858078 -0.3229345381259918 -0.34754660725593567
0.8338385820388794 0.3011067509651184 -0.054539937525987625
0.07240422070026398 -0.1919269859790802 0.03455006331205368
-0.032404575496912 0.294601708650589 0.08859235048294067
0.30112823843955994 -0.43737050890922546 -0.40960779786109924
0.6049413681030273 0.005350559484213591 0.4207257926464081
-0.5726972818374634 0.07662709057331085 -0.40960779786109924
-0.82682865858078 -0.07764838635921478 0.3771086037158966
-0.49764981865882874 0.7756980657577515 -0.40960779786109924
0.6099351048469543 0.6888192892074585 -0.40960779786109924
0.8338385820388794 -0.25947290658950806 -0.1254653036594391
-0.1048734188079834 -0.173325315117836 0.052115119993686676
0.5663228631019592 0.8257412314414978 0.20010270178318024
-0.2328096628189087 0.23679612576961517 0.2816263735294342
0.009730537422001362 -0.648724377155304 0.4207257926464081
-0.29523003101348877 -0.16860279440879822 -0.40960779786109924
-0.3819740116596222 -0.5698255300521851 0.4207257926464081
0.4623396098613739 0.15187489986419678 -0.40960779786109924
0.5868794322013855 -0.7759820818901062 0.36035045981407166
0.5967172980308533 -0.796883761882782 0.29569104313850403
0.8338385820388794 -0.4181809425354004 -0.25791653990745544
-0.6703770756721497 0.7375311851501465 -0.22978544235229492
0.8338385820388794 0.22600966691970825 0.3373003900051117
0.7904673218727112 -0.10610601305961609 -0.40960779786109924
0.3347354531288147 0.9432897567749023 -0.19533732533454895
-0.22922667860984802 0.24027974903583527 0.18044011294841766
-0.7810534238815308 0.3713703453540802 -0.40960779786109924
-0.5150197744369507 0.4891298711299896 0.4207257926464081
0.11561209708452225 -0.4259202778339386 0.4207257926464081
-0.82682865858078 0.2307094782590866 -0.037489358335733414
0.5027152895927429 -0.8587062954902649 -0.023165619000792503
0.1126227080821991 -0.8855442404747009 -0.40960779786109924
-0.538087785243988 -0.8326604962348938 0.19145910441875458
-0.12955591082572937 -0.34498125314712524 0.4207257926464081
0.6653450727462769 -0.7412058711051941 -0.18728625774383545
0.8338385820388794 0.2699732184410095 -0.3644587993621826
-0.40472492575645447 -0.6919653415679932 0.4207257926464081
-0.6442246437072754 0.18701171875 -0.40960779786109924
-0.7195899486541748 0.6890774369239807 -0.10224054753780365
-0.82682865858078 -0.5022730827331543 0.32472267746925354
0.40220770239830017 0.15431161224842072 0.4207257926464081
-0.82682865858078 -0.5280426740646362 0.07181168347597122
-0.08636834472417831 0.33803677558898926 -0.40960779786109924
-0.09352320432662964 -0.3138549327850342 0.2790288031101227
-0.5899388194084167 0.8039154410362244 0.20538584887981415
-0.7425081133842468 0.41365480422973633 0.4207257926464081
-0.6690812110900879 0.7386558055877686 -0.3343788683414459
-0.21005798876285553 0.9768121838569641 0.09539128839969635
0.816498339176178 0.3659534752368927 0.4207257926464081
0.3778127431869507 0.06698168814182281 -0.40960779786109924
-0.4522422254085541 -0.8691137433052063 -0.40960779786109924
0.8338385820388794 0.3493208885192871 -0.14935623109340668
-0.82682865858078 -0.283050000667572 -0.11738769710063934
0.11679037660360336 0.2595123052597046 -0.3989858031272888
0.2700894773006439 0.742075502872467 0.4207257926464081
0.1068820208311081 -0.1762463003396988 -0.16073453426361084
0.8338385820388794 0.4149809181690216 -0.3305104970932007
-0.4925777316093445 -0.8604866862297058 -0.3507154583930969
0.6782779693603516 -0.7294811010360718 0.2816902697086334
-0.1831810474395752 -0.5732908248901367 -0.40960779786109924
0.11694955825805664 -0.30834564566612244 0.31326285004615784
-0.30033230781555176 0.5203424692153931 -0.40960779786109924
-0.2301689237356186 -0.7022071480751038 0.4207257926464081
0.320292204618454 -0.9410781264305115 0.3016871511936188
-0.7362907528877258 -0.6637840270996094 -0.20608150959014893
0.03712615743279457 -0.4942428767681122 0.4207257926464081
-0.82682865858078 -0.21117714047431946 0.26840740442276
-0.5360872149467468 -0.15717072784900665 0.4207257926464081
0.36962205171585083 0.46616193652153015 -0.40960779786109924
-0.30843350291252136 -0.9426645636558533 0.16931547224521637
0.7208580374717712 -0.5709623694419861 0.41495245695114136
0.8338385820388794 0.2715892791748047 0.3322412073612213
-0.5983858704566956 0.7976324558258057 0.21023382246494293
0.1648976057767868 0.20768918097019196 -0.3792482018470764
0.39043474197387695 0.9217708110809326 0.22992092370986938
-0.7238719463348389 0.6182949542999268 -0.40960779786109924
-0.5693231225013733 0.8188478946685791 -0.39639517664909363
0.2740677297115326 0.9624996781349182 0.14269930124282837
0.8338385820388794 0.5487132668495178 -0.03970801457762718
0.38911914825439453 0.5491917133331299 -0.40960779786109924
0.6909229755401611 0.7248920202255249 -0.36912697553634644
0.10645262151956558 0.30118581652641296 -0.40960779786109924
-0.82682865858078 -0.2578847408294678 -0.11254441738128662
-0.82682865858078 0.17908324301242828 0.09204719215631485
0.01139315776526928 -0.9927456974983215 0.0017182343872264028
0.27237898111343384 -0.955768883228302 0.01216039713472128
-0.7708600759506226 -0.6233664155006409 0.14423762261867523
-0.82682865858078 -0.3489794433116913 0.3013312816619873
-0.008835725486278534 0.6376798152923584 -0.40960779786109924
-0.82682865858078 -0.13399654626846313 0.007791385520249605
-0.6563730835914612 0.7501343488693237 -0.1944492906332016
-0.5601585507392883 0.8252089619636536 0.16439184546470642
-0.19021053612232208 0.7991693019866943 -0.40960779786109924
0.17136883735656738 0.9857242107391357 -0.16341084241867065
0.3913172781467438 -0.297496497631073 0.4207257926464081
0.10703347623348236 0.43928444385528564 0.4207257926464081
0.45995059609413147 0.8892865777015686 0.2955861985683441
-0.82682865858078 -0.25886663794517517 0.14586617052555084
0.28136512637138367 0.24584753811359406 0.4207257926464081
0.09553535282611847 -0.18230044841766357 -0.1373721957206726
0.5863966345787048 0.811634361743927 -0.26803722977638245
-0.4756934642791748 -0.5383006930351257 0.4207257926464081
0.6027924418449402 -0.26104170083999634 0.4207257926464081
-0.6063545942306519 0.7914993166923523 -0.0685199648141861
-0.8089741468429565 -0.5730443000793457 -0.0376981757581234
0.33870065212249756 -0.44015243649482727 -0.40960779786109924
-0.13452257215976715 -0.6485846638679504 -0.40960779786109924
0.6989507675170898 0.05242110788822174 -0.40960779786109924
-0.48905515670776367 0.8696915507316589 -0.17564396560192108
0.17635272443294525 0.46543699502944946 0.4207257926464081
0.6971904635429382 0.7187976241111755 -0.2996828556060791
0.0028526142705231905 0.9999989867210388 -0.011121387593448162
0.8338385820388794 -0.5063677430152893 -0.2071343958377838
-0.42737269401550293 -0.055866677314043045 0.4207257926464081
-0.05681192874908447 0.20211482048034668 -0.3025265336036682
0.7811214923858643 -0.619331955909729 -0.20665673911571503
-0.5647821426391602 0.8219984173774719 0.2676279544830322
-0.796461284160614 0.19467498362064362 -0.40960779786109924
0.4830203056335449 0.876935601234436 -0.29221200942993164
-0.3027072250843048 -0.7654123306274414 -0.40960779786109924
0.4299038052558899 -0.07603360712528229 -0.40960779786109924
0.6730579733848572 0.01359488070011139 -0.40960779786109924
0.3917892873287201 -0.9140079617500305 0.056080833077430725
0.36882567405700684 0.9305475950241089 -0.09690609574317932
-0.82682865858078 -0.11127840727567673 0.36543798446655273
-0.5980621576309204 0.013939769007265568 0.4207257926464081
0.34850969910621643 0.9383358955383301 0.2092428058385849
0.5160184502601624 0.8580508232116699 -0.010990372858941555
0.1953486055135727 0.08261825144290924 -0.10432744026184082
0.7421022653579712 -0.014158287085592747 0.4207257926464081
0.48288604617118835 -0.6627511978149414 -0.40960779786109924
-0.8145817518234253 -0.05153786018490791 0.4207257926464081
-0.82682865858078 0.19035080075263977 0.2017243653535843
0.4839690327644348 0.7037950158119202 0.4207257926464081
-0.7590462565422058 0.5122814774513245 0.41737350821495056
-0.22626803815364838 -0.49915263056755066 -0.40960779786109924
0.5009284615516663 0.18814486265182495 0.4207257926464081
-0.5236485600471497 -0.2518745958805084 0.4207257926464081
-0.737030565738678 -0.5744330883026123 -0.40960779786109924
0.4660790264606476 0.28813380002975464 -0.40960779786109924
-0.587066650390625 0.35164526104927063 0.4207257926464081
0.5841421484947205 0.7654002904891968 0.3761812448501587
0.34977245330810547 0.6835751533508301 -0.40960779786109924
0.8338385820388794 -0.05200636014342308 0.25344935059547424
-0.06259721517562866 -0.20309104025363922 0.08859235048294067
-0.6555546522140503 0.7508596181869507 0.12225908786058426
-0.512821614742279 0.8557437658309937 -0.3013857305049896
0.4531766474246979 -0.33465656638145447 0.4207257926464081
0.6518658995628357 -0.10537101328372955 0.4207257926464081
0.1920783370733261 -0.9747531414031982 -0.33943116664886475
0.11758501827716827 -0.9862250089645386 -0.062494248151779175
0.2636657953262329 0.7906830310821533 0.4207257926464081
-0.7029619812965393 -0.4445658326148987 -0.40960779786109924
0.5102541446685791 0.8614476919174194 -0.405953973531723
-0.023561658337712288 0.3073543608188629 -0.40960779786109924
-0.82682865858078 -0.34550365805625916 -0.28659382462501526
0.33778926730155945 -0.08045712113380432 -0.40960779786109924
-0.32726484537124634 -0.025616643950343132 0.17322497069835663
-0.17963537573814392 -0.975757360458374 0.2880546748638153
-0.82682865858078 -0.3752620220184326 0.2736828327178955
-0.5513461232185364 0.3549066185951233 -0.40960779786109924
-0.4733175039291382 -0.4573720097541809 -0.40960779786109924
-0.82682865858078 0.005422774236649275 -0.2452799379825592
0.7548252940177917 0.0059952642768621445 -0.40960779786109924
0.14871416985988617 0.3435244858264923 0.4207257926464081
-0.32191139459609985 -0.8465666770935059 0.4207257926464081
0.7085703611373901 -0.7004444003105164 0.32029590010643005
-0.25415951013565063 -0.20590420067310333 0.13900154829025269
0.7945175170898438 0.2092403620481491 0.4207257926464081
-0.82682865858078 0.5503150820732117 -0.20542412996292114
0.03414951637387276 -0.3692833185195923 -0.40960779786109924
0.4996379315853119 -0.0978478416800499 0.4207257926464081
0.33720433712005615 -0.8026217818260193 -0.40960779786109924
-0.7946894764900208 0.39826005697250366 0.4207257926464081
0.4496290385723114 0.8945078253746033 -0.21786372363567352
0.8338385820388794 -0.2946670353412628 -0.2385321706533432
0.5547093152999878 -0.3093056082725525 0.4207257926464081
0.8338385820388794 0.476326584815979 0.1401522159576416
0.8338385820388794 -0.13248346745967865 0.3853728473186493
-0.20227590203285217 0.3792724311351776 0.4207257926464081
-0.6433902382850647 0.7613849639892578 -0.16626203060150146
0.0009479636792093515 0.5672476887702942 0.4207257926464081
-0.7961731553077698 -0.5907896757125854 -0.338730126619339
-0.40723612904548645 -0.7964673042297363 0.4207257926464081
0.5250288844108582 -0.0666956752538681 -0.40960779786109924
-0.5817201733589172 0.5760965347290039 0.4207257926464081
0.3501306474208832 -0.12079904973506927 -0.40960779786109924
0.24688148498535156 0.5096785426139832 0.4207257926464081
-0.82682865858078 0.19678327441215515 -0.14458507299423218
-0.14387622475624084 -0.8602765202522278 -0.40960779786109924
0.5345935821533203 0.8466188311576843 0.03635979816317558
0.8338385820388794 -0.49360859394073486 0.2360801100730896
-0.6909749507904053 -0.48423123359680176 -0.40960779786109924
-0.0381539911031723 0.5065780282020569 -0.40960779786109924
-0.7820419669151306 0.4487985372543335 -0.40960779786109924
0.40992245078086853 -0.4699399173259735 0.4207257926464081
0.7381563186645508 0.6717419028282166 0.3409844636917114
-0.82682865858078 -0.3788049817085266 0.1366722285747528
-0.26254716515541077 -0.9566127061843872 -0.12265796959400177
0.3697943091392517 -0.8413766026496887 -0.40960779786109924
-0.7067656517028809 -0.6951518654823303 -0.15448802709579468
0.7222142815589905 -0.5382527112960815 -0.40960779786109924
0.4411357641220093 0.8987154960632324 -0.1330103576183319
-0.45767658948898315 -0.08266779780387878 0.4207257926464081
-0.15918387472629547 -0.9794082045555115 -0.3811711370944977
0.8318597674369812 -0.4028140604496002 0.4114001989364624
-0.10446862876415253 0.4061410129070282 -0.40960779786109924
-0.7233479022979736 -0.6779217720031738 -0.1876581311225891
-0.32063230872154236 -0.0677582398056984 0.2717277705669403
-0.358416885137558 -0.3084421455860138 0.4207257926464081
-0.30622240900993347 -0.8975351452827454 0.3811773657798767
-0.82682865858078 -0.13071990013122559 0.1010676771402359
-0.310466468334198 0.34242716431617737 -0.40960779786109924
-0.38814568519592285 0.3441522419452667 0.4207257926464081
-0.6067354083061218 0.6967148780822754 0.4105857014656067
0.2104063481092453 0.01895223557949066 0.05510220304131508
-0.03158356621861458 0.9633804559707642 -0.40960779786109924
0.23199230432510376 0.09374940395355225 0.08859235048294067
-0.49312660098075867 0.7144704461097717 0.4207257926464081
-0.5695886611938477 -0.7845696806907654 -0.40960779786109924
-0.014753198251128197 -0.32782799005508423 0.2750099301338196
0.6666326522827148 -0.7400547862052917 0.23360797762870789
0.575867772102356 0.8191514015197754 0.1548122614622116
0.3303406238555908 -0.054949697107076645 0.3651813268661499
-0.6294304728507996 0.5387119054794312 0.4207257926464081
0.8338385820388794 -0.42190659046173096 -0.07545213401317596
-0.5970157980918884 0.10886164754629135 0.4207257926464081
0.16680441796779633 -0.6544623374938965 0.4207257926464081
0.30803290009498596 0.2998817265033722 0.4207257926464081
0.5996137857437134 0.4688715636730194 0.4207257926464081
-0.6272083520889282 -0.767703115940094 -0.2311328947544098
-0.6264932155609131 0.31408098340034485 -0.40960779786109924
-0.5461052060127258 0.8346508145332336 0.007647463586181402
0.03530643880367279 -0.6612381935119629 -0.40960779786109924
0.41646280884742737 0.3455016314983368 0.4207257926464081
-0.7056428790092468 -0.41960087418556213 -0.40960779786109924
-0.3128092885017395 0.5425174236297607 -0.40960779786109924
-0.17088472843170166 0.9845640659332275 0.22556078433990479
0.1933957189321518 -0.8738470673561096 -0.40960779786109924
-0.5739025473594666 0.5295350551605225 -0.40960779786109924
-0.7187488079071045 -0.6827862858772278 0.22467757761478424
-0.23506471514701843 -0.9637660980224609 0.29388171434402466
0.39091798663139343 -0.7602308988571167 0.4207257926464081
-0.5136913657188416 0.4052087962627411 0.4207257926464081
-0.6114524602890015 0.7875790596008301 0.013815678656101227
-0.2422139048576355 -0.6674160361289978 0.4207257926464081
-0.28133919835090637 0.029443083330988884 0.08859235048294067
0.5783482789993286 0.8174598217010498 -0.07398092746734619
0.6216662526130676 -0.7778044939041138 -0.19595465064048767
0.4127373993396759 0.26502689719200134 -0.40960779786109924
-0.7744107246398926 0.6261603832244873 -0.36956217885017395
-0.5316285490989685 0.8440651297569275 -0.11386097222566605
-0.2772083878517151 0.0774305909872055 -0.4094591736793518
-0.08890753239393234 0.5969401597976685 0.4207257926464081
-0.12889590859413147 0.16342151165008545 -0.0023066713474690914
0.2748301327228546 0.9623293280601501 0.22383764386177063
-0.5244447588920593 0.665952205657959 -0.40960779786109924
-0.7070250511169434 0.7020882368087769 -0.2033202350139618
-0.82682865858078 0.4673488438129425 -0.14922425150871277
0.5265715718269348 0.8516396284103394 0.04073471203446388
-0.6473006010055542 -0.7508831024169922 -0.08311343938112259
-0.0635552704334259 -0.47422847151756287 0.4207257926464081
0.4791950583457947 0.09291134029626846 0.4207257926464081
0.07172851264476776 0.3285982608795166 0.2090163230895996
-0.2474132478237152 0.7641254663467407 0.4207257926464081
-0.6079782247543335 0.6497317552566528 0.4207257926464081
0.22298087179660797 0.9754457473754883 0.1693434715270996
0.6213741898536682 -0.5256943106651306 -0.40960779786109924
0.8338385820388794 -0.388667494058609 -0.2690180838108063
-0.19811733067035675 -0.04537555202841759 -0.10366286337375641
-0.6637204885482788 0.4214438199996948 0.4207257926464081
0.3530695140361786 0.6145913004875183 -0.40960779786109924
-0.06919275969266891 -0.1943865865468979 -0.33020493388175964
0.455299973487854 -0.8844478726387024 -0.28109240531921387
0.8173230290412903 -0.16297060251235962 -0.40960779786109924
0.42369917035102844 0.8971056938171387 0.3466911315917969
-0.24756723642349243 0.8086802363395691 -0.40960779786109924
0.46626269817352295 0.42513737082481384 0.4207257926464081
0.6577311754226685 0.4552139341831207 -0.40960779786109924
-0.6432589292526245 0.05104031041264534 -0.40960779786109924
0.805209219455719 0.35094326734542847 -0.40960779786109924
0.12737764418125153 -0.1625707894563675 -0.015011953189969063
0.15338857471942902 -0.5978186726570129 0.4207257926464081
-0.8122084736824036 -0.5267705917358398 -0.40960779786109924
0.8338385820388794 0.4509044289588928 0.1880328506231308
0.5475721955299377 -0.3576524257659912 0.4207257926464081
0.473012775182724 0.38337841629981995 0.4207257926464081
0.1526750922203064 -0.5204308032989502 -0.40960779786109924
-0.24457627534866333 0.4704311788082123 0.4207257926464081
0.10071378946304321 -0.878369152545929 -0.40960779786109924
-0.03356815502047539 -0.38497787714004517 -0.40960779786109924
-0.011719197034835815 0.9998106360435486 -0.11284029483795166
0.14802683889865875 -0.9821979999542236 -0.17653143405914307
0.7984763383865356 0.6042878031730652 0.29562556743621826
0.16433456540107727 -0.9796580076217651 0.08096040785312653
-0.4581493139266968 -0.32154160737991333 0.4207257926464081
0.6879445910453796 0.5168275237083435 0.4207257926464081
0.6431947350502014 -0.44602715969085693 -0.40960779786109924
0.13951615989208221 0.17378924787044525 0.08859235048294067
0.8338385820388794 0.2598066031932831 0.29002872109413147
0.06909359991550446 0.6036723256111145 0.4207257926464081
0.7964175939559937 -0.32074013352394104 0.4207257926464081
-0.82682865858078 -0.3409825265407562 0.09270230680704117
0.8338385820388794 -0.3119457960128784 -0.30887699127197266
-0.4415154457092285 -0.11248121410608292 -0.40960779786109924
-0.2047358900308609 -0.5399707555770874 0.4207257926464081
0.4916730225086212 0.5712375044822693 -0.40960779786109924
0.5759894251823425 0.43587905168533325 -0.40960779786109924
0.8338385820388794 -0.4019908607006073 0.30012890696525574
0.2077861726284027 0.039459794759750366 -0.15794755518436432
-0.2946545481681824 0.4033714532852173 0.4207257926464081
0.785568356513977 0.6209229230880737 0.1981603354215622
-0.8108895421028137 0.5462346076965332 0.3554621934890747
0.09685418754816055 0.9955922961235046 -0.2151145339012146
-0.03221787139773369 0.3782922029495239 0.4207257926464081
0.8338385820388794 0.3084283471107483 -0.27786749601364136
-0.3248993754386902 0.05280680954456329 0.1680489182472229
0.4050169885158539 -0.7553877234458923 0.4207257926464081
0.7487064599990845 0.6649650931358337 -0.019236963242292404
-0.82682865858078 0.2025780975818634 -0.17337718605995178
-0.15266329050064087 0.14029304683208466 0.06249020993709564
-0.49342694878578186 0.867193877696991 -0.13111759722232819
0.7753698825836182 -0.6264066696166992 -0.27337151765823364
-0.24262727797031403 -0.9618752598762512 0.21036547422409058
-0.5924315452575684 0.4438486099243164 -0.40960779786109924
0.8338385820388794 -0.3336738646030426 -0.016194013878703117
-0.6074762940406799 -0.7834893465042114 -0.33041465282440186
-0.2164258062839508 0.7566910982131958 -0.40960779786109924
0.3721444606781006 0.9292784929275513 -0.18671654164791107
0.21703703701496124 -0.20631331205368042 0.08859235048294067
0.6293216943740845 -0.2504878342151642 -0.40960779786109924
0.6054441928863525 0.7975707054138184 0.09246739745140076
-0.24269624054431915 0.22642245888710022 0.23152263462543488
0.38603654503822327 0.9235866665840149 -0.24372875690460205
0.31347334384918213 0.1225920170545578 0.27904677391052246
0.24891453981399536 -0.21988439559936523 0.3304864466190338
-0.0913831815123558 -0.9882341027259827 -0.3982524275779724
0.2062365859746933 0.6564379334449768 -0.40960779786109924
-0.82682865858078 0.13013984262943268 0.246118426322937
0.40151575207710266 -0.6022207140922546 -0.40960779786109924
-0.82682865858078 -0.44813665747642517 -0.3657130002975464
-0.3883138597011566 -0.9125131964683533 -0.37668606638908386
-0.2723802924156189 -0.4758985936641693 -0.40960779786109924
0.5875415205955505 -0.8036697506904602 0.036718279123306274
0.8338385820388794 0.06117626279592514 -0.2942262589931488
-0.1630786806344986 0.5411208868026733 0.4207257926464081
0.06818824261426926 -0.3441022038459778 0.4207257926464081
-0.3493240475654602 0.06853445619344711 0.4207257926464081
-0.82682865858078 -0.04754887521266937 -0.28625234961509705
-0.82682865858078 0.3989672064781189 0.14870581030845642
0.8338385820388794 -0.4086453318595886 0.13435015082359314
-0.82682865858078 0.0050282166339457035 -0.09294950217008591
-0.10296806693077087 0.6071330904960632 0.4207257926464081
0.20767420530319214 -0.033076755702495575 -0.10073205828666687
-0.82682865858078 0.37088170647621155 0.2794282138347626
0.038098014891147614 0.33387455344200134 0.20873817801475525
-0.2851877212524414 0.7684939503669739 0.4207257926464081
0.266166090965271 0.23235109448432922 -0.40960779786109924
-0.6562036275863647 -0.3990480303764343 0.4207257926464081
-0.82682865858078 0.46842506527900696 -0.09492506086826324
-0.7175101637840271 -0.6840654015541077 -0.2619694769382477
0.8053543567657471 -0.46762746572494507 0.40398579835891724
-0.5391275882720947 -0.08510590344667435 -0.40960779786109924
0.617669403553009 0.788147509098053 0.16941691935062408
-0.8230399489402771 0.5599333047866821 0.02221604995429516
0.8338385820388794 -0.510989248752594 -0.332425594329834
0.5336113572120667 0.4462645947933197 -0.40960779786109924
0.3649804890155792 -0.9249078035354614 -0.328200101852417
-0.2541940212249756 0.03626707196235657 -0.3789966106414795
0.33371657133102417 -0.031353164464235306 0.11306095123291016
-0.2027427852153778 0.02500665746629238 -0.2622171640396118
0.8338385820388794 -0.30855971574783325 0.2953961491584778
0.18845286965370178 0.9620770812034607 -0.40960779786109924
-0.2158779799938202 -0.9365967512130737 0.3685823976993561
0.18888281285762787 0.09694382548332214 0.06700179725885391
-0.3519526720046997 0.9343709945678711 -0.2393384426832199
-0.38027042150497437 0.8063462376594543 -0.40960779786109924
0.8338385820388794 0.14417320489883423 -0.29150283336639404
-0.747717022895813 -0.6402525901794434 -0.40960779786109924
0.33360838890075684 -0.032159533351659775 0.2676940858364105
-0.20312251150608063 -0.2563653588294983 0.3283907473087311
-0.5354239344596863 0.8415957689285278 0.3316011428833008
-0.09606193006038666 -0.18095572292804718 -0.3289194405078888
0.19428054988384247 -0.34704744815826416 -0.40960779786109924
-0.3612571656703949 -0.7432339787483215 0.4207257926464081
-0.5287483930587769 -0.8386673927307129 0.04287121072411537
-0.6143666505813599 0.6600893139839172 0.4207257926464081
-0.06633878499269485 -0.9175765514373779 0.41026926040649414
-0.1332986056804657 0.3060913383960724 0.10248317569494247
0.6903511881828308 0.24370679259300232 0.4207257926464081
0.13699783384799957 -0.401867538690567 0.4207257926464081
0.5724905729293823 0.525915801525116 -0.40960779786109924
-0.12384726852178574 0.4776689410209656 0.4207257926464081
-0.2513532340526581 0.673373281955719 -0.40960779786109924
0.8338385820388794 -0.13371482491493225 -0.33057183027267456
-0.07936201244592667 -0.34540894627571106 0.4207257926464081
0.8338385820388794 0.4259619414806366 -0.2885735034942627
-0.82682865858078 -0.028259193524718285 -0.11341853439807892
0.0075144339352846146 -0.7505269646644592 -0.40960779786109924
-0.051086001098155975 -0.5401999950408936 -0.40960779786109924
0.4796643555164337 -0.07365836203098297 0.4207257926464081
0.5153802633285522 -0.8512428998947144 -0.1842176765203476
-0.20363572239875793 -0.0058564916253089905 -0.14527484774589539
0.14155596494674683 -0.15126003324985504 -0.07535552978515625
0.8338385820388794 -0.1707988828420639 -0.015436671674251556
-0.7994383573532104 -0.5863281488418579 -0.21187639236450195
0.38717523217201233 0.7268115282058716 0.4207257926464081
0.12716442346572876 0.9922502040863037 0.13030865788459778
-0.6875793933868408 0.16568484902381897 0.4207257926464081
0.8338385820388794 -0.01821904443204403 0.17479084432125092
-0.09627267718315125 0.8099889159202576 0.4207257926464081
0.33217936754226685 -0.5708867907524109 -0.40960779786109924
0.8338385820388794 0.051804959774017334 0.3369442820549011
-0.37389180064201355 0.755012035369873 0.4207257926464081
-0.339762806892395 -0.020831219851970673 0.4163668751716614
0.19961495697498322 0.07101769745349884 -0.05121282488107681
0.1814487725496292 -0.976718544960022 -0.1879149079322815
0.5709265470504761 0.7485840320587158 0.3976139426231384
0.2851581871509552 -0.24449901282787323 0.4207257926464081
0.344425767660141 0.9398097395896912 -0.39690858125686646
0.5504564642906189 0.7033268213272095 -0.40960779786109924
-0.457549124956131 0.3596614599227905 0.4207257926464081
-0.8041761517524719 -0.24580611288547516 0.4207257926464081
-0.7484524250030518 -0.6501155495643616 0.07694358378648758
-0.82682865858078 -0.4020494818687439 -0.3689657747745514
-0.5384168028831482 0.8397402763366699 -0.3290795683860779
-0.7342279553413391 0.6733356714248657 -0.011446132324635983
-0.3519364595413208 -0.2226046323776245 0.4207257926464081
-0.5319504737854004 -0.772129237651825 0.39147624373435974
-0.6831533312797546 -0.7183374166488647 0.09173104166984558
-0.23165927827358246 0.5002938508987427 -0.40960779786109924
0.30708548426628113 0.5074840188026428 0.4207257926464081
-0.6830490231513977 0.725702702999115 -0.3908425271511078
0.2708200514316559 0.20042996108531952 0.11677389591932297
0.6565266251564026 0.7561222314834595 -0.3484439253807068
0.21407604217529297 0.5374045968055725 0.4207257926464081
-0.5416998863220215 -0.8303413391113281 0.0907844826579094
0.19614313542842865 0.8804376721382141 0.4207257926464081
-0.82682865858078 -0.22738447785377502 0.00639963848516345
0.22293932735919952 0.8993841409683228 0.4117743670940399
-0.6507304310798645 0.20797745883464813 -0.40960779786109924
-0.014572421088814735 -0.5199927091598511 0.4207257926464081
0.6023176908493042 0.7999299764633179 -0.21379049122333527
-0.025692280381917953 0.9995192289352417 0.06441500037908554
0.27899760007858276 0.37628093361854553 0.4207257926464081
0.4405381977558136 -0.27985358238220215 0.4207257926464081
0.7183473110198975 -0.690497636795044 -0.32978057861328125
-0.046976421028375626 0.20473429560661316 -0.24339720606803894
-0.15991760790348053 -0.9792905449867249 0.31578391790390015
-0.8023456931114197 0.5895867943763733 -0.35798773169517517
-0.82682865858078 0.38627076148986816 -0.19725236296653748
0.7879204750061035 -0.26835790276527405 0.4207257926464081
0.6626821756362915 0.23577840626239777 0.4207257926464081
-0.2547706663608551 -0.9586781859397888 0.043648745864629745
-0.5830997824668884 0.7060324549674988 -0.40960779786109924
-0.8161840438842773 0.3928684890270233 -0.40960779786109924
0.22961612045764923 0.020773081108927727 -0.3457576036453247
-0.5094192624092102 0.8126126527786255 -0.40960779786109924
-0.7008479237556458 -0.21335534751415253 -0.40960779786109924
0.8135961294174194 0.5836401581764221 0.07658490538597107
0.004512125160545111 0.9999189376831055 0.2788510322570801
0.7387271523475647 0.6760014295578003 -0.2501441538333893
-0.05945690721273422 -0.9242044687271118 0.4041062295436859
0.8244754672050476 -0.5608897805213928 -0.09315131604671478
0.7790853977203369 0.629041314125061 0.11891340464353561
0.27783501148223877 0.2473776489496231 0.4207257926464081
0.31906381249427795 0.9486591815948486 0.06437303125858307
0.6512752771377563 -0.6792269945144653 -0.40960779786109924
-0.06753236055374146 0.1983533352613449 -0.05710943043231964
-0.6435214281082153 -0.7540605664253235 -0.33416545391082764
0.238424152135849 0.8191593885421753 -0.40960779786109924
-0.14278113842010498 -0.14363695681095123 0.02865021303296089
-0.22184227406978607 0.24735203385353088 0.09874200075864792
-0.8017266392707825 0.19459134340286255 0.4207257926464081
0.76751708984375 -0.3830642104148865 0.4207257926464081
-0.82682865858078 -0.35252779722213745 0.3448295295238495
-0.82682865858078 0.2817643880844116 -0.2756727635860443
0.07814395427703857 -0.9899868965148926 -0.32848554849624634
0.14700962603092194 0.15346167981624603 0.02563636563718319
0.4408113956451416 0.24904760718345642 0.4207257926464081
0.3058808147907257 0.1250608265399933 -0.40960779786109924
0.31613191962242126 -0.8277336955070496 -0.40960779786109924
0.6032949686050415 -0.7920060157775879 0.2198910415172577
-0.82682865858078 0.4533843696117401 -0.12509557604789734
-0.548983097076416 -0.3519653081893921 -0.40960779786109924
0.35238465666770935 -0.27829524874687195 -0.40960779786109924
0.19128890335559845 0.9821154475212097 0.11972396075725555
-0.23452100157737732 0.971140444278717 -0.00677648838609457
-0.6598140001296997 -0.6765211820602417 0.38403719663619995
-0.4024103581905365 0.9135608077049255 0.13058006763458252
-0.7354650497436523 0.5959012508392334 -0.40960779786109924
0.3474026322364807 -0.47418880462646484 -0.40960779786109924
-0.10326109081506729 0.9942145943641663 -0.04384999722242355
0.07656313478946686 0.2147478461265564 -0.3425169289112091
-0.30168864130973816 0.33664384484291077 -0.40960779786109924
0.16362746059894562 -0.9797616600990295 0.01720847561955452
0.12014617025852203 -0.9543708562850952 0.36898815631866455
0.8338385820388794 -0.1348964422941208 0.2612321972846985
0.8338385820388794 0.2570767104625702 0.03996434062719345
0.2260904163122177 0.7459824681282043 0.4207257926464081
0.32412776350975037 0.6343926787376404 0.4207257926464081
0.5338072180747986 -0.8398943543434143 0.07525480538606644
0.8338385820388794 0.30137762427330017 -0.3536008894443512
0.8222277164459229 -0.5642618536949158 -0.32605618238449097
-0.6843369603157043 -0.40703657269477844 -0.40960779786109924
0.7046988010406494 0.601909339427948 -0.40960779786109924
0.06988504528999329 0.9977598190307617 -0.4006868004798889
0.46880871057510376 0.17183415591716766 0.4207257926464081
0.1272588074207306 -0.9850404858589172 0.06180599704384804
0.8338385820388794 0.3168354034423828 0.08929049968719482
-0.82682865858078 0.3691898584365845 -0.21682992577552795
0.8338385820388794 0.15325874090194702 0.3616482615470886
0.6362382769584656 0.7732464075088501 0.1094675287604332
-0.3838878571987152 0.34765246510505676 0.4207257926464081
-0.36815693974494934 0.3519973158836365 -0.40960779786109924
0.7205660939216614 0.43927985429763794 -0.40960779786109924
-0.025006946176290512 -0.5642366409301758 -0.40960779786109924
-0.8248763084411621 -0.25687652826309204 0.4207257926464081
-0.82682865858078 -0.20487767457962036 0.05739022418856621
0.05114531144499779 -0.32505208253860474 0.2985811233520508
-0.026145949959754944 -0.9581338763237 0.371871680021286
0.8338385820388794 -0.4062526226043701 -0.08894117176532745
0.5028347373008728 0.7302257418632507 -0.40960779786109924
0.013650082983076572 -0.9927312135696411 -0.29521653056144714
0.7435769438743591 -0.663432776927948 -0.14372491836547852
-0.24452053010463715 -0.5354160666465759 -0.40960779786109924
-0.016594041138887405 -0.8643314242362976 -0.40960779786109924
0.8338385820388794 -0.1205800250172615 0.01979566551744938
-0.016978498548269272 0.21004176139831543 -0.2130996584892273
-0.025731312111020088 0.4757205545902252 0.4207257926464081
0.43453502655029297 0.6403559446334839 -0.40960779786109924
0.7857831716537476 -0.5675439238548279 0.3654482662677765
0.8338385820388794 0.4588993787765503 -0.050967030227184296
-0.4471973776817322 0.18302208185195923 0.4207257926464081
-0.4504583775997162 0.8452579975128174 0.3777874708175659
0.5715485215187073 0.8221847414970398 0.1564559042453766
-0.4054213762283325 -0.0877450704574585 -0.40960779786109924
-0.47894659638404846 0.3715529441833496 0.4207257926464081
0.1922234743833542 -0.13944484293460846 -0.3559306561946869
-0.05356958508491516 -0.9911298155784607 0.204570934176445
-0.5697023272514343 0.8185796141624451 0.09728088229894638
0.5521793961524963 0.6443264484405518 0.4207257926464081
0.8338385820388794 0.0351729653775692 0.2508431077003479
0.12322574108839035 -0.9855309128761292 0.139590784907341
-0.7898904085159302 0.38167816400527954 -0.40960779786109924
-0.20544810593128204 -0.32811638712882996 0.4207257926464081
0.8338385820388794 0.19350358843803406 0.30472904443740845
0.5362911224365234 0.24849067628383636 -0.40960779786109924
0.42928335070610046 -0.8972285985946655 -0.0026167272590100765
0.18514877557754517 -0.9760810136795044 0.18430882692337036
-0.04855712875723839 -0.19714248180389404 -0.1821717470884323
0.35951921343803406 -0.608672022819519 0.4207257926464081
