-0.6578036546707153 -0.39038217067718506 0.07335781306028366
-0.5624565482139587 -0.01372296828776598 -0.07330278307199478
-0.0027713486924767494 -0.46449530124664307 -0.07330278307199478
0.9135246276855469 -0.47352251410484314 -0.07330278307199478
-0.33619073033332825 0.28988954424858093 0.07335781306028366
-0.10043925046920776 0.4060779809951782 -0.07330278307199478
0.7100011706352234 -0.5841049551963806 -0.07330278307199478
-0.8161123991012573 -0.26076552271842957 0.01622275821864605
0.7098323702812195 -0.7187910079956055 -0.07330278307199478
-0.38349106907844543 -0.1255698949098587 0.07335781306028366
0.14982722699642181 -0.4173048734664917 -0.06380265951156616
-0.152973473072052 0.35245949029922485 0.07335781306028366
-0.3049764037132263 -0.49514833092689514 0.07335781306028366
0.3520524501800537 -0.7731759548187256 -0.07330278307199478
-0.3129691779613495 -0.028400568291544914 0.07335781306028366
0.06190112233161926 -0.7435107827186584 -0.07330278307199478
0.27507641911506653 -0.8015233278274536 -0.07330278307199478
-0.16585184633731842 0.7636139988899231 -0.07330278307199478
-0.5220751762390137 0.6943718194961548 0.07335781306028366
0.2642546594142914 0.8694332242012024 -0.07330278307199478
0.43866294622421265 0.8881504535675049 0.07335781306028366
-0.5531908273696899 -0.15449978411197662 0.07335781306028366
-0.27743589878082275 -0.09820682555437088 0.008337496779859066
0.4276042580604553 -0.9328551888465881 0.06137967109680176
-0.8116980195045471 0.27125030755996704 -0.06549032032489777
0.7983227968215942 0.4065034091472626 -0.030643615871667862
-0.6383807063102722 -0.05979245528578758 -0.07330278307199478
0.2609081566333771 -0.43308717012405396 -0.07330278307199478
0.5454225540161133 -0.3727923631668091 -0.05408218130469322
-0.47317856550216675 0.47753047943115234 -0.07330278307199478
-0.7799425721168518 0.2354886829853058 -0.07330278307199478
-0.08078304678201675 0.7135491967201233 -0.07330278307199478
0.5501439571380615 -0.7602665424346924 -0.07330278307199478
-0.36115553975105286 -0.39432722330093384 0.07335781306028366
-0.2725669741630554 -0.21374636888504028 -0.07330278307199478
-0.3947703242301941 0.048214107751846313 -0.07330278307199478
-0.44838178157806396 -0.0027977474965155125 0.07335781306028366
-0.7308616638183594 -0.14162026345729828 -0.07330278307199478
-0.4649038314819336 -0.015624786727130413 0.07335781306028366
0.06203458458185196 -0.6749238967895508 -0.07330278307199478
-0.2643442749977112 0.4871963560581207 0.07335781306028366
0.2411641776561737 -0.97355055809021 0.008776957169175148
-0.2842586934566498 -0.6899659037590027 -0.07330278307199478
-0.2339852750301361 0.2034977227449417 -0.04329533874988556
0.3811298906803131 0.39615169167518616 -0.07330278307199478
0.732012927532196 -0.6839291453361511 0.07335781306028366
-0.3027213215827942 -0.34859079122543335 0.07335781306028366
-0.37280407547950745 -0.7846758961677551 0.07335781306028366
0.5533034801483154 0.7346039414405823 0.07335781306028366
-0.21520988643169403 0.3933066427707672 -0.07330278307199478
-0.053761374205350876 -0.9367076754570007 0.07335781306028366
0.6231094598770142 0.37962761521339417 -0.04647228866815567
0.5169374942779541 0.7146701812744141 -0.07330278307199478
0.6118009090423584 0.5774368047714233 -0.07330278307199478
-0.36048659682273865 0.8032926917076111 0.07335781306028366
-0.6574969291687012 -0.5861361026763916 0.034949272871017456
-0.15193255245685577 0.3054925501346588 -0.012443696148693562
-0.464978963136673 -0.3130222260951996 -0.07330278307199478
0.5136961936950684 -0.7302429676055908 0.07335781306028366
0.7063462734222412 0.7812355756759644 0.07335781306028366
0.17408224940299988 -0.7592073082923889 0.07335781306028366
-0.17178012430667877 0.6140148043632507 0.07335781306028366
-0.7244898080825806 -0.3581125736236572 0.07335781306028366
-0.6187410950660706 0.35200968384742737 0.07335781306028366
0.7459826469421387 0.46470215916633606 -0.07330278307199478
0.18777213990688324 0.9732239842414856 0.025298558175563812
0.36503276228904724 0.9059877991676331 -0.07330278307199478
-0.7150543332099915 -0.22951489686965942 -0.07330278307199478
0.3454671800136566 -0.5508324503898621 -0.07330278307199478
0.049507591873407364 0.49514487385749817 0.07335781306028366
0.7548039555549622 0.6202760934829712 0.07335781306028366
-0.21093551814556122 0.23922209441661835 -0.01506795734167099
-0.511490523815155 -0.6110796928405762 -0.07330278307199478
0.4777408242225647 0.5974338054656982 -0.07330278307199478
0.5322534441947937 0.5342893600463867 0.07335781306028366
-0.4878101050853729 0.6327137351036072 -0.07330278307199478
-0.1632636934518814 -0.30255424976348877 -0.07330278307199478
0.3268709182739258 0.9544437527656555 -0.06929485499858856
-0.37696579098701477 -0.7316040992736816 -0.07330278307199478
-0.3466298282146454 -0.6237828731536865 -0.07330278307199478
-0.04110581427812576 0.6845694780349731 0.07335781306028366
-0.2688245177268982 -0.42816466093063354 0.07335781306028366
0.5863997340202332 0.8115822076797485 0.07335781306028366
-0.5497246980667114 -0.08319388329982758 -0.07330278307199478
-0.03711207956075668 0.3792431950569153 -0.023087602108716965
0.8816294074058533 -0.42436280846595764 0.05735841765999794
0.09712214022874832 -0.4508374333381653 0.07335781306028366
0.7566649913787842 0.4073100686073303 -0.07330278307199478
-0.05319830775260925 0.3890380561351776 -0.07330278307199478
-0.22107793390750885 0.2242807149887085 -0.002075955970212817
-0.778508186340332 0.2715536057949066 -0.07330278307199478
0.2840350866317749 0.7656144499778748 -0.07330278307199478
-0.24405668675899506 -0.18952839076519012 -0.06837403774261475
-0.4556865394115448 0.65614253282547 0.07335781306028366
0.39972588419914246 -0.35044407844543457 0.013821141794323921
0.1581517606973648 -0.8412613868713379 -0.07330278307199478
-0.5278891324996948 -0.37443551421165466 -0.07330278307199478
0.12864431738853455 0.7980949282646179 0.07335781306028366
0.8062156438827515 -0.7056174278259277 0.053111713379621506
-0.18313224613666534 0.5217863321304321 -0.07330278307199478
0.06523778289556503 0.9731892347335815 0.06804630160331726
0.42903932929039 -0.3727969527244568 -0.07330278307199478
-0.141560360789299 0.937560498714447 0.055108968168497086
-0.684402585029602 0.44608598947525024 0.07335781306028366
0.08409475535154343 0.5197319388389587 0.07335781306028366
-0.8497152328491211 -0.04868246987462044 0.02808498963713646
0.0612533800303936 0.9506452679634094 -0.07330278307199478
0.1617632806301117 -0.5928066372871399 0.07335781306028366
0.9730809926986694 0.46375516057014465 0.07335781306028366
0.6256788372993469 0.4919793903827667 -0.07330278307199478
0.015854688361287117 -0.5691415667533875 0.07335781306028366
-0.2875773310661316 -0.03170512989163399 0.034252144396305084
-0.4105762243270874 -0.21055461466312408 -0.07330278307199478
0.3220764398574829 -0.6676509380340576 0.07335781306028366
-0.4302930533885956 0.30799081921577454 0.07335781306028366
0.5629109144210815 -0.8731122612953186 0.07335781306028366
0.037722960114479065 0.6383411884307861 -0.07330278307199478
-0.6451982855796814 0.44099870324134827 -0.07330278307199478
0.6794640421867371 0.3920096158981323 -0.07330278307199478
-0.08543272316455841 -0.8227483034133911 -0.07330278307199478
0.08001302927732468 -0.553062379360199 -0.07330278307199478
0.7548196911811829 -0.7519190311431885 -0.00814512837678194
-0.17021358013153076 -0.44648534059524536 -0.07330278307199478
0.8346521854400635 0.5161080360412598 -0.07330278307199478
-0.21997512876987457 -0.48228397965431213 0.07335781306028366
-0.678803563117981 0.19955860078334808 0.07335781306028366
0.6913785934448242 0.39504796266555786 -0.07330278307199478
0.5082482099533081 0.8976870775222778 -0.010234109126031399
-0.6143825650215149 0.6349343061447144 -0.030992567539215088
0.5387689471244812 -0.6683492660522461 0.07335781306028366
-0.5080179572105408 -0.1919245719909668 -0.07330278307199478
0.45300963521003723 0.7495893239974976 0.07335781306028366
-0.535803496837616 0.5331409573554993 -0.07330278307199478
-0.5603794455528259 -0.5606335401535034 0.07335781306028366
-0.5451104044914246 -0.6390604972839355 -0.07330278307199478
0.1058661937713623 0.7732267379760742 -0.07330278307199478
-0.47908756136894226 -0.21619270741939545 -0.07330278307199478
-0.5796177983283997 0.28662848472595215 -0.07330278307199478
0.13352066278457642 0.7046054005622864 -0.07330278307199478
-0.47071725130081177 0.14925812184810638 0.07335781306028366
0.1067056730389595 0.9030532240867615 -0.07330278307199478
-0.19709107279777527 0.33754172921180725 -0.07330278307199478
-0.5024360418319702 -0.7507464289665222 0.06709053367376328
-0.0173043105751276 0.8517405986785889 -0.07330278307199478
-0.5841959118843079 0.6655113697052002 0.07335781306028366
0.1585807204246521 -0.6555848121643066 -0.07330278307199478
-0.26852598786354065 0.5611472725868225 0.07335781306028366
-0.08317042887210846 -0.7529922723770142 -0.07330278307199478
0.41115206480026245 -0.4086228311061859 0.07335781306028366
-0.2922053039073944 0.2722395062446594 0.07335781306028366
0.6680446267127991 0.4118255078792572 0.07335781306028366
0.8641570806503296 -0.6446689963340759 -0.06631412357091904
-0.6332011222839355 0.40581923723220825 -0.07330278307199478
-0.2060810774564743 -0.5309048891067505 -0.07330278307199478
-0.4287606179714203 0.8019300103187561 -0.06428487598896027
-0.07492431998252869 0.6284001469612122 0.07335781306028366
-0.2578321695327759 0.8231207132339478 -0.07330278307199478
0.6848370432853699 -0.7215032577514648 -0.07330278307199478
0.5254720449447632 -0.6502185463905334 0.07335781306028366
0.3689786493778229 0.8973817825317383 0.07335781306028366
-0.5081405639648438 -0.3597868084907532 0.07335781306028366
0.6500559449195862 -0.5086814165115356 -0.07330278307199478
0.5146446228027344 0.8411370515823364 0.07335781306028366
-0.09906920790672302 0.7344085574150085 -0.07330278307199478
-0.5918886661529541 0.22362485527992249 0.07335781306028366
0.43941858410835266 -0.47118109464645386 -0.07330278307199478
-0.29579704999923706 0.08256815373897552 0.07335781306028366
-0.46419522166252136 0.47643792629241943 -0.07330278307199478
-0.03995738551020622 -0.3830620348453522 -0.05925586819648743
0.13927951455116272 -0.9801724553108215 0.03207799047231674
-0.21404880285263062 -0.6008003950119019 0.07335781306028366
0.7181007862091064 -0.5089564919471741 0.07335781306028366
0.4712499678134918 0.9124504327774048 -0.051988258957862854
0.04463818296790123 -0.8117941617965698 -0.07330278307199478
-0.8502426743507385 0.030197255313396454 -0.037293270230293274
0.7214601039886475 -0.7148794531822205 -0.07330278307199478
-0.1548825204372406 -0.3183768689632416 0.07335781306028366
0.6329847574234009 -0.8390243053436279 0.04252932220697403
-0.1990574598312378 0.919245719909668 -0.05220664665102959
0.26128584146499634 0.42717546224594116 0.07335781306028366
0.5391554236412048 0.37850823998451233 -0.07330278307199478
0.34266725182533264 -0.35762321949005127 -0.029463641345500946
-0.5962573885917664 -0.6605013012886047 0.046711888164281845
0.1924990713596344 -0.48475509881973267 -0.07330278307199478
0.2856035530567169 -0.48529207706451416 -0.07330278307199478
0.8036503195762634 -0.47474807500839233 -0.07330278307199478
0.8970835208892822 -0.537053108215332 -0.07330278307199478
0.08060751110315323 0.8620966672897339 0.07335781306028366
-0.11832672357559204 -0.9489744305610657 -0.0019605078268796206
0.509199857711792 -0.9023765325546265 0.010055948980152607
-0.4209059774875641 0.5535911321640015 -0.07330278307199478
-0.31060919165611267 -0.8013654351234436 0.07335781306028366
0.6949836015701294 -0.7982772588729858 -0.05001922324299812
-0.8082600235939026 -0.2878303527832031 -0.022372925654053688
0.3476714789867401 -0.6856628060340881 0.07335781306028366
0.11352147161960602 -0.7040268182754517 0.07335781306028366
0.7966999411582947 -0.6172915697097778 -0.07330278307199478
-0.14437498152256012 -0.6867662668228149 -0.07330278307199478
-0.6812788248062134 -0.06154928356409073 0.07335781306028366
-0.7893955111503601 -0.05105209723114967 -0.07330278307199478
0.4253658354282379 0.8433438539505005 -0.07330278307199478
-0.4430747628211975 0.6919169425964355 0.07335781306028366
0.5076244473457336 -0.7709904313087463 0.07335781306028366
-0.23627623915672302 0.19929496943950653 0.014580575749278069
0.5325496196746826 -0.544992983341217 -0.07330278307199478
0.5536741018295288 0.7054186463356018 0.07335781306028366
-0.10628797113895416 0.9186304807662964 -0.07330278307199478
-0.3286327123641968 -0.779466986656189 0.07335781306028366
-0.3173285126686096 -0.6420233249664307 -0.07330278307199478
-0.6757972836494446 -0.5607969164848328 0.06781578809022903
0.47092774510383606 -0.6854464411735535 0.07335781306028366
-0.04143870994448662 0.675694465637207 -0.07330278307199478
-0.38756063580513 0.22446215152740479 0.07335781306028366
0.9035187363624573 -0.48186391592025757 -0.07330278307199478
-0.054198503494262695 -0.3773656487464905 0.07335781306028366
-0.6539332270622253 -0.32932406663894653 0.07335781306028366
0.6545860767364502 0.45231953263282776 0.07335781306028366
0.596164882183075 0.850767195224762 0.07335781306028366
-0.43619486689567566 0.5851259231567383 -0.07330278307199478
0.08250825107097626 0.6398196816444397 -0.07330278307199478
0.47512415051460266 0.8100461363792419 -0.07330278307199478
0.2605161666870117 -0.9710085391998291 0.03638540953397751
-0.842373788356781 0.1256071776151657 -0.07086756825447083
-0.5852780938148499 0.3266129791736603 -0.07330278307199478
0.003679513232782483 -0.8856467008590698 0.07335781306028366
-0.4031679034233093 0.4710763692855835 -0.07330278307199478
-0.11474427580833435 0.8767807483673096 0.07335781306028366
-0.5982529520988464 0.3692041039466858 -0.07330278307199478
0.28134140372276306 -0.8541460037231445 -0.07330278307199478
0.9887046217918396 0.45918530225753784 -0.02465800568461418
-0.557451069355011 0.6400402188301086 0.07335781306028366
-0.6151602268218994 0.16605842113494873 -0.07330278307199478
-0.42177411913871765 0.08588406443595886 0.07335781306028366
-0.42776453495025635 0.6661667227745056 -0.07330278307199478
-0.008367369882762432 0.6494245529174805 0.07335781306028366
-0.45134058594703674 0.7858089208602905 -0.05430063605308533
0.37007585167884827 0.6343798041343689 -0.07330278307199478
0.16914968192577362 -0.8899746537208557 -0.07330278307199478
0.0895584225654602 0.9497411847114563 0.07335781306028366
-0.07274895161390305 -0.8231421113014221 0.07335781306028366
0.5165536999702454 0.420636385679245 0.07335781306028366
0.6682345271110535 -0.7791245579719543 0.07335781306028366
-0.615071713924408 0.48511528968811035 0.07335781306028366
0.27779603004455566 -0.837313175201416 0.07335781306028366
-0.062010522931814194 0.3675124943256378 -0.05544218420982361
0.756865918636322 0.46040284633636475 0.07335781306028366
-0.2835841178894043 0.06185772269964218 -0.07167277485132217
0.6498614549636841 0.8235378265380859 0.03282696381211281
-0.41010984778404236 0.12347536534070969 -0.07330278307199478
0.628242552280426 0.5874441266059875 -0.07330278307199478
-0.7464324235916138 0.2542104125022888 0.07335781306028366
-0.03209545463323593 0.3812631070613861 0.04067790135741234
0.3920621871948242 0.7086197137832642 0.07335781306028366
0.9463250041007996 0.5308099389076233 -0.06460162997245789
-0.4759223759174347 -0.2228715419769287 0.07335781306028366
-0.7248737812042236 -0.10837043076753616 -0.07330278307199478
0.6305631399154663 0.8354430794715881 -0.014036443084478378
0.7361485362052917 0.7561798095703125 0.07335781306028366
0.9866976141929626 0.46283456683158875 -0.027108360081911087
0.2697373926639557 -0.8606786727905273 0.07335781306028366
0.4302404522895813 0.38315311074256897 -0.07330278307199478
-0.5980265736579895 -0.17369408905506134 -0.07330278307199478
-0.752632737159729 0.2129065841436386 0.07335781306028366
0.4249120056629181 -0.35517337918281555 0.07335781306028366
-0.6085086464881897 0.516154408454895 -0.07330278307199478
0.27600619196891785 0.7891310453414917 -0.07330278307199478
-0.8319433927536011 0.060533322393894196 0.07335781306028366
0.6238308548927307 0.4871291220188141 0.07335781306028366
-0.5048381090164185 0.5887797474861145 0.07335781306028366
-0.4173969328403473 -0.7132223844528198 0.07335781306028366
0.09080959111452103 0.946365475654602 -0.07330278307199478
-0.19591312110424042 0.28444305062294006 0.07335781306028366
0.16142615675926208 -0.8279312252998352 0.07335781306028366
0.883182168006897 0.4976665675640106 0.07335781306028366
-0.34178733825683594 -0.4308107793331146 -0.07330278307199478
-0.6169618368148804 0.141259104013443 0.07335781306028366
-0.20408715307712555 -0.6490659117698669 0.07335781306028366
0.11561638861894608 0.6435704827308655 0.07335781306028366
-0.47046035528182983 0.22931866347789764 0.07335781306028366
-0.09538011252880096 -0.7259063720703125 0.07335781306028366
0.1693660020828247 0.41073980927467346 0.062034714967012405
0.8778163194656372 -0.6286152601242065 -0.0173196904361248
0.4307810366153717 -0.657587468624115 -0.07330278307199478
-0.5066438913345337 0.5644742846488953 0.07335781306028366
-0.574942946434021 0.005965081974864006 0.07335781306028366
0.8213014602661133 -0.41510915756225586 0.03875904902815819
0.90697181224823 0.5395158529281616 -0.07330278307199478
-0.7415537238121033 -0.451646089553833 0.03648097440600395
-0.6775199770927429 -0.05155814066529274 0.07335781306028366
-0.14158432185649872 0.3143727481365204 -0.022378770634531975
-0.48685815930366516 -0.1135948896408081 0.07335781306028366
-0.6608360409736633 -0.2335374504327774 -0.07330278307199478
-0.27479681372642517 0.8825772404670715 -0.07330278307199478
-0.40088245272636414 0.7018179297447205 0.07335781306028366
-0.6342549920082092 -0.3678532540798187 -0.07330278307199478
-0.1813843846321106 -0.39512574672698975 -0.07330278307199478
0.1696673184633255 -0.5910854935646057 0.07335781306028366
0.3439617455005646 0.46205997467041016 -0.07330278307199478
-0.5570101737976074 0.3688584566116333 0.07335781306028366
-0.2555030882358551 0.15986458957195282 0.022179344668984413
-0.3214648962020874 -0.8713644742965698 -0.03699842840433121
-0.08625727891921997 0.6310698986053467 -0.07330278307199478
0.6121841073036194 -0.5465337038040161 -0.07330278307199478
-0.7387450933456421 -0.3956538140773773 0.07335781306028366
0.7858480215072632 -0.40967100858688354 0.016018524765968323
0.03390328958630562 0.9707194566726685 0.06351016461849213
-0.6474555730819702 -0.5251711010932922 -0.07330278307199478
0.7812290191650391 -0.4207330346107483 0.07335781306028366
-0.8443877100944519 0.10909213125705719 0.043054405599832535
-0.607505202293396 -0.12829452753067017 0.07335781306028366
0.9912193417549133 -0.4595060646533966 0.06097440794110298
0.23250815272331238 -0.47211891412734985 0.07335781306028366
-0.7656044960021973 -0.4017738997936249 0.05660741776227951
0.07673550397157669 -0.7037341594696045 -0.07330278307199478
0.636938750743866 0.8315162658691406 0.05159502476453781
0.15794606506824493 0.6946513056755066 -0.07330278307199478
0.15896561741828918 -0.9779359102249146 0.07335781306028366
0.4929675757884979 0.9037262201309204 0.07335781306028366
-0.5542513132095337 0.2563897371292114 -0.07330278307199478
-0.12679027020931244 -0.7667973637580872 -0.07330278307199478
0.8557581305503845 -0.4203944206237793 -0.05091917887330055
-0.8181476593017578 0.24815799295902252 0.02584914304316044
0.8607645034790039 0.5842084884643555 -0.07330278307199478
0.7880305051803589 0.717659592628479 -0.053581297397613525
0.24687542021274567 0.5454092025756836 -0.07330278307199478
0.6226327419281006 0.6002558469772339 -0.07330278307199478
-0.011868425644934177 0.7615872621536255 -0.07330278307199478
0.2801038920879364 0.6639891266822815 0.07335781306028366
-0.8453461527824402 0.10067398846149445 0.057674553245306015
-0.25521546602249146 -0.5730749368667603 -0.07330278307199478
0.20924027264118195 -0.9218626022338867 -0.07330278307199478
0.23535259068012238 0.8614784479141235 0.07335781306028366
-0.09655711054801941 -0.3527704179286957 0.01162467896938324
-0.2530163526535034 -0.22748610377311707 -0.07330278307199478
-0.7297190427780151 0.46881362795829773 0.009388499893248081
0.4574214220046997 -0.35929396748542786 -0.008069594390690327
-0.5923306941986084 0.5673617720603943 0.07335781306028366
-0.13847616314888 0.7118991017341614 -0.07330278307199478
0.2526176869869232 -0.6268472671508789 -0.07330278307199478
-0.14722135663032532 0.3095044791698456 0.0731981173157692
0.1740054488182068 0.8884579539299011 0.07335781306028366
0.1112232655286789 0.9750449061393738 -0.055746663361787796
-0.42100825905799866 0.02894941344857216 0.07335781306028366
-0.1985483467578888 0.8684716820716858 -0.07330278307199478
-0.30549973249435425 -0.3056444227695465 -0.07330278307199478
0.3872585594654083 0.5919340252876282 0.07335781306028366
0.005145430099219084 -0.9040216207504272 0.07335781306028366
0.043297506868839264 -0.4612409174442291 0.07335781306028366
-0.602968692779541 0.07365772128105164 -0.07330278307199478
-0.3126016855239868 0.5110476016998291 -0.07330278307199478
-0.6743404865264893 -0.3650686740875244 -0.07330278307199478
-0.551552951335907 -0.7065808176994324 -0.005996266845613718
0.866438090801239 0.42047572135925293 -0.07330278307199478
0.02887730300426483 -0.9469791054725647 0.07335781306028366
0.49117639660835266 -0.8839454054832458 -0.07330278307199478
-0.5700658559799194 0.162837415933609 -0.07330278307199478
0.603703498840332 -0.6667227149009705 -0.07330278307199478
-0.5292917490005493 0.667709231376648 0.07335781306028366
-0.24720746278762817 -0.2428942173719406 0.07335781306028366
0.17091912031173706 0.6819426417350769 -0.07330278307199478
0.5929512977600098 0.8568532466888428 -0.04465290531516075
0.14762288331985474 0.7181833982467651 -0.07330278307199478
-0.7113725543022156 -0.25942209362983704 0.07335781306028366
0.7300446033477783 -0.7208910584449768 0.07335781306028366
-0.6617408990859985 -0.29320526123046875 0.07335781306028366
-0.45669716596603394 0.4121633768081665 -0.07330278307199478
0.4716540277004242 -0.4098145663738251 -0.07330278307199478
-0.575907289981842 0.08072914183139801 -0.07330278307199478
0.5666047930717468 -0.7792909741401672 0.07335781306028366
0.3194676339626312 0.3656042516231537 0.012220923788845539
0.10422445088624954 -0.9584725499153137 0.07335781306028366
-0.2251938283443451 -0.46079978346824646 -0.07330278307199478
0.4070667326450348 0.39384156465530396 0.07335781306028366
-0.2959314286708832 0.5851357579231262 -0.07330278307199478
0.11073637753725052 0.41250964999198914 0.03909766674041748
0.2634918987751007 -0.8919733762741089 0.07335781306028366
0.5839097499847412 0.6367304921150208 -0.07330278307199478
0.3067459464073181 0.7352007031440735 0.07335781306028366
0.3845493495464325 0.539438784122467 0.07335781306028366
0.9688516855239868 -0.4572657346725464 0.07335781306028366
-0.281576931476593 -0.07828430831432343 0.029074683785438538
-0.3617585003376007 0.8132647275924683 0.07335781306028366
-0.5996678471565247 -0.6218095421791077 0.07335781306028366
0.7544424533843994 0.40468838810920715 -0.07330278307199478
-0.40396052598953247 0.6696292757987976 0.07335781306028366
-0.5479423999786377 0.2536677420139313 0.07335781306028366
-0.6497682929039001 -0.3915064036846161 0.07335781306028366
0.21917331218719482 -0.6993794441223145 0.07335781306028366
0.8669577836990356 -0.6413528919219971 -0.035828378051519394
-0.5790229439735413 0.25214883685112 0.07335781306028366
0.0847463607788086 -0.9404395222663879 -0.07330278307199478
-0.007412431761622429 0.7461793422698975 -0.07330278307199478
-0.17198456823825836 0.9283407926559448 -0.04913444072008133
0.08838406950235367 0.9744259119033813 -0.045851804316043854
-0.33172717690467834 0.2682698965072632 0.07335781306028366
-0.12014703452587128 -0.4640301465988159 0.07335781306028366
-0.31647971272468567 0.3341512382030487 -0.07330278307199478
0.4165344834327698 -0.6622306108474731 -0.07330278307199478
0.21867479383945465 -0.9330357909202576 -0.07330278307199478
-0.13473139703273773 -0.41592642664909363 -0.07330278307199478
0.17750349640846252 0.7339075207710266 -0.07330278307199478
-0.5904027223587036 -0.6668868660926819 0.01725884899497032
0.41125041246414185 0.6619872450828552 0.07335781306028366
-0.1762498915195465 -0.3459152281284332 -0.07330278307199478
0.051335595548152924 0.5788136124610901 -0.07330278307199478
-0.806753933429718 0.258027583360672 -0.07330278307199478
-0.18820154666900635 0.268314391374588 -0.04619910567998886
-0.1500561684370041 0.8653396368026733 -0.07330278307199478
0.26374751329421997 -0.4166618883609772 -0.07330278307199478
-0.2742867171764374 -0.11072929203510284 0.04886668547987938
0.6809102892875671 0.7655215263366699 -0.07330278307199478
-0.27910512685775757 0.08528965711593628 0.04940613731741905
-0.2856566607952118 -0.7164269089698792 -0.07330278307199478
0.12861201167106628 -0.7664000988006592 -0.07330278307199478
0.7257437109947205 -0.756072998046875 -0.07330278307199478
-0.22680439054965973 0.9089717864990234 -0.044645655900239944
-0.48707401752471924 -0.5089783668518066 -0.07330278307199478
-0.3199155330657959 0.30794885754585266 0.07335781306028366
0.5945092439651489 0.48935768008232117 0.07335781306028366
-0.686070442199707 -0.4250311851501465 0.07335781306028366
0.14065256714820862 -0.5223615169525146 -0.07330278307199478
0.4103759229183197 0.6869437098503113 -0.07330278307199478
0.181838259100914 0.40926286578178406 0.06403544545173645
-0.14956121146678925 0.8711660504341125 -0.07330278307199478
-0.0682978481054306 0.9546206593513489 -0.07330278307199478
0.11942493915557861 -0.9801725745201111 -0.07266884297132492
0.6611137390136719 0.5689221620559692 0.07335781306028366
-0.24261009693145752 -0.6917527914047241 -0.07330278307199478
-0.14820566773414612 -0.9407622218132019 -0.05923245847225189
-0.7492987513542175 -0.43637943267822266 -0.022630630061030388
-0.11508606374263763 -0.34016308188438416 0.05317167937755585
0.7925633788108826 -0.669323205947876 -0.07330278307199478
0.35399335622787476 -0.7909444570541382 0.07335781306028366
0.40714505314826965 -0.8547399640083313 0.07335781306028366
-0.38334739208221436 0.1819179356098175 0.07335781306028366
-0.02098596841096878 0.3855789303779602 0.032963626086711884
0.09944935142993927 0.8454617857933044 0.07335781306028366
0.0844641700387001 0.8470944762229919 0.07335781306028366
-0.29952141642570496 -0.37466681003570557 -0.07330278307199478
0.36428102850914 -0.4012810289859772 0.07335781306028366
-0.2790655791759491 0.08573451638221741 -0.0022089164704084396
-0.601584255695343 -0.3835255801677704 -0.07330278307199478
-0.5187328457832336 0.4054085612297058 0.07335781306028366
-0.5617288947105408 -0.5761553049087524 -0.07330278307199478
-0.841870129108429 -0.1346788853406906 0.0009619489428587258
0.8689240217208862 -0.4595145583152771 0.07335781306028366
0.2284453958272934 0.9698639512062073 -0.05460304394364357
-0.6823127269744873 -0.10946054011583328 0.07335781306028366
-0.6005083918571472 0.018040478229522705 0.07335781306028366
-0.19259773194789886 0.4657725691795349 -0.07330278307199478
0.5047634243965149 -0.36655569076538086 0.024217763915657997
0.04601038247346878 -0.5540252923965454 0.07335781306028366
-0.17542514204978943 -0.467338502407074 -0.07330278307199478
0.20201489329338074 -0.8819628357887268 0.07335781306028366
-0.5076369047164917 0.6653222441673279 0.07335781306028366
-0.33778542280197144 -0.09337256103754044 0.07335781306028366
-0.22896808385849 0.21166716516017914 -0.03176450356841087
0.9472198486328125 0.5294044017791748 0.06507295370101929
0.6144279837608337 0.6530242562294006 0.07335781306028366
-0.5119516253471375 -0.22045056521892548 0.07335781306028366
-0.04429203271865845 0.37602418661117554 -0.06951271742582321
-0.37500929832458496 0.8215293288230896 0.07335781306028366
0.07884779572486877 -0.4152430593967438 -0.006341544445604086
0.45473283529281616 0.7383472323417664 0.07335781306028366
-0.6888816952705383 -0.07771575450897217 0.07335781306028366
0.9070897698402405 -0.428268164396286 -0.05712089687585831
-0.14146965742111206 -0.40727540850639343 -0.07330278307199478
-0.4512813091278076 0.5046144127845764 -0.07330278307199478
0.3617803752422333 -0.8023368716239929 -0.07330278307199478
0.5681659579277039 0.8699253797531128 -0.07268258184194565
0.2536504566669464 -0.9636527299880981 -0.07330278307199478
-0.31235355138778687 -0.8289328217506409 0.07335781306028366
-0.20696662366390228 -0.6605966091156006 -0.07330278307199478
-0.32808583974838257 -0.35802558064460754 0.07335781306028366
0.1191297248005867 -0.855217456817627 -0.07330278307199478
0.5018401741981506 0.5786796808242798 -0.07330278307199478
0.6903824210166931 -0.4778148829936981 -0.07330278307199478
0.42576590180397034 0.8163645267486572 -0.07330278307199478
0.826067328453064 0.616696298122406 -0.07330278307199478
-0.24674688279628754 -0.8048932552337646 -0.07330278307199478
0.6211438179016113 0.62090665102005 -0.07330278307199478
0.23730029165744781 0.7820698618888855 0.07335781306028366
0.4493224322795868 0.5027680397033691 -0.07330278307199478
-0.7269532084465027 0.47382494807243347 0.0432753711938858
-0.11556267738342285 0.9376185536384583 0.07335781306028366
-0.5278868079185486 0.7039073705673218 0.07335781306028366
-0.22040671110153198 0.22558851540088654 -0.020037733018398285
-0.0704769417643547 0.936840832233429 0.07335781306028366
0.061338797211647034 -0.5412317514419556 0.07335781306028366
-0.33050161600112915 0.30243980884552 0.07335781306028366
0.9134275317192078 0.5051014423370361 0.07335781306028366
-0.5416370630264282 0.5270823836326599 -0.07330278307199478
0.6638539433479309 0.6376265287399292 0.07335781306028366
0.47639843821525574 0.7352763414382935 0.07335781306028366
0.23120006918907166 0.5447273254394531 0.07335781306028366
0.0917544737458229 -0.6927868127822876 0.07335781306028366
0.6340000629425049 0.45857036113739014 -0.07330278307199478
0.7073145508766174 0.5582044124603271 -0.07330278307199478
-0.40058013796806335 -0.8176829218864441 0.07335781306028366
-0.4029602110385895 -0.20300988852977753 -0.07330278307199478
0.3662479817867279 -0.9504278302192688 0.028893906623125076
0.3888598084449768 0.3436962962150574 -0.033993881195783615
-0.4513472020626068 0.5000773668289185 0.07335781306028366
0.43943044543266296 -0.35653433203697205 -0.06057744473218918
-0.5513337254524231 -0.4928886890411377 -0.07330278307199478
-0.3727119565010071 0.7261756658554077 -0.07330278307199478
0.1502722203731537 -0.8375806212425232 0.07335781306028366
0.3632712960243225 -0.9511853456497192 0.041875213384628296
-0.05371307209134102 -0.49055638909339905 0.07335781306028366
-0.19030237197875977 -0.5620375871658325 0.07335781306028366
-0.1720232367515564 0.5955327153205872 0.07335781306028366
0.27584752440452576 0.7659242153167725 0.07335781306028366
0.48989933729171753 0.35919466614723206 0.00990072637796402
0.5746301412582397 0.7094728946685791 0.07335781306028366
-0.7210110425949097 -0.48925691843032837 0.03674786165356636
-0.13222816586494446 -0.6924550533294678 0.07335781306028366
-0.6466187238693237 0.3790653944015503 0.07335781306028366
-0.05793295055627823 -0.8137125968933105 -0.07330278307199478
0.8761403560638428 0.47428375482559204 0.07335781306028366
-0.1348484456539154 0.33478447794914246 -0.07330278307199478
-0.509170413017273 0.5252901315689087 -0.07330278307199478
0.18528398871421814 -0.6251247525215149 0.07335781306028366
0.3640631139278412 0.9459574818611145 0.004468470811843872
-0.2759922444820404 0.3824824094772339 -0.07330278307199478
-0.43165847659111023 0.5740839838981628 -0.07330278307199478
0.8416430354118347 -0.47590872645378113 0.07335781306028366
0.6370693445205688 -0.8365703821182251 0.002990740817040205
0.007528346497565508 0.5872623324394226 -0.07330278307199478
-0.23325802385807037 -0.8292397260665894 -0.07330278307199478
-0.024284591898322105 -0.44350412487983704 -0.07330278307199478
-0.5042776465415955 0.6968965530395508 -0.07330278307199478
-0.2236488163471222 -0.5890312194824219 0.07335781306028366
0.8582707643508911 -0.4990455210208893 0.07335781306028366
0.020538967102766037 -0.7122531533241272 -0.07330278307199478
0.9484120011329651 0.5275310277938843 0.05251217260956764
-0.8492156267166138 -0.05834950506687164 0.015192152932286263
-0.027117958292365074 0.44438108801841736 -0.07330278307199478
-0.8464236855506897 0.03913625329732895 0.07335781306028366
-0.2533133625984192 0.8279117941856384 -0.07330278307199478
-0.2739879786968231 -0.8942475914955139 0.06955656409263611
0.7914906740188599 -0.4105364978313446 -0.002654869109392166
-0.5924946069717407 -0.664658784866333 -0.010824380442500114
0.3528004288673401 0.3461642563343048 -0.05097881704568863
-0.22476355731487274 -0.22374863922595978 0.07309097051620483
-0.7407522797584534 -0.1667504608631134 -0.07330278307199478
-0.136405348777771 0.6693643927574158 0.07335781306028366
-0.3639748990535736 -0.25815966725349426 -0.07330278307199478
0.4760667383670807 -0.5670366287231445 -0.07330278307199478
-0.5709096193313599 -0.07347264140844345 -0.07330278307199478
0.9028341770172119 0.5922659039497375 -0.023076482117176056
0.7002670764923096 0.7739757895469666 0.07335781306028366
0.7884350419044495 -0.6701449155807495 -0.07330278307199478
-0.22226247191429138 0.2871932089328766 -0.07330278307199478
0.22691263258457184 -0.5292273163795471 0.07335781306028366
-0.48274627327919006 0.08729182928800583 0.07335781306028366
0.27058953046798706 -0.9506284594535828 0.07335781306028366
0.11387299001216888 -0.41774627566337585 -0.05542922765016556
-0.5944163203239441 0.312642902135849 0.07335781306028366
0.8551528453826904 0.6013558506965637 0.07335781306028366
0.4352802336215973 -0.665859580039978 0.07335781306028366
0.4299338161945343 -0.41632646322250366 -0.07330278307199478
0.393388956785202 0.6294988393783569 0.07335781306028366
-0.23524901270866394 -0.4895457327365875 0.07335781306028366
-0.1523640751838684 -0.3570212125778198 0.07335781306028366
-0.4159785211086273 0.5965363383293152 -0.07330278307199478
-0.0362800732254982 -0.3846607208251953 -0.057506583631038666
-0.5232635140419006 0.5263636708259583 -0.07330278307199478
0.5161547660827637 -0.6023840308189392 -0.07330278307199478
-0.78682941198349 0.296213835477829 -0.07330278307199478
-0.23725777864456177 0.5809832811355591 -0.07330278307199478
-0.4255829453468323 0.49391499161720276 0.07335781306028366
-0.21801355481147766 0.27294617891311646 0.07335781306028366
-0.4412946105003357 -0.7785093188285828 -0.07330278307199478
-0.23396271467208862 0.2522902488708496 0.07335781306028366
-0.7316925525665283 0.4651865065097809 0.06292659789323807
0.16386061906814575 -0.4162631034851074 0.02445664443075657
-0.22902962565422058 0.27056244015693665 0.07335781306028366
-0.1710486114025116 0.50682133436203 0.07335781306028366
0.40311962366104126 0.7656412720680237 0.07335781306028366
0.13998162746429443 0.6940992474555969 0.07335781306028366
-0.4589596092700958 -0.7701995372772217 -0.07330278307199478
0.16601736843585968 0.8902459740638733 -0.07330278307199478
0.966621458530426 -0.4808897376060486 0.07335781306028366
0.05465703085064888 0.7960134744644165 0.07335781306028366
-0.2833825945854187 0.06217491254210472 0.043326202780008316
0.3516222834587097 0.5154049396514893 0.07335781306028366
-0.5629035234451294 -0.695442259311676 0.0612548403441906
-0.019404884427785873 -0.3913975954055786 0.06859985738992691
-0.1173408254981041 0.9441249966621399 0.0378175713121891
-0.49401596188545227 -0.218441903591156 0.07335781306028366
-0.22859175503253937 -0.3664920926094055 0.07335781306028366
-0.47940579056739807 -0.024347979575395584 0.07335781306028366
-0.495403528213501 -0.7566767334938049 -0.07123561948537827
-0.720183789730072 0.22688578069210052 -0.07330278307199478
-0.5858386754989624 -0.33250489830970764 -0.07330278307199478
-0.044782496988773346 0.7310276627540588 0.07335781306028366
0.5107831954956055 0.89664226770401 -0.0243354681879282
-0.03750480338931084 0.5573509931564331 0.07335781306028366
-0.5101509690284729 -0.5525086522102356 -0.07330278307199478
0.559706449508667 -0.8792291879653931 0.014887494966387749
0.5331498980522156 0.5738228559494019 0.07335781306028366
-0.5143179297447205 -0.002939624013379216 0.07335781306028366
0.7292401194572449 0.4076434075832367 0.07335781306028366
-0.1352340131998062 0.6877806782722473 -0.07330278307199478
-0.7099609375 0.5029658675193787 0.0728391483426094
-0.37091150879859924 -0.8440290093421936 -0.059315599501132965
-0.09525542706251144 0.4186258018016815 0.07335781306028366
-0.44797104597091675 -0.6568054556846619 0.07335781306028366
0.2396775633096695 0.8273839354515076 0.07335781306028366
0.13220396637916565 -0.7862144708633423 -0.07330278307199478
0.4123733639717102 -0.395141065120697 -0.07330278307199478
0.5731498599052429 0.4574481248855591 0.07335781306028366
0.2875569462776184 0.9094143509864807 0.07335781306028366
0.05582275986671448 -0.41174498200416565 0.03305739164352417
-0.43536919355392456 0.6276612281799316 0.07335781306028366
0.6441301703453064 -0.41252633929252625 0.07335781306028366
-0.06660934537649155 0.36509397625923157 0.014545328915119171
-0.6633751392364502 0.3094860911369324 -0.07330278307199478
-0.32224366068840027 0.07885336130857468 -0.07330278307199478
-0.27697500586509705 -0.0998375415802002 0.017474621534347534
0.1890256255865097 -0.7506710886955261 -0.07330278307199478
0.4535054862499237 0.9189805388450623 0.011592422612011433
-0.5669591426849365 -0.6913686990737915 -0.011565113440155983
-0.6568987965583801 -0.3016011118888855 0.07335781306028366
0.3960345983505249 0.6966381072998047 -0.07330278307199478
0.8291562795639038 -0.5016088485717773 0.07335781306028366
0.24624022841453552 0.797805905342102 0.07335781306028366
0.05533120408654213 -0.7786773443222046 0.07335781306028366
-0.054940227419137955 -0.9631426930427551 -0.024548720568418503
0.11414176225662231 -0.9801411628723145 0.011218693107366562
-0.7522130012512207 -0.4304901659488678 0.02520041912794113
0.4490470886230469 0.7091554999351501 0.07335781306028366
0.8389706015586853 0.6673181653022766 -0.07236015796661377
-0.37079960107803345 -0.3241339921951294 -0.07330278307199478
-0.21968697011470795 0.6436545252799988 0.07335781306028366
-0.3054574429988861 0.2853587567806244 -0.07330278307199478
-0.7071046233177185 -0.22824010252952576 -0.07330278307199478
0.2279963344335556 0.6286490559577942 0.07335781306028366
0.5823373198509216 -0.6710489988327026 0.07335781306028366
0.08408442884683609 -0.9314813017845154 -0.07330278307199478
0.2375747114419937 -0.4029240906238556 -0.03580290824174881
0.04723604395985603 0.519033670425415 -0.07330278307199478
-0.34949222207069397 -0.8563027381896973 -0.06855767965316772
-0.235212042927742 -0.6916371583938599 -0.07330278307199478
-0.6017556190490723 -0.4795597493648529 0.07335781306028366
0.6155797243118286 -0.8039877414703369 -0.07330278307199478
-0.630188524723053 -0.6072928309440613 0.07335781306028366
0.7332004308700562 -0.5032228827476501 -0.07330278307199478
0.009385703131556511 -0.9731616973876953 -0.041895098984241486
0.7007487416267395 -0.5817922353744507 -0.07330278307199478
0.5540907979011536 0.39034533500671387 0.07335781306028366
-0.5367347598075867 0.7153884768486023 -0.0337805300951004
-0.14154161512851715 0.31440725922584534 0.047592174261808395
0.10276437550783157 0.7171290516853333 -0.07330278307199478
-0.2670656442642212 -0.13474440574645996 0.047921616584062576
0.641935408115387 0.8284643888473511 -0.0591319315135479
-0.15147632360458374 0.8507677912712097 -0.07330278307199478
0.32043322920799255 -0.6377295851707458 0.07335781306028366
0.53059321641922 -0.3705177307128906 -0.05556890368461609
0.6818967461585999 0.4538686275482178 0.07335781306028366
0.03298555314540863 0.6705885529518127 -0.07330278307199478
-0.5239573121070862 -0.7298340797424316 -0.07330278307199478
0.7960856556892395 0.5638299584388733 0.07335781306028366
0.17697851359844208 -0.9487138986587524 0.07335781306028366
-0.6897410154342651 0.28060755133628845 0.07335781306028366
0.4578089416027069 -0.5433546900749207 0.07335781306028366
0.13006408512592316 0.9751787781715393 -0.07000342011451721
0.18790727853775024 0.493839830160141 0.07335781306028366
0.05846429616212845 0.4071958363056183 -0.057557862251996994
-0.1237695962190628 -0.9437172412872314 0.07335781306028366
-0.5049527883529663 -0.7486811280250549 -0.01517195999622345
-0.32741695642471313 0.596305251121521 -0.07330278307199478
0.42029157280921936 -0.8364647626876831 0.07335781306028366
0.5053625106811523 -0.6919629573822021 0.07335781306028366
-0.26929739117622375 -0.3708697557449341 0.07335781306028366
-0.45447954535484314 -0.28878605365753174 0.07335781306028366
0.6335747838020325 0.8336202502250671 0.0601678229868412
0.7228219509124756 0.49836939573287964 0.07335781306028366
0.12026254087686539 -0.41790586709976196 -0.0644051805138588
0.7395958304405212 0.49341556429862976 0.07335781306028366
0.2315799444913864 -0.4801636040210724 -0.07330278307199478
0.8359901309013367 0.5311819314956665 0.07335781306028366
-0.32133132219314575 0.12807616591453552 -0.07330278307199478
0.0612218864262104 -0.6406211853027344 0.07335781306028366
-0.022057916969060898 -0.5074841976165771 0.07335781306028366
-0.7370090484619141 -0.31471794843673706 0.07335781306028366
0.1130361407995224 0.924485981464386 0.07335781306028366
0.14747680723667145 -0.5407423377037048 -0.07330278307199478
0.3292703330516815 0.7521017789840698 0.07335781306028366
0.743400514125824 -0.527808427810669 0.07335781306028366
0.3092692792415619 0.9250728487968445 -0.07330278307199478
0.22523143887519836 -0.7576014399528503 0.07335781306028366
-0.02916017174720764 0.8636369705200195 -0.07330278307199478
-0.4123969078063965 0.273826539516449 0.07335781306028366
0.524461030960083 0.4514494836330414 0.07335781306028366
0.38889196515083313 0.4603220522403717 -0.07330278307199478
-0.37864527106285095 -0.8263474702835083 0.07335781306028366
0.04748314991593361 -0.9769563674926758 -0.026873454451560974
-0.4770350158214569 -0.14868220686912537 0.07335781306028366
-0.38933539390563965 0.6632663607597351 0.07335781306028366
-0.49225443601608276 0.41350144147872925 -0.07330278307199478
0.22295871376991272 0.5059639811515808 0.07335781306028366
0.23264871537685394 -0.9108095169067383 0.07335781306028366
0.5188418626785278 0.6383039951324463 0.07335781306028366
-0.1104026585817337 0.9115563035011292 0.07335781306028366
-0.26246407628059387 0.4252183735370636 -0.07330278307199478
-0.7614247798919678 -0.4110294282436371 -0.014480297453701496
-0.7661139965057373 -0.13550908863544464 -0.07330278307199478
-0.7796655297279358 0.30959445238113403 0.07335781306028366
0.5202078223228455 0.832429051399231 -0.07330278307199478
-0.06658834964036942 -0.960903525352478 0.015479246154427528
-0.35093995928764343 -0.6737920641899109 0.07335781306028366
0.07658309489488602 0.670133113861084 -0.07330278307199478
0.261880487203598 0.9658038020133972 -0.06670544296503067
-0.17502449452877045 -0.4013436436653137 -0.07330278307199478
0.01240071002393961 -0.7093892097473145 -0.07330278307199478
-0.10307836532592773 0.765491247177124 -0.07330278307199478
-0.6666507720947266 -0.4804799258708954 0.07335781306028366
0.3993649482727051 0.7542218565940857 0.07335781306028366
0.9512453675270081 -0.5281592011451721 -0.006070460192859173
0.06087728962302208 -0.8545104265213013 -0.07330278307199478
-0.3114190697669983 -0.08870678395032883 -0.07330278307199478
0.3124714195728302 -0.82500821352005 0.07335781306028366
0.5620114207267761 0.41465872526168823 -0.07330278307199478
0.24707336723804474 0.7617794871330261 0.07335781306028366
-0.39367756247520447 -0.7695886492729187 -0.07330278307199478
0.07224451750516891 0.49182748794555664 -0.07330278307199478
-0.7628764510154724 -0.3405213952064514 0.07335781306028366
-0.588862955570221 -0.3720366954803467 -0.07330278307199478
0.923231840133667 0.5646219849586487 0.06316948682069778
0.35102081298828125 0.7922638654708862 -0.07330278307199478
-0.19634926319122314 0.7307474613189697 0.07335781306028366
-0.17422406375408173 -0.927892804145813 -0.07330278307199478
-0.37211886048316956 0.1676729917526245 0.07335781306028366
-0.47898709774017334 0.6499526500701904 -0.07330278307199478
-0.7280596494674683 0.25565314292907715 0.07335781306028366
0.43701252341270447 0.8782304525375366 -0.07330278307199478
0.7651640176773071 0.43542033433914185 -0.07330278307199478
-0.24155867099761963 -0.5251104831695557 -0.07330278307199478
0.38706836104393005 -0.3790552616119385 0.07335781306028366
0.12309300899505615 0.41280490159988403 0.06965003162622452
-0.636749804019928 -0.6131345629692078 -0.03630475699901581
-0.10136719048023224 0.8537134528160095 -0.07330278307199478
-0.21978110074996948 -0.8985854983329773 -0.07330278307199478
-0.14131052792072296 0.647020697593689 0.07335781306028366
0.15122279524803162 -0.6274160146713257 0.07335781306028366
0.15772581100463867 -0.6186973452568054 -0.07330278307199478
-0.2932615578174591 0.6370097398757935 -0.07330278307199478
-0.16241320967674255 0.4611220955848694 -0.07330278307199478
-0.37750208377838135 -0.4486471116542816 0.07335781306028366
-0.23330268263816833 -0.2847825586795807 0.07335781306028366
0.38641372323036194 0.4239894151687622 -0.07330278307199478
-0.3027687966823578 -0.8808066248893738 0.022329824045300484
-0.10658744722604752 0.3411165773868561 0.0568474642932415
0.6006014943122864 0.6396835446357727 0.07335781306028366
-0.603696346282959 0.07469023019075394 0.07335781306028366
-0.8487708568572998 0.06070605292916298 0.04261896759271622
0.3178935647010803 -0.8355081677436829 -0.07330278307199478
-0.8179838061332703 -0.25390854477882385 0.05223967880010605
0.08216587454080582 0.9741159677505493 -0.04625789448618889
0.608856201171875 0.6919777989387512 -0.07330278307199478
0.5024633407592773 0.4059276282787323 -0.07330278307199478
0.3999652564525604 0.924814760684967 -0.07330278307199478
-0.07266515493392944 -0.7590299248695374 0.07335781306028366
0.4704519808292389 -0.6537728309631348 -0.07330278307199478
-0.32600948214530945 0.3531200587749481 0.07335781306028366
-0.28174957633018494 0.8856578469276428 0.03873220458626747
-0.012332374230027199 -0.9241315126419067 -0.07330278307199478
0.6018993854522705 -0.6046794652938843 0.07335781306028366
-0.2878465950489044 -0.8879483938217163 0.0020473008044064045
0.6665310263633728 -0.770408034324646 -0.07330278307199478
0.34181103110313416 -0.7797431945800781 -0.07330278307199478
0.30998045206069946 0.5758965611457825 0.07335781306028366
-0.18500582873821259 0.9240379929542542 -0.04955888167023659
-0.2530243694782257 -0.418952077627182 0.07335781306028366
0.6913959980010986 0.5920873284339905 0.07335781306028366
-0.3274385929107666 0.4493171274662018 0.07335781306028366
0.28273552656173706 -0.6544429659843445 0.07335781306028366
-0.27970051765441895 -0.8829249143600464 0.07335781306028366
-0.7086091637611389 0.05106349661946297 0.07335781306028366
0.8851311802864075 -0.5235470533370972 0.07335781306028366
-0.2168155014514923 -0.28990650177001953 -0.07330278307199478
0.3156910538673401 0.6032730937004089 -0.07330278307199478
0.10158628225326538 0.5328556895256042 0.07335781306028366
0.35626643896102905 -0.7166560292243958 -0.07330278307199478
0.5948131680488586 0.8559294939041138 0.06962540745735168
0.7372852563858032 0.40888383984565735 0.07335781306028366
-0.8425173163414001 0.1246991902589798 -0.008186359889805317
-0.1770775020122528 -0.4410417973995209 -0.07330278307199478
0.325531929731369 -0.8647647500038147 -0.07330278307199478
-0.17274460196495056 -0.3245496153831482 -0.07330278307199478
0.2212565392255783 -0.4793202579021454 0.07335781306028366
0.4594287574291229 0.8607688546180725 -0.07330278307199478
-0.359188437461853 -0.5906809568405151 -0.07330278307199478
-0.3813804090023041 0.31826457381248474 -0.07330278307199478
0.4154455363750458 -0.4023309051990509 -0.07330278307199478
-0.303934782743454 -0.8361434936523438 -0.07330278307199478
-0.7958437204360962 -0.2701285779476166 -0.07330278307199478
