0.058939967304468155 -0.9999989867210388 0.014370834454894066
0.6191720962524414 -0.9627883434295654 -0.25296148657798767
0.5743237137794495 0.028724512085318565 0.061361994594335556
-0.0513310581445694 -0.9999989867210388 -0.15495947003364563
-0.9885819554328918 0.8554614186286926 0.020509889349341393
-0.1723223328590393 0.3733891248703003 0.25119632482528687
0.13609249889850616 0.5893229246139526 0.25119632482528687
0.21322380006313324 -0.8340815901756287 -0.25296148657798767
0.5706524848937988 0.7854400277137756 -0.053285736590623856
0.22905327379703522 0.17284998297691345 -0.25296148657798767
-0.08899743109941483 0.3510993421077728 0.25119632482528687
0.46157306432724 -0.6051148772239685 -0.25296148657798767
-0.14023584127426147 -0.9999989867210388 0.08724652975797653
0.5440627336502075 0.7661542892456055 -0.012423677369952202
-0.9885819554328918 -0.49768081307411194 -0.17628706991672516
-0.5484141707420349 0.9399639964103699 -0.14573924243450165
0.46124592423439026 -0.5892512202262878 -0.25296148657798767
-0.365452378988266 -0.9999989867210388 -0.012399121187627316
0.9446752071380615 0.6651695370674133 0.09667060524225235
0.24197562038898468 0.5992931723594666 0.25119632482528687
0.088516965508461 -0.6965517401695251 0.25119632482528687
0.6105566620826721 -0.9999989867210388 -0.22410348057746887
-0.5185211300849915 0.9399639964103699 -0.1660722941160202
0.6518877148628235 -0.9601964950561523 -0.25296148657798767
0.3959329128265381 -0.9999989867210388 -0.04318120330572128
-0.14197470247745514 0.6857656836509705 -0.08685434609651566
-0.7226852774620056 -0.0047918749041855335 0.25119632482528687
0.501236081123352 0.6915624141693115 -0.09925491362810135
0.5569961667060852 -0.30569568276405334 -0.04678225889801979
0.7946089506149292 -0.7855975031852722 -0.25296148657798767
-0.9885819554328918 0.789402425289154 -0.09684139490127563
-0.6387965083122253 0.9399639964103699 0.025117523968219757
0.7866588830947876 0.7296489477157593 -0.25296148657798767
-0.9082053303718567 0.11316562443971634 0.25119632482528687
-0.15012820065021515 -0.2320994883775711 0.25119632482528687
0.0978025421500206 -0.4056745767593384 -0.25296148657798767
0.2622992992401123 -0.07525654882192612 -0.25296148657798767
0.9271599650382996 -0.7648270726203918 -0.25296148657798767
-0.11030326038599014 -0.9999989867210388 -0.07388237863779068
-0.8524119853973389 0.4638431966304779 -0.25296148657798767
-0.08910980820655823 -0.23164425790309906 -0.25296148657798767
-0.1844760626554489 0.6857656836509705 0.0910886898636818
0.6504728198051453 -0.4795800745487213 -0.25296148657798767
0.06700768321752548 0.07881175726652145 -0.25296148657798767
0.5501469373703003 -0.5031713247299194 0.25119632482528687
-0.0031723983120173216 0.9399639964103699 -0.20760680735111237
0.5207109451293945 -0.26422280073165894 0.2017081379890442
0.19461870193481445 -0.6621185541152954 0.25119632482528687
-0.804780900478363 0.02513998933136463 -0.25296148657798767
0.47737109661102295 -0.9999989867210388 -0.210779070854187
0.6111865043640137 0.9399639964103699 0.21272438764572144
-0.46211326122283936 -0.9999989867210388 0.24840377271175385
-0.7475237250328064 -0.8407627940177917 -0.25296148657798767
-0.5455994606018066 -0.46958404779434204 0.25119632482528687
-0.7943260073661804 0.8027915954589844 0.25119632482528687
-0.5901041030883789 0.7863608002662659 -0.25296148657798767
-0.9729483723640442 -0.09334251284599304 -0.25296148657798767
0.48069313168525696 -0.3685075342655182 0.25119632482528687
-0.9885819554328918 0.2700401544570923 -0.0788237676024437
0.08983898162841797 0.020004617050290108 0.25119632482528687
-0.18405157327651978 -0.4023532569408417 -0.25296148657798767
-0.9042779803276062 0.5119280815124512 0.25119632482528687
-0.055348221212625504 -0.9999989867210388 0.19585753977298737
-0.29141828417778015 -0.7898764610290527 0.25119632482528687
-0.9885819554328918 -0.8638397455215454 0.14783163368701935
-0.6539987325668335 -0.7013688087463379 0.25119632482528687
-0.9885819554328918 -0.9687238335609436 0.07943523675203323
0.4568151533603668 -0.9999989867210388 -0.1714242547750473
0.9446752071380615 -0.1176856979727745 0.10009557008743286
0.237887904047966 0.9399639964103699 -0.1608251929283142
-0.005484302062541246 0.0010206976439803839 -0.25296148657798767
0.9446752071380615 0.8272604942321777 0.12373422086238861
-0.9885819554328918 -0.07315338402986526 -0.19961844384670258
0.7236911654472351 0.5404794216156006 -0.08846327662467957
-0.7360218167304993 0.4059537947177887 0.25119632482528687
-0.4826696217060089 -0.13096091151237488 0.25119632482528687
0.9307475686073303 0.5844043493270874 0.25119632482528687
0.07417136430740356 -0.701618492603302 0.25119632482528687
0.013491395860910416 0.9399639964103699 0.14478462934494019
-0.425306111574173 -0.41894257068634033 0.25119632482528687
0.5084022283554077 -0.047998812049627304 0.14823614060878754
0.19225424528121948 0.9399639964103699 0.13947145640850067
-0.2870909869670868 -0.6540544629096985 0.25119632482528687
0.882551908493042 -0.6292070150375366 -0.25296148657798767
0.1161888986825943 -0.6942102313041687 -0.25296148657798767
-0.20962806046009064 0.6857656836509705 0.2132868617773056
-0.4160773456096649 -0.9999989867210388 0.1717664897441864
0.9446752071380615 -0.020473646000027657 -0.22985072433948517
0.8786277770996094 -0.8957040905952454 -0.25296148657798767
0.9446752071380615 0.3805447518825531 -0.21426641941070557
0.733188807964325 0.9399639964103699 0.18173819780349731
-0.7783944606781006 0.9399639964103699 0.10683465749025345
-0.9885178804397583 0.002702153753489256 -0.25296148657798767
-0.17548608779907227 -0.12868912518024445 -0.25296148657798767
-0.2781532108783722 -0.590336799621582 0.25119632482528687
-0.890547513961792 0.9399639964103699 0.07106820493936539
-0.4157772660255432 -0.7458895444869995 0.25119632482528687
-0.4599500596523285 -0.9228978157043457 0.25119632482528687
0.4502711892127991 -0.4643089473247528 -0.25296148657798767
0.880825936794281 -0.9908550977706909 -0.25296148657798767
-0.5656272172927856 -0.5537004470825195 -0.25296148657798767
-0.058807142078876495 -0.058075398206710815 -0.25296148657798767
0.6144015192985535 0.5181776285171509 0.08024951815605164
0.8840027451515198 -0.3230397403240204 0.25119632482528687
-0.513587236404419 -0.023291751742362976 0.25119632482528687
0.018090683966875076 0.02099057100713253 -0.25296148657798767
-0.2794186770915985 -0.7917380928993225 0.25119632482528687
-0.7144343256950378 -0.004616158548742533 -0.25296148657798767
0.35654202103614807 -0.9822913408279419 0.25119632482528687
0.7837430834770203 -0.4120144248008728 -0.25296148657798767
-0.21099361777305603 -0.9999989867210388 -0.2506435215473175
-0.9885819554328918 -0.6779136657714844 0.10797420144081116
0.11760913580656052 0.9399639964103699 0.09868580102920532
0.9112489223480225 0.23355627059936523 0.25119632482528687
0.9446752071380615 0.2741742730140686 -0.0621662475168705
-0.014226000756025314 -0.19429835677146912 -0.25296148657798767
-0.20875591039657593 0.7496057748794556 0.25119632482528687
0.9161038994789124 -0.9202136397361755 0.25119632482528687
0.9446752071380615 -0.9050078392028809 0.10955825448036194
-0.9885819554328918 -0.3310724198818207 -0.16072864830493927
0.7491974234580994 0.10351560264825821 0.25119632482528687
0.5539822578430176 0.01234709657728672 0.05421925708651543
-0.8262020945549011 0.47819629311561584 0.25119632482528687
-0.9885819554328918 -0.8522267937660217 -0.01804870180785656
0.9446752071380615 0.9391571879386902 0.006834253203123808
-0.9885819554328918 -0.8188568949699402 0.06519050896167755
-0.795911431312561 -0.1375899463891983 -0.25296148657798767
0.9446752071380615 -0.803044319152832 0.17988792061805725
0.2690938115119934 0.9399639964103699 -0.14519236981868744
-0.45339009165763855 0.057337433099746704 0.25119632482528687
-0.21109075844287872 0.9086926579475403 -0.25296148657798767
-0.562810480594635 0.9399639964103699 0.22711016237735748
0.34602969884872437 -0.46286630630493164 -0.25296148657798767
-0.2605171203613281 0.8015880584716797 0.25119632482528687
0.9446752071380615 0.7931103706359863 0.036813102662563324
0.52292799949646 -0.005570230074226856 -0.25296148657798767
-0.641731321811676 -0.37332063913345337 0.25119632482528687
0.9446752071380615 0.6872919201850891 0.20851868391036987
-0.9885819554328918 -0.9159800410270691 -0.19748365879058838
0.7705321311950684 0.592578649520874 -0.11752615869045258
-0.7638444304466248 -0.9999989867210388 0.08690635114908218
-0.9885819554328918 0.18860875070095062 -0.023704485967755318
0.008982468396425247 -0.9999989867210388 -0.23132456839084625
-0.9885819554328918 0.8917899131774902 0.02601933851838112
0.03797713294625282 0.5671544075012207 0.25119632482528687
-0.9885819554328918 -0.7821747660636902 -0.179652139544487
-0.6018563508987427 0.6010392904281616 0.25119632482528687
-0.9885819554328918 -0.01088038831949234 -0.10861711949110031
0.48482221364974976 -0.1519642174243927 -0.1560191959142685
0.9446752071380615 -0.3421905040740967 0.2404765635728836
-0.005242602899670601 0.2545569837093353 -0.25296148657798767
0.8098855018615723 0.2598058879375458 0.25119632482528687
0.5777508616447449 -0.33566007018089294 -0.25296148657798767
-0.9885819554328918 0.614201009273529 0.057509250938892365
-0.8945791125297546 -0.8340092301368713 -0.25296148657798767
0.09087440371513367 0.13297514617443085 0.25119632482528687
-0.503603994846344 -0.9824934601783752 0.25119632482528687
-0.125949427485466 -0.6482617259025574 0.25119632482528687
0.500621497631073 0.631481945514679 -0.05566886067390442
-0.16935603320598602 0.12423781305551529 -0.25296148657798767
0.8114220499992371 0.9399639964103699 0.035908445715904236
0.5130912065505981 0.5957476496696472 0.06183138117194176
0.47263815999031067 0.9399639964103699 0.18963392078876495
0.9446752071380615 -0.5086687207221985 0.25007301568984985
0.7234486937522888 -0.849646806716919 0.25119632482528687
-0.7967934608459473 0.7544131875038147 0.25119632482528687
0.41286420822143555 -0.8513808250427246 0.25119632482528687
0.41248106956481934 0.9206969738006592 0.25119632482528687
-0.5252864360809326 -0.4683326482772827 -0.25296148657798767
0.49025091528892517 -0.09694883972406387 -0.17025581002235413
0.7872366309165955 0.6581788063049316 0.045213840901851654
0.6048795580863953 0.046796392649412155 -0.11048933863639832
-0.25038203597068787 -0.7980162501335144 0.25119632482528687
-0.39451730251312256 0.7910606861114502 0.25119632482528687
0.9446752071380615 -0.5057924389839172 0.18161433935165405
0.9446752071380615 -0.39107462763786316 -0.006264087278395891
0.13894806802272797 0.9399639964103699 -0.15904565155506134
-0.7614246010780334 -0.8368431925773621 -0.25296148657798767
-0.7002568244934082 -0.17952583730220795 -0.25296148657798767
0.5540516972541809 -0.34663981199264526 -0.25296148657798767
0.8792768716812134 -0.2610839903354645 -0.130818709731102
-0.9646259546279907 -0.9999989867210388 -0.09553057700395584
-0.5320414304733276 -0.16483238339424133 0.25119632482528687
0.12371423840522766 -0.9999989867210388 -0.2173822522163391
0.9111737012863159 -0.17376810312271118 -0.16524218022823334
-0.700920045375824 0.606813371181488 -0.25296148657798767
0.42434000968933105 -0.31762170791625977 -0.25296148657798767
-0.09489049762487411 0.3253129720687866 -0.25296148657798767
0.9446752071380615 -0.9468191266059875 -0.11735859513282776
-0.7124714255332947 0.9399639964103699 0.10213718563318253
0.9045341610908508 0.44200149178504944 -0.25296148657798767
0.48788976669311523 -0.9249774813652039 -0.25296148657798767
0.6843007206916809 0.0872030258178711 0.25119632482528687
0.3410482704639435 -0.9999989867210388 0.2275541126728058
0.3633425831794739 -0.735420286655426 -0.25296148657798767
-0.15729117393493652 0.4907853901386261 -0.1840912401676178
0.0977131798863411 0.5631569623947144 0.25119632482528687
-0.4327779710292816 -0.8330581784248352 -0.25296148657798767
-0.6582134962081909 0.938086748123169 0.25119632482528687
0.17695029079914093 -0.6291216611862183 -0.25296148657798767
-0.8267325162887573 0.9399639964103699 0.13328251242637634
0.3097018301486969 -0.48410889506340027 0.25119632482528687
0.9446752071380615 -0.3684462010860443 -0.24715372920036316
-0.39908650517463684 0.6571488380432129 -0.02076338417828083
-0.4097540080547333 0.9399639964103699 0.14657002687454224
-0.14172521233558655 0.15827691555023193 0.25119632482528687
0.3847390413284302 -0.2740005552768707 -0.25296148657798767
-0.6139441728591919 -0.3500802218914032 0.25119632482528687
-0.9885819554328918 0.037347469478845596 -0.25211185216903687
-0.18118563294410706 -0.9999989867210388 0.1534987986087799
-0.7024537324905396 0.11401074379682541 0.25119632482528687
-0.9885819554328918 -0.4098343253135681 0.08539292961359024
0.03655102849006653 -0.8613352179527283 -0.25296148657798767
-0.9685164093971252 -0.618147075176239 -0.25296148657798767
-0.9885819554328918 0.15074148774147034 -0.19876308739185333
-0.9885819554328918 0.1656191051006317 -0.2230852097272873
-0.6587117314338684 0.9399639964103699 0.10873636603355408
-0.7080362439155579 -0.01862962730228901 0.25119632482528687
-0.9885819554328918 -0.953632116317749 0.17112956941127777
0.1564762145280838 0.3769589364528656 0.25119632482528687
-0.9885819554328918 0.12571051716804504 0.2132454365491867
0.3053474426269531 -0.7946482300758362 -0.25296148657798767
0.9446752071380615 -0.40113598108291626 -0.11090284585952759
0.9120194911956787 -0.1678621619939804 0.08984920382499695
-0.9885819554328918 -0.7646046280860901 0.03041992522776127
0.49456310272216797 -0.08205385506153107 -0.21753810346126556
0.35480043292045593 -0.395203173160553 -0.25296148657798767
-0.39410296082496643 0.9016171097755432 -0.25296148657798767
0.01342562772333622 -0.5011481046676636 0.25119632482528687
0.7201966643333435 -0.9999989867210388 -0.17893551290035248
0.30300137400627136 -0.6639003157615662 -0.25296148657798767
-0.12151578068733215 0.9399639964103699 0.00023699873418081552
0.3898046910762787 -0.9999989867210388 0.025716641917824745
0.3893616795539856 0.4469318389892578 0.25119632482528687
0.4889557659626007 -0.1868598759174347 0.02292468212544918
0.5077975988388062 0.7132189869880676 0.11403008550405502
0.9446752071380615 0.8701744079589844 0.08915288001298904
-0.001247956301085651 0.9125713109970093 0.25119632482528687
0.9446752071380615 -0.265687495470047 -0.11045373976230621
-0.49198228120803833 0.22166375815868378 0.25119632482528687
-0.7012856602668762 -0.9319206476211548 -0.25296148657798767
0.09107492864131927 0.6905751824378967 -0.25296148657798767
-0.8805307149887085 -0.7600030899047852 0.25119632482528687
-0.6375657320022583 -0.7218783497810364 0.25119632482528687
-0.9885819554328918 0.4866847097873688 -0.1300003081560135
-0.9885819554328918 0.22614987194538116 -0.1135115996003151
-0.7703030705451965 -0.24933861196041107 -0.25296148657798767
0.627953052520752 0.9399639964103699 0.08677048981189728
-0.1570659875869751 0.2751680910587311 -0.25296148657798767
-0.3812125027179718 0.4907853901386261 -0.162249356508255
-0.49722233414649963 0.9049736261367798 -0.25296148657798767
0.16166570782661438 0.9399639964103699 0.08950881659984589
0.5587987899780273 -0.9999989867210388 -0.19587478041648865
-0.5051366686820984 0.383579820394516 0.25119632482528687
-0.09776093810796738 0.9399639964103699 -0.16411751508712769
-0.1453135907649994 -0.8955907225608826 0.25119632482528687
0.2608124911785126 -0.8267905116081238 0.25119632482528687
0.8897684216499329 -0.9618271589279175 0.25119632482528687
0.12000703811645508 0.43743929266929626 0.25119632482528687
0.813614010810852 -0.32648971676826477 -0.13694486021995544
0.12048586457967758 0.9399639964103699 0.12079858779907227
0.23362138867378235 0.24101097881793976 0.25119632482528687
0.09242547303438187 -0.2610853612422943 -0.25296148657798767
0.8962574005126953 -0.23186908662319183 -0.25296148657798767
-0.5447554588317871 -0.1294202208518982 0.25119632482528687
-0.7531446218490601 0.9399639964103699 -0.21057772636413574
0.3292851746082306 0.6187692284584045 -0.25296148657798767
-0.5061189532279968 0.15557712316513062 0.25119632482528687
-0.8546199202537537 -0.20540979504585266 -0.25296148657798767
-0.6740929484367371 0.22513747215270996 -0.25296148657798767
0.6954511404037476 0.06872716546058655 -0.13895756006240845
-0.5755565166473389 -0.8004252314567566 -0.25296148657798767
-0.5591011643409729 -0.9999989867210388 -0.19491255283355713
-0.019454091787338257 -0.5515497326850891 0.25119632482528687
0.9446752071380615 -0.14717935025691986 -0.05039042606949806
0.9446752071380615 -0.952684760093689 -0.01782873645424843
-0.3821065127849579 0.4907853901386261 0.2411983758211136
0.509268581867218 0.7851682305335999 -0.25296148657798767
-0.5673014521598816 0.4740879237651825 0.25119632482528687
-0.560707151889801 -0.9202107191085815 -0.25296148657798767
0.26481515169143677 -0.5381563305854797 -0.25296148657798767
-0.9418397545814514 -0.6753650307655334 -0.25296148657798767
-0.9885819554328918 0.7269279956817627 0.0876067504286766
-0.9488494992256165 0.5384145975112915 -0.25296148657798767
-0.32998231053352356 0.7259856462478638 -0.25296148657798767
-0.09306778758764267 -0.4035717248916626 -0.25296148657798767
0.37673959136009216 -0.47618982195854187 0.25119632482528687
-0.7765740752220154 -0.5162968635559082 -0.25296148657798767
-0.21796807646751404 -0.05127779766917229 0.25119632482528687
0.09781183302402496 -0.5114970803260803 -0.25296148657798767
-0.7408363819122314 -0.9999989867210388 0.2407650500535965
-0.9885819554328918 -0.46624651551246643 0.14277060329914093
-0.8120022416114807 -0.3705294132232666 -0.25296148657798767
-0.9123480319976807 -0.47026655077934265 -0.25296148657798767
-0.706352949142456 -0.015094859525561333 -0.25296148657798767
0.6018158197402954 -0.33645907044410706 0.24617666006088257
0.09023981541395187 -0.8188787698745728 -0.25296148657798767
0.9446752071380615 -0.3622158467769623 -0.09808039665222168
-0.5410796999931335 0.8174249529838562 -0.25296148657798767
0.9446752071380615 0.021658478304743767 0.1679445505142212
0.4982070326805115 0.6691167950630188 0.008696232922375202
-0.3727031946182251 0.4907853901386261 0.21738415956497192
-0.762685239315033 -0.5194173455238342 -0.25296148657798767
0.09166041016578674 0.08387185633182526 0.25119632482528687
-0.8764025568962097 0.9399639964103699 -0.040421392768621445
0.435360312461853 0.5487902760505676 0.25119632482528687
0.6004461646080017 0.798496663570404 0.08518000692129135
-0.12041723728179932 -0.5776988863945007 -0.25296148657798767
0.14496944844722748 0.1348840743303299 0.25119632482528687
-0.9885819554328918 0.8727648258209229 0.021149255335330963
-0.9511615633964539 -0.1419854313135147 0.25119632482528687
-0.9885819554328918 0.2610637843608856 0.22223225235939026
0.3216932713985443 0.6435380578041077 -0.25296148657798767
-0.8455281257629395 0.9399639964103699 0.06317977607250214
-0.9885819554328918 0.8512132167816162 0.19284813106060028
0.9130612015724182 -0.13968224823474884 -0.22903014719486237
0.6598936319351196 0.9399639964103699 -0.1615610420703888
0.8582063317298889 -0.7762196063995361 -0.25296148657798767
0.032442715018987656 -0.30653321743011475 0.25119632482528687
-0.7691777348518372 -0.20992730557918549 0.25119632482528687
0.678765594959259 0.9399639964103699 -0.10878662019968033
-0.2893119752407074 -0.2471989244222641 0.25119632482528687
0.5029110908508301 0.8583166003227234 0.25119632482528687
0.9108054637908936 -0.17645502090454102 -0.17748376727104187
0.7325015068054199 0.2212146669626236 -0.25296148657798767
-0.8761780858039856 0.10131021589040756 -0.25296148657798767
-0.05706978216767311 -0.5706086158752441 -0.25296148657798767
0.5238367915153503 0.7426308989524841 -0.09936225414276123
-0.16100865602493286 0.9041077494621277 0.25119632482528687
0.168853759765625 0.9399639964103699 0.018269652500748634
-0.7660197019577026 0.9399639964103699 0.1260727494955063
0.8886071443557739 -0.9677212834358215 0.25119632482528687
-0.02488277666270733 0.933665931224823 0.25119632482528687
0.5745639204978943 -0.9999989867210388 -0.2230285257101059
0.6996109485626221 -0.3597082793712616 0.058505892753601074
-0.39908650517463684 0.5649070143699646 0.08684798330068588
-0.0468427911400795 -0.9999989867210388 0.05278228968381882
-0.9885819554328918 -0.5857881903648376 0.012589510530233383
-0.2802726626396179 -0.5089227557182312 0.25119632482528687
0.6166133284568787 -0.9999989867210388 -0.23668988049030304
-0.919745683670044 0.7711318135261536 0.25119632482528687
-0.9885819554328918 -0.36333128809928894 0.06437526643276215
-0.01518214587122202 -0.7584735155105591 0.25119632482528687
-0.9885819554328918 0.6200036406517029 0.13986650109291077
-0.21912680566310883 -0.507688045501709 -0.25296148657798767
0.4587639272212982 0.9399639964103699 0.1390906423330307
0.5024215579032898 -0.23077675700187683 -0.022712990641593933
0.3252321183681488 -0.44200700521469116 0.25119632482528687
-0.7279411554336548 -0.9305403232574463 0.25119632482528687
-0.9799612760543823 -0.4526253342628479 -0.25296148657798767
0.2965047359466553 0.9399639964103699 0.006458658259361982
-0.0969119518995285 -0.2768200933933258 -0.25296148657798767
0.2765744626522064 0.9399639964103699 0.0954454243183136
0.3711366057395935 -0.9999989867210388 -0.0294552743434906
0.2361338883638382 -0.04159189388155937 -0.25296148657798767
0.9446752071380615 0.6705259680747986 -0.0020401442889124155
0.8590832948684692 -0.2875545024871826 -0.19540031254291534
-0.24254952371120453 -0.8688121438026428 0.25119632482528687
0.9446752071380615 -0.42430856823921204 -0.11784251034259796
0.36437520384788513 0.459021657705307 0.25119632482528687
-0.7670909762382507 0.5283740758895874 -0.25296148657798767
0.759930431842804 -0.4789583086967468 0.25119632482528687
-0.5552505254745483 0.0036213393323123455 -0.25296148657798767
0.0425923615694046 -0.8982239365577698 0.25119632482528687
0.9446752071380615 -0.5428716540336609 0.14803440868854523
0.5295255780220032 -0.7973959445953369 0.25119632482528687
0.16734559834003448 -0.9999989867210388 -0.22228796780109406
-0.30726519227027893 -0.43936797976493835 -0.25296148657798767
0.346482515335083 0.500832200050354 0.25119632482528687
0.5157496333122253 -0.6135817170143127 -0.25296148657798767
-0.3015138804912567 -0.9999989867210388 -0.02906525693833828
0.09748799353837967 -0.17772993445396423 -0.25296148657798767
-0.9248912334442139 -0.7559145092964172 0.25119632482528687
0.7725342512130737 0.05542600154876709 -0.2501336634159088
-0.7759747505187988 -0.9999989867210388 -0.04805652052164078
-0.017444580793380737 0.03534996882081032 0.25119632482528687
-0.8508737087249756 0.9399639964103699 0.015419000759720802
0.816728949546814 -0.3244476914405823 -0.13758575916290283
0.6289655566215515 -0.34803974628448486 -0.11130757629871368
-0.2660996913909912 0.29366305470466614 -0.25296148657798767
0.4945860207080841 -0.08163265138864517 0.1411910504102707
0.9204415678977966 0.23709788918495178 -0.25296148657798767
0.5324247479438782 0.9399639964103699 0.19727377593517303
0.789158046245575 -0.9494364261627197 0.25119632482528687
-0.04598994553089142 -0.9999989867210388 -0.2119314968585968
-0.9271566867828369 0.4891939163208008 0.25119632482528687
0.2654566168785095 0.6419990658760071 -0.25296148657798767
0.8306779265403748 0.667441725730896 0.25119632482528687
0.501763641834259 0.6911197900772095 -0.13514909148216248
0.8702068328857422 -0.9999989867210388 -0.03719498589634895
-0.8748195767402649 -0.9341220259666443 0.25119632482528687
0.7364838123321533 0.06546211987733841 -0.11974924802780151
0.04279366880655289 -0.5100984573364258 0.25119632482528687
0.24987906217575073 0.21947452425956726 -0.25296148657798767
0.8444916009902954 0.011351419612765312 0.003990964964032173
0.22965919971466064 -0.849824845790863 0.25119632482528687
0.5017848014831543 0.05860576033592224 0.25119632482528687
0.346353679895401 0.014910421334207058 -0.25296148657798767
-0.9319413304328918 -0.9999989867210388 0.15624520182609558
-0.7851261496543884 -0.017740681767463684 -0.25296148657798767
-0.14145921170711517 -0.06302332878112793 -0.25296148657798767
-0.13010500371456146 0.4157591760158539 -0.25296148657798767
-0.9885819554328918 -0.49653103947639465 -0.09945518523454666
0.5548343658447266 0.5449302792549133 0.008071843534708023
0.3569733500480652 0.9399639964103699 0.0441216379404068
-0.176776722073555 0.2897152304649353 0.25119632482528687
-0.8532696962356567 -0.9894488453865051 0.25119632482528687
-0.7045345902442932 -0.7399311661720276 -0.25296148657798767
0.1571117341518402 -0.9999989867210388 -0.18121503293514252
-0.9597366452217102 0.04550361633300781 -0.25296148657798767
-0.35126355290412903 -0.8410581946372986 -0.25296148657798767
-0.5660141110420227 -0.7666347622871399 0.25119632482528687
-0.060436271131038666 0.5761459469795227 -0.06750494986772537
-0.5804797410964966 -0.024790914729237556 -0.25296148657798767
0.24455560743808746 0.7277266383171082 -0.25296148657798767
0.486409068107605 -0.11949104070663452 0.21982073783874512
-0.48797956109046936 -0.7954303026199341 0.25119632482528687
-0.4560013711452484 -0.3785277307033539 -0.25296148657798767
0.9446752071380615 0.8000336289405823 0.14142592251300812
0.34230783581733704 0.06423740088939667 -0.25296148657798767
-0.26650774478912354 -0.2804177701473236 0.25119632482528687
-0.4757464826107025 0.920067310333252 0.25119632482528687
-0.173991858959198 0.8078500628471375 0.25119632482528687
-0.8392711281776428 0.9174373149871826 -0.25296148657798767
-0.9435831904411316 0.4559248089790344 0.25119632482528687
-0.33139634132385254 -0.36869311332702637 0.25119632482528687
-0.5726072788238525 0.6352127194404602 0.25119632482528687
0.9446752071380615 0.24580635130405426 -0.05432279035449028
0.77256178855896 0.7228484749794006 0.17915713787078857
0.5860803127288818 0.40972891449928284 0.25119632482528687
-0.9885819554328918 -0.5320084095001221 -0.13899382948875427
-0.20268240571022034 -0.7097590565681458 0.25119632482528687
0.049549732357263565 -0.41409337520599365 -0.25296148657798767
0.30808234214782715 0.9211104512214661 0.25119632482528687
0.8566214442253113 -0.9999989867210388 -0.1815779060125351
-0.9885819554328918 -0.39085960388183594 -0.0731981173157692
-0.7928498983383179 0.12397566437721252 0.25119632482528687
-0.1013140007853508 -0.6232178807258606 -0.25296148657798767
-0.5410917401313782 0.17279787361621857 -0.25296148657798767
-0.48070400953292847 -0.9999989867210388 -0.07955167442560196
0.00943820085376501 0.3123306930065155 -0.25296148657798767
0.7533785700798035 0.3073228597640991 0.25119632482528687
0.9446752071380615 -0.9885427951812744 -0.23297171294689178
0.29046404361724854 0.11839063465595245 0.25119632482528687
0.3879777789115906 0.7453219890594482 0.25119632482528687
-0.31719863414764404 -0.30646008253097534 0.25119632482528687
-0.06491810083389282 -0.4865192174911499 -0.25296148657798767
0.25372231006622314 0.9399639964103699 0.24954350292682648
-0.060436271131038666 0.680088996887207 0.23734262585639954
0.5062845945358276 0.7084583640098572 -0.12109995633363724
-0.8785397410392761 0.8481635451316833 0.25119632482528687
-0.7432069182395935 0.6408907175064087 -0.25296148657798767
0.7463963627815247 0.7602381110191345 0.18770118057727814
-0.2696104645729065 0.9105818271636963 0.25119632482528687
0.6338292360305786 0.5158001184463501 -0.08957873284816742
0.8604521155357361 -0.426658034324646 -0.25296148657798767
0.5216174721717834 -0.9815589785575867 -0.25296148657798767
-0.8113623261451721 0.6629610061645508 0.25119632482528687
0.6786670088768005 -0.5321957468986511 0.25119632482528687
0.32276809215545654 -0.6941713094711304 -0.25296148657798767
-0.1522580236196518 -0.23844307661056519 -0.25296148657798767
0.7695633769035339 -0.4919835329055786 0.25119632482528687
0.7849428057670593 0.6350752115249634 0.04208431765437126
0.9265207648277283 -0.8760886192321777 -0.25296148657798767
-0.4942373037338257 -0.48340728878974915 -0.25296148657798767
0.49296316504478455 0.1840755194425583 0.25119632482528687
0.2976551949977875 0.20435579121112823 -0.25296148657798767
0.2227725237607956 0.2693008482456207 0.25119632482528687
-0.9885819554328918 -0.012306777760386467 0.18335795402526855
-0.9555311799049377 0.9399639964103699 -0.13408344984054565
0.5806930065155029 0.3128674328327179 0.25119632482528687
-0.1417142003774643 0.9399639964103699 0.11342558264732361
-0.31254181265830994 0.7959844470024109 0.25119632482528687
0.42138931155204773 0.8763596415519714 0.25119632482528687
-0.82122802734375 -0.6194109320640564 -0.25296148657798767
-0.3159644901752472 0.4907853901386261 0.22710202634334564
-0.9037196636199951 -0.7889190316200256 0.25119632482528687
0.567229688167572 0.7837962508201599 -0.19241662323474884
-0.6466947197914124 -0.20337934792041779 -0.25296148657798767
-0.2571988105773926 0.9399639964103699 -0.12325597554445267
0.27229687571525574 0.9399639964103699 0.22158433496952057
0.5202765464782715 0.9399639964103699 0.01024992298334837
0.8806635737419128 0.18680569529533386 0.25119632482528687
-0.8290290236473083 0.42475658655166626 -0.25296148657798767
0.4739515483379364 0.5561738014221191 -0.25296148657798767
0.4556470215320587 0.6062962412834167 -0.25296148657798767
-0.1320125013589859 -0.41695693135261536 0.25119632482528687
0.08364617079496384 0.35292327404022217 0.25119632482528687
0.48738497495651245 -0.1791093498468399 0.05502263456583023
0.30566278100013733 -0.16963684558868408 -0.25296148657798767
0.7802306413650513 0.615803062915802 -0.047231413424015045
0.41584140062332153 0.23019078373908997 0.25119632482528687
-0.9885819554328918 -0.8191565871238708 0.13574521243572235
-0.7363079190254211 -0.28828468918800354 -0.25296148657798767
-0.9885819554328918 -0.46632179617881775 0.027986707165837288
0.14437589049339294 -0.8760819435119629 -0.25296148657798767
0.16576708853244781 0.9399639964103699 0.2401631623506546
-0.4431246221065521 -0.6114253401756287 0.25119632482528687
0.9446752071380615 0.861147940158844 -0.04533042013645172
-0.15367497503757477 0.4907853901386261 0.2267206758260727
-0.4460919201374054 -0.008898685686290264 -0.25296148657798767
-0.25190237164497375 -0.7984325885772705 0.25119632482528687
-0.14748595654964447 -0.9999989867210388 -0.08024553209543228
-0.36615651845932007 0.4907853901386261 -0.14937180280685425
0.625697135925293 0.5166783928871155 -0.020549584180116653
0.9446752071380615 -0.7956142425537109 0.03967871144413948
0.436299592256546 -0.835566520690918 -0.25296148657798767
0.4726407527923584 0.23619572818279266 -0.25296148657798767
0.27321234345436096 0.9399639964103699 -0.07694679498672485
0.5062096118927002 0.33609628677368164 0.25119632482528687
-0.3169967532157898 -0.9999989867210388 0.14472532272338867
-0.8130413889884949 0.19607239961624146 -0.25296148657798767
-0.5804063677787781 -0.5728510022163391 -0.25296148657798767
-0.6595754623413086 0.016780605539679527 0.25119632482528687
0.10275912284851074 -0.021311191841959953 0.25119632482528687
-0.9885819554328918 0.10299638658761978 0.14962050318717957
-0.4978824257850647 0.9399639964103699 0.005505301523953676
-0.9610235691070557 0.6208479404449463 -0.25296148657798767
0.13248860836029053 -0.08721932768821716 0.25119632482528687
0.9305992126464844 -0.062376223504543304 -0.25296148657798767
0.1913386434316635 -0.6465957760810852 -0.25296148657798767
-0.3201390504837036 0.9399639964103699 0.10657830536365509
-0.060828305780887604 0.6857656836509705 -0.17034445703029633
0.16298851370811462 0.516383171081543 0.25119632482528687
-0.9885819554328918 0.9348879456520081 0.18337811529636383
0.2022038698196411 0.02353609725832939 0.25119632482528687
-0.39908650517463684 0.5665530562400818 0.1147763729095459
0.5774232149124146 0.7893046140670776 0.1705956608057022
-0.3999803960323334 -0.8400424122810364 -0.25296148657798767
-0.6266284584999084 -0.16904807090759277 -0.25296148657798767
0.9419533610343933 -0.9776670932769775 -0.25296148657798767
-0.9885819554328918 -0.17054738104343414 0.13960804045200348
0.007833736948668957 0.6107264161109924 0.25119632482528687
0.917495846748352 -0.9494575262069702 -0.25296148657798767
0.2486792951822281 0.16681666672229767 -0.25296148657798767
0.15679490566253662 -0.7237323522567749 -0.25296148657798767
-0.06491366773843765 -0.45748916268348694 0.25119632482528687
-0.7160422205924988 0.5919405221939087 0.25119632482528687
0.9446752071380615 -0.25854626297950745 -0.20148402452468872
-0.5571510791778564 -0.5094998478889465 -0.25296148657798767
-0.4535590708255768 0.06165548786520958 -0.25296148657798767
-0.05531919747591019 0.23815862834453583 -0.25296148657798767
-0.053986601531505585 0.24732403457164764 -0.25296148657798767
-0.20156577229499817 -0.21411725878715515 -0.25296148657798767
-0.9885819554328918 0.5855371356010437 0.10946425050497055
-0.9885819554328918 -0.9328055381774902 0.1886052042245865
-0.3810093402862549 -0.9999989867210388 0.1617196798324585
-0.9885819554328918 0.29885104298591614 0.12397430837154388
-0.33190247416496277 -0.948642373085022 -0.25296148657798767
-0.3098653256893158 0.0711791142821312 -0.25296148657798767
0.8026406168937683 -0.5008599162101746 0.25119632482528687
0.8921278119087219 0.05717058107256889 -0.25296148657798767
-0.7491713762283325 0.657231867313385 0.25119632482528687
0.9446752071380615 -0.636716902256012 0.01557775679975748
-0.9885819554328918 0.862412691116333 0.08836659044027328
0.5264102220535278 -0.01835504360496998 0.07267263531684875
0.48840147256851196 0.20828430354595184 -0.25296148657798767
-0.797303318977356 0.10706903040409088 0.25119632482528687
-0.9885819554328918 0.145647794008255 -0.011171878315508366
-0.3842664361000061 -0.9999989867210388 0.19571420550346375
-0.8139374256134033 -0.3701990842819214 0.25119632482528687
-0.1375426948070526 0.8425832390785217 -0.25296148657798767
0.42828336358070374 -0.9999989867210388 -0.17189925909042358
0.15882179141044617 0.9118703007698059 -0.25296148657798767
0.2656138837337494 -0.40545347332954407 0.25119632482528687
-0.06601607799530029 -0.9999989867210388 0.1484922468662262
-0.9885819554328918 -0.15394219756126404 -0.1489405781030655
-0.9885819554328918 0.273418664932251 -0.2139064371585846
-0.9216665625572205 -0.2493797242641449 0.25119632482528687
0.6285777688026428 0.8491686582565308 0.25119632482528687
0.22517886757850647 0.1498727798461914 -0.25296148657798767
-0.3874607980251312 -0.5966339111328125 -0.25296148657798767
-0.6588349938392639 -0.9999989867210388 -0.05887274816632271
0.12151971459388733 0.22215501964092255 0.25119632482528687
0.39195701479911804 -0.34285104274749756 0.25119632482528687
-0.742425262928009 -0.13779011368751526 0.25119632482528687
0.9446752071380615 0.8446663618087769 0.2383727729320526
-0.13732323050498962 0.9399639964103699 -0.13376565277576447
0.9446752071380615 0.029753288254141808 0.187894806265831
0.19698907434940338 -0.20675812661647797 0.25119632482528687
-0.25930067896842957 0.9399639964103699 0.22917959094047546
-0.04937058687210083 -0.5439205765724182 -0.25296148657798767
0.8307716250419617 0.9399639964103699 -0.061632949858903885
0.4247744679450989 0.022356053814291954 -0.25296148657798767
0.5128570199012756 0.7237634062767029 0.06830567866563797
-0.7068832516670227 0.020906930789351463 0.25119632482528687
-0.9037686586380005 0.013996955007314682 -0.25296148657798767
0.5903245210647583 0.5251963138580322 -0.11778894811868668
0.46968382596969604 0.3381056487560272 -0.25296148657798767
-0.13917668163776398 0.7749730944633484 -0.25296148657798767
-0.5469678640365601 0.2272297739982605 -0.25296148657798767
0.07646404206752777 0.3324911594390869 0.25119632482528687
0.8301026821136475 -0.3149976134300232 0.11689848452806473
0.9446752071380615 0.1617027372121811 0.09629408270120621
-0.3750808835029602 -0.7486920356750488 0.25119632482528687
0.61290043592453 -0.3416452705860138 -0.21567083895206451
0.6818243861198425 -0.6853109002113342 0.25119632482528687
0.9446752071380615 0.40025168657302856 0.03258183225989342
-0.4221936762332916 0.5566786527633667 -0.25296148657798767
0.1527981162071228 -0.4618220627307892 -0.25296148657798767
-0.7110579609870911 -0.5728747248649597 -0.25296148657798767
0.06365971267223358 0.9399639964103699 -0.0818394273519516
0.621336817741394 0.5170966386795044 0.14147378504276276
0.8880249857902527 -0.6925188899040222 -0.25296148657798767
0.9446752071380615 -0.7332892417907715 -0.16773942112922668
-0.4029161036014557 -0.1467800885438919 0.25119632482528687
-0.32716286182403564 -0.5387549996376038 -0.25296148657798767
-0.0952267050743103 0.11667944490909576 0.25119632482528687
0.22674421966075897 -0.4500223398208618 0.25119632482528687
-0.9885819554328918 0.06892090290784836 -0.1737896203994751
0.37270763516426086 -0.4223702549934387 -0.25296148657798767
0.9446752071380615 0.805600643157959 0.10760271549224854
-0.34484025835990906 -0.6375508904457092 0.25119632482528687
0.046370185911655426 -0.34578225016593933 -0.25296148657798767
-0.9747112393379211 0.7200261354446411 -0.25296148657798767
-0.8303593993186951 -0.02544824220240116 -0.25296148657798767
0.7133573293685913 0.06802316009998322 -0.04949057847261429
-0.5364838242530823 -0.8602660298347473 0.25119632482528687
0.8005099892616272 0.22749069333076477 -0.25296148657798767
0.5772382616996765 -0.3214332163333893 -0.22750230133533478
-0.6880450248718262 -0.014811339788138866 0.25119632482528687
-0.9170204401016235 0.6760362386703491 0.25119632482528687
0.6893078088760376 0.9399639964103699 -0.22916032373905182
0.26668068766593933 0.9399639964103699 0.20691139996051788
-0.3598610758781433 0.4768306016921997 0.25119632482528687
0.5550171732902527 0.013242976740002632 -0.19809749722480774
-0.6262636184692383 0.6146256327629089 0.25119632482528687
-0.4471616744995117 0.39471426606178284 0.25119632482528687
0.012344523333013058 0.7979623675346375 -0.25296148657798767
0.5949586033821106 0.5187565684318542 0.25119632482528687
-0.6519271731376648 -0.3613072633743286 -0.25296148657798767
0.4635421931743622 -0.6900307536125183 -0.25296148657798767
0.5998250842094421 0.5220237970352173 0.1716814488172531
-0.8594134449958801 -0.26845020055770874 -0.25296148657798767
-0.480853408575058 -0.9999989867210388 0.0213336031883955
0.23424075543880463 -0.5145169496536255 0.25119632482528687
0.4190090596675873 -0.03161381930112839 -0.25296148657798767
0.7163227796554565 0.7845504283905029 0.06451427191495895
-0.9559219479560852 0.9399639964103699 0.2040729522705078
0.45634809136390686 0.8315309882164001 0.25119632482528687
-0.9201258420944214 -0.9999989867210388 0.01651640422642231
0.4533076584339142 -0.20484082400798798 -0.25296148657798767
-0.9885819554328918 0.6512616872787476 0.0008806180558167398
-0.9885819554328918 -0.737068772315979 -0.024453334510326385
0.050703324377536774 -0.8318362236022949 -0.25296148657798767
-0.4353949725627899 0.5048715472221375 0.25119632482528687
-0.9340537786483765 -0.5643518567085266 -0.25296148657798767
0.8486756086349487 0.007638218812644482 -0.023919716477394104
0.9289026856422424 0.5090994834899902 0.25119632482528687
-0.9885819554328918 -0.6700009107589722 0.17596372961997986
0.14846962690353394 -0.3838210701942444 -0.25296148657798767
0.8229076266288757 -0.5336808562278748 0.25119632482528687
-0.01687818579375744 0.44749659299850464 -0.25296148657798767
-0.1600686013698578 -0.8002036809921265 -0.25296148657798767
0.31001242995262146 0.9399639964103699 -0.2519983649253845
0.035961829125881195 -0.30671781301498413 -0.25296148657798767
-0.3939635753631592 -0.9999989867210388 -0.1187751367688179
0.8353865742683411 -0.9999989867210388 -0.07916028052568436
-0.6659504175186157 -0.2297457754611969 -0.25296148657798767
0.2474861592054367 0.6560233235359192 0.25119632482528687
-0.8655039072036743 -0.19411320984363556 -0.25296148657798767
0.5163246393203735 -0.033546481281518936 -0.24243135750293732
0.9446752071380615 -0.2180100381374359 0.08727190643548965
0.9446752071380615 0.40751007199287415 -0.18762297928333282
-0.44854822754859924 -0.020969053730368614 0.25119632482528687
-0.9885819554328918 -0.5914216637611389 -0.16129520535469055
-0.9885819554328918 0.22559528052806854 0.10235786437988281
0.17737500369548798 -0.010401423089206219 -0.25296148657798767
-0.9885819554328918 -0.5113702416419983 0.2323630303144455
0.6848095655441284 -0.907020092010498 -0.25296148657798767
0.9446752071380615 -0.6238966584205627 -0.02332097291946411
-0.17993567883968353 -0.9999989867210388 0.159709632396698
0.4529424011707306 -0.27710485458374023 -0.25296148657798767
-0.5500932931900024 -0.9999989867210388 -0.09407617151737213
0.9446752071380615 -0.5429155230522156 -0.23021122813224792
-0.4201594293117523 0.5931435227394104 -0.25296148657798767
0.630582869052887 -0.9999989867210388 -0.11701106280088425
-0.43358463048934937 0.6366016268730164 -0.25296148657798767
-0.8640204071998596 0.43656501173973083 -0.25296148657798767
0.8818916082382202 0.4468986690044403 0.25119632482528687
-0.9885819554328918 0.23428787291049957 0.07379305362701416
-0.9885819554328918 0.8501647710800171 -0.10832671076059341
0.196477010846138 -0.9999989867210388 -0.016179431229829788
0.9446752071380615 -0.6685739755630493 0.12922723591327667
0.8748568296432495 -0.45995277166366577 -0.25296148657798767
0.382425457239151 -0.012609741650521755 -0.25296148657798767
0.3159288167953491 -0.5821800231933594 0.25119632482528687
-0.8725318312644958 0.641356348991394 0.25119632482528687
0.5645120739936829 -0.9999989867210388 0.24119055271148682
-0.8630391359329224 -0.8372456431388855 -0.25296148657798767
0.4889366030693054 -0.10457275807857513 0.12717336416244507
0.47156980633735657 -0.9999989867210388 -0.11641212552785873
-0.9873384833335876 0.6225424408912659 -0.25296148657798767
-0.8774022459983826 0.9399639964103699 0.21632106602191925
0.2839653491973877 0.6334129571914673 -0.25296148657798767
-0.9806035161018372 0.9399639964103699 -0.24136067926883698
-0.4306204617023468 0.58952796459198 -0.25296148657798767
-0.709725022315979 -0.16191183030605316 0.25119632482528687
0.9312664866447449 0.9201575517654419 -0.25296148657798767
-0.14366301894187927 0.7093344926834106 0.25119632482528687
0.6547026634216309 0.804017186164856 0.2092847377061844
-0.06799006462097168 -0.5327507853507996 -0.25296148657798767
0.46921321749687195 0.722343921661377 0.25119632482528687
0.9446752071380615 -0.9149200320243835 -0.11776753515005112
-0.9727729558944702 -0.9999989867210388 0.02862423285841942
-0.9885819554328918 -0.06330012530088425 0.12023347616195679
-0.9885819554328918 0.34820809960365295 -0.1622270941734314
-0.05585263669490814 -0.9532040953636169 -0.25296148657798767
0.9345139861106873 -0.39527764916419983 0.25119632482528687
-0.5824812650680542 -0.05609884113073349 0.25119632482528687
0.9446752071380615 0.0746489018201828 0.031750451773405075
-0.9885819554328918 -0.8777863383293152 -0.18418532609939575
0.04260794445872307 0.3128458559513092 0.25119632482528687
0.46931666135787964 0.9399639964103699 -0.1712304800748825
0.3869397044181824 -0.2977277636528015 0.25119632482528687
0.0639365091919899 -0.801917552947998 0.25119632482528687
-0.9885819554328918 0.3125028610229492 0.22529521584510803
0.8822781443595886 0.28660765290260315 0.25119632482528687
-0.9107681512832642 -0.6503024101257324 0.25119632482528687
-0.9623898267745972 -0.8319011926651001 -0.25296148657798767
-0.11746494472026825 -0.9999989867210388 0.22954313457012177
0.21771150827407837 -0.26841574907302856 0.25119632482528687
-0.5468209981918335 0.20443986356258392 0.25119632482528687
-0.43868568539619446 -0.19951051473617554 -0.25296148657798767
-0.4498473107814789 -0.1111862063407898 -0.25296148657798767
-0.8940364122390747 0.6531702280044556 -0.25296148657798767
-0.39831286668777466 -0.7955425381660461 0.25119632482528687
-0.7818893194198608 -0.687665581703186 0.25119632482528687
0.5291415452957153 0.5703575015068054 -0.1387508511543274
-0.19698107242584229 0.6881579160690308 -0.25296148657798767
0.9109188318252563 -0.9997126460075378 -0.25296148657798767
-0.9885819554328918 0.810644805431366 0.09609392285346985
-0.4444371461868286 -0.5501952171325684 -0.25296148657798767
0.6092128753662109 0.8008140921592712 0.20505346357822418
-0.6900778412818909 -0.7730193138122559 -0.25296148657798767
-0.3707294464111328 -0.2620179057121277 0.25119632482528687
0.508932888507843 0.604673445224762 0.016700055450201035
-0.368206650018692 -0.9999989867210388 -0.17939136922359467
0.5188184380531311 -0.029434597119688988 0.10682332515716553
-0.1267746090888977 0.42945200204849243 -0.25296148657798767
-0.9885819554328918 0.5287825465202332 0.013159765861928463
0.6810676455497742 0.7995493412017822 -0.06869616359472275
0.2667064070701599 -0.36741191148757935 -0.25296148657798767
-0.9885819554328918 0.39046791195869446 -0.02946433611214161
-0.345954030752182 0.4907853901386261 -0.11763647198677063
0.7758759260177612 0.5296474099159241 -0.25296148657798767
-0.9828529357910156 0.9399639964103699 -0.14360949397087097
-0.15871334075927734 -0.2593454420566559 0.25119632482528687
-0.2777490019798279 -0.5151889324188232 0.25119632482528687
0.8925358057022095 0.04674370959401131 -0.25296148657798767
0.49718084931373596 0.6313599944114685 -0.25296148657798767
0.5214588642120361 -0.42508846521377563 -0.25296148657798767
-0.88878333568573 0.7871431708335876 -0.25296148657798767
0.9446752071380615 0.8667252659797668 -0.06040379777550697
-0.6132634282112122 -0.4606935977935791 -0.25296148657798767
-0.31889018416404724 -0.36301887035369873 0.25119632482528687
0.8460515737533569 0.9399639964103699 0.01191718876361847
0.9446752071380615 -0.49583688378334045 0.18060286343097687
0.15369707345962524 0.8140348792076111 -0.25296148657798767
-0.023013237863779068 -0.2907974123954773 -0.25296148657798767
0.9011152386665344 -0.07487037032842636 0.14248308539390564
0.8959807753562927 -0.06167915090918541 0.17972368001937866
0.7237303256988525 0.5407370924949646 0.15868818759918213
-0.9885819554328918 -0.11662168055772781 -0.22974731028079987
0.12912726402282715 -0.06346926838159561 -0.25296148657798767
0.8325093388557434 -0.31292861700057983 0.12307463586330414
0.22951515018939972 -0.3317853808403015 0.25119632482528687
-0.9885819554328918 0.635017454624176 -0.23268258571624756
-0.7630643844604492 0.15530546009540558 0.25119632482528687
-0.3414531946182251 0.4907853901386261 0.06700925529003143
0.6419703364372253 0.3404249846935272 0.25119632482528687
0.24934633076190948 -0.966275155544281 0.25119632482528687
-0.010953234508633614 0.44273409247398376 -0.25296148657798767
-0.1225251853466034 -0.04499119520187378 -0.25296148657798767
-0.9885819554328918 0.39172637462615967 -0.04206473007798195
-0.3147008717060089 -0.058492813259363174 -0.25296148657798767
-0.4787707030773163 -0.9104812145233154 -0.25296148657798767
0.562319278717041 0.780072033405304 -0.25113752484321594
-0.34579992294311523 -0.7361559271812439 -0.25296148657798767
0.9446752071380615 -0.47609850764274597 -0.025309789925813675
0.8900398015975952 0.1475624442100525 -0.25296148657798767
-0.3194931149482727 0.4907853901386261 0.23372146487236023
-0.43479976058006287 -0.7123891115188599 -0.25296148657798767
-0.6335595846176147 0.060189709067344666 0.25119632482528687
0.6061736345291138 0.9399639964103699 0.06651559472084045
-0.9321202039718628 0.2781093716621399 -0.25296148657798767
-0.9885819554328918 -0.0800827369093895 -0.2009180635213852
0.9446752071380615 0.2636719346046448 0.04743606224656105
-0.3686211407184601 0.28745952248573303 0.25119632482528687
-0.9885819554328918 0.07667399942874908 -0.24797922372817993
-0.8237822651863098 0.8241835236549377 0.25119632482528687
-0.6494795680046082 0.9399639964103699 0.11176329106092453
0.3367580473423004 0.176921546459198 -0.25296148657798767
0.7532732486724854 0.21179519593715668 -0.25296148657798767
-0.30894842743873596 0.4525088667869568 0.25119632482528687
-0.9885819554328918 0.08705083280801773 -0.09349856525659561
-0.29888468980789185 -0.8572505116462708 0.25119632482528687
-0.9885819554328918 -0.09850040078163147 0.124864861369133
0.6289545297622681 0.05700658634305 -0.1610182374715805
-0.9790343642234802 0.9399639964103699 -0.18668442964553833
