-0.08208063244819641 0.4333462119102478 0.0851420983672142
0.1949983686208725 0.10993170738220215 -0.0009319274104200304
0.3474627435207367 -0.3030306398868561 -0.08700595051050186
0.26959291100502014 -0.13361015915870667 0.05092697590589523
0.42800599336624146 -0.35430073738098145 -0.08700595051050186
0.026209672912955284 -0.5235241651535034 -0.04840058460831642
0.31436118483543396 0.05884565785527229 -0.08700595051050186
-0.5005700588226318 0.3334665298461914 0.0851420983672142
-0.5379766225814819 -0.17591023445129395 0.0851420983672142
-0.46434226632118225 0.2702914774417877 0.0851420983672142
-0.19713327288627625 -0.33120888471603394 -0.0009319274104200304
-0.30392220616340637 0.5267981886863708 -0.0009319274104200304
0.32162582874298096 0.13903288543224335 -0.07245750725269318
0.02232861891388893 0.07978180050849915 -0.08700595051050186
-0.11710107326507568 -0.372244656085968 0.0851420983672142
0.2672986686229706 0.34916380047798157 0.0851420983672142
0.04845345392823219 0.5397519469261169 -0.0009319274104200304
0.6277406215667725 -0.037695351988077164 -0.0009319274104200304
-0.025862528011202812 -0.2115228921175003 0.0851420983672142
0.5830575227737427 -0.07913446426391602 -0.08700595051050186
0.8385980725288391 -0.004609490279108286 -0.018918069079518318
0.033001989126205444 0.0021496424451470375 -0.08700595051050186
-0.19133184850215912 -0.13173648715019226 -0.0009319274104200304
0.08353672921657562 0.6736307144165039 0.0851420983672142
0.5881106853485107 0.1261490285396576 -0.0009319274104200304
-0.09073296934366226 0.37256792187690735 0.0851420983672142
0.042606305330991745 0.056938376277685165 0.07988908886909485
0.7409985065460205 -0.3611679971218109 -0.0166236013174057
-0.7714238166809082 0.061998192220926285 -0.0009319274104200304
-0.050290510058403015 0.13804636895656586 -0.0009319274104200304
0.666739821434021 0.06533977389335632 -0.0009319274104200304
0.20056338608264923 -0.5231851935386658 -0.0009319274104200304
-0.2749839425086975 0.06963126361370087 0.0851420983672142
0.626570999622345 0.007008757907897234 -0.0009319274104200304
-0.935857355594635 -0.050530944019556046 0.023412687703967094
0.20838499069213867 0.4059358537197113 -0.08700595051050186
0.05373305827379227 -0.37684255838394165 0.052121322602033615
-0.0073012118227779865 -0.5235241651535034 -0.00361843453720212
0.10594194382429123 0.7245492339134216 -0.06037075072526932
0.44469529390335083 0.2872545123100281 -0.08700595051050186
-0.7504953145980835 0.029598740860819817 0.0851420983672142
0.06521148979663849 0.44595587253570557 -0.0009319274104200304
-0.3504142463207245 0.19406241178512573 -0.0009319274104200304
0.2686053216457367 0.6976788640022278 0.0851420983672142
0.26959291100502014 -0.2713577449321747 0.04707060381770134
-0.32060351967811584 -0.12270733714103699 0.0851420983672142
0.09483730047941208 -0.5088251233100891 -0.0009319274104200304
0.4875926673412323 -0.1724575161933899 -0.08700595051050186
-0.6686521172523499 -0.23609237372875214 0.0851420983672142
0.2680164873600006 -0.012406033463776112 -0.0009319274104200304
-0.3394109606742859 0.4999988079071045 -0.0009319274104200304
0.34371218085289 -0.18718163669109344 -0.0009319274104200304
-0.3389061391353607 -0.28621843457221985 -0.0009319274104200304
0.18162409961223602 -0.21207168698310852 -0.0009319274104200304
0.02369164675474167 -0.19379325211048126 -0.0009319274104200304
-0.4996298849582672 0.031918998807668686 0.0851420983672142
-0.5593662261962891 -0.4913307726383209 -0.0009319274104200304
-0.8343123197555542 0.051014143973588943 0.02118198573589325
0.4511566758155823 0.6431263089179993 -0.08700595051050186
0.12647397816181183 0.4234904944896698 0.0851420983672142
-0.24162203073501587 0.5533227324485779 -0.0009319274104200304
0.2480570524930954 0.10253690183162689 0.0851420983672142
-0.6355515122413635 0.24977491796016693 0.05920187756419182
-0.47705894708633423 0.005678544752299786 -0.0009319274104200304
0.44077634811401367 0.5695825219154358 -0.08700595051050186
0.34926384687423706 0.25981345772743225 -0.0009319274104200304
-0.17380639910697937 -0.3877483904361725 -0.08700595051050186
0.37977108359336853 0.6680188179016113 -0.08700595051050186
0.010033032856881618 -0.4997343420982361 0.0851420983672142
-0.2516899108886719 -0.27421534061431885 -0.0009319274104200304
-0.13113488256931305 0.22785836458206177 0.0851420983672142
-0.8681259155273438 -0.4883468449115753 -0.0009319274104200304
0.11811370402574539 -0.012071078643202782 0.0851420983672142
-0.7662091851234436 -0.3699093759059906 0.018136603757739067
0.06184852868318558 0.06362473964691162 -0.0009319274104200304
0.17774000763893127 -0.3170754611492157 0.0851420983672142
0.3060975670814514 0.2764316201210022 -0.08700595051050186
0.5932936668395996 0.2901381254196167 -0.08700595051050186
-0.025658871978521347 0.6181646585464478 0.0851420983672142
-0.04906461015343666 0.3529100716114044 -0.0009319274104200304
0.25733986496925354 0.3756263852119446 0.0851420983672142
-0.08426418155431747 -0.08003289997577667 -0.08700595051050186
0.09680680185556412 0.16111548244953156 0.07268929481506348
0.1936771720647812 -0.44729509949684143 0.0851420983672142
0.10386677086353302 -0.3712335228919983 0.0851420983672142
-0.4502412676811218 -0.4638234078884125 -0.0009319274104200304
-0.7361987829208374 -0.5235241651535034 0.008157795295119286
-0.5699248313903809 -0.3903036117553711 -0.0009319274104200304
0.7645014524459839 -0.13862890005111694 -0.0009319274104200304
0.24034656584262848 0.1809820830821991 -0.0009319274104200304
-0.9999989867210388 -0.336802214384079 0.033347271382808685
-0.06212325021624565 0.30618488788604736 -0.0009319274104200304
-0.7116227149963379 -0.2504229247570038 -0.0009319274104200304
0.030298199504613876 -0.05688846856355667 -0.0009319274104200304
-0.012743244878947735 -0.4371853172779083 0.0851420983672142
0.07319186627864838 0.41715216636657715 -0.08700595051050186
-0.06454072147607803 -0.5235241651535034 0.020439792424440384
-0.9999989867210388 -0.41580861806869507 0.028531845659017563
-0.35444375872612 -0.308834969997406 -0.07630498707294464
0.23468419909477234 -0.1125950887799263 -0.0009319274104200304
-0.7219772934913635 -0.16899186372756958 0.0851420983672142
0.26959291100502014 0.10249212384223938 0.033800434321165085
-0.2186947613954544 -0.3290637135505676 -0.06958896666765213
0.2895777225494385 0.47517213225364685 -0.0009319274104200304
-0.5308223962783813 0.3545040190219879 0.07560662180185318
-0.9724812507629395 -0.15608510375022888 -0.0009319274104200304
-0.9578149914741516 -0.19584544003009796 0.0851420983672142
-0.019447606056928635 0.46322163939476013 0.0851420983672142
-0.7456952333450317 0.09964802861213684 -0.0009319274104200304
0.316118061542511 -0.4916215240955353 -0.08700595051050186
-0.938563883304596 -0.5235241651535034 0.07313042879104614
0.06693217158317566 -0.37689563632011414 -0.08700595051050186
-0.24749363958835602 0.3067890405654907 0.0851420983672142
-0.09324802458286285 0.3427649736404419 0.0851420983672142
0.028865892440080643 0.13968878984451294 -0.08700595051050186
-0.10612461715936661 0.5168142318725586 -0.0009319274104200304
0.5048618316650391 -0.5235241651535034 -0.035489048808813095
0.692739725112915 -0.5005694031715393 -0.0009319274104200304
0.7587965726852417 0.11879533529281616 -0.08700595051050186
-0.37742313742637634 0.13642863929271698 -0.0009319274104200304
0.38345855474472046 0.7033047676086426 -0.08700595051050186
0.12665411829948425 0.1520775556564331 -0.0009319274104200304
-0.3025679886341095 -0.05764124169945717 0.0851420983672142
-0.2222326099872589 0.1497497409582138 -0.07162819057703018
-0.328771710395813 -0.10021208226680756 -0.0009319274104200304
0.6402350664138794 0.27413320541381836 -0.0009319274104200304
0.5890628099441528 -0.5125592350959778 -0.0009319274104200304
-0.30121955275535583 -0.36459115147590637 -0.08700595051050186
-0.10098209977149963 -0.5235241651535034 0.05494767799973488
-0.14918206632137299 -0.0017727009253576398 0.0851420983672142
0.4889713227748871 0.47198355197906494 -0.0009319274104200304
0.5886285901069641 0.20134563744068146 -0.0009319274104200304
-0.05121328681707382 -0.07207900285720825 0.0851420983672142
-0.013350541703402996 0.5675139427185059 -0.055773936212062836
-0.517096757888794 -0.5235241651535034 0.053969427943229675
0.3865925967693329 -0.2688997685909271 -0.0009319274104200304
-0.03909574821591377 -0.09052865952253342 0.0851420983672142
0.6233831644058228 -0.4775528907775879 -0.08700595051050186
0.12819871306419373 0.4697376489639282 -0.08700595051050186
0.4856455326080322 -0.05974007397890091 -0.08700595051050186
-0.35444375872612 -0.48327329754829407 -0.07441215217113495
-0.030422888696193695 0.5333691835403442 -0.04810868948698044
-0.9179378747940063 -0.5235241651535034 0.05838439241051674
-0.2444218397140503 -0.31383541226387024 -0.08700595051050186
-0.4763297736644745 -0.056869588792324066 -0.0009319274104200304
-0.12181497365236282 -0.40662911534309387 -0.0009319274104200304
-0.9187495112419128 -0.14606072008609772 0.0851420983672142
-0.2615017890930176 -0.4523594081401825 -0.0009319274104200304
-0.2518867254257202 0.04946307837963104 -0.0009319274104200304
-0.2697599530220032 -0.5235241651535034 0.052236441522836685
0.7102776765823364 -0.37674233317375183 -0.02051030658185482
0.7744932770729065 0.123600073158741 -0.06028187647461891
0.3045853078365326 0.31091055274009705 -0.08700595051050186
0.14874084293842316 0.3515292704105377 -0.0009319274104200304
0.7358566522598267 -0.3672664165496826 -0.08700595051050186
-0.05000606179237366 -0.39934542775154114 -0.0009319274104200304
-0.014332994818687439 -0.1772136092185974 0.0851420983672142
0.05915658175945282 0.28653770685195923 -0.0009319274104200304
-0.04869292303919792 0.19919291138648987 0.0851420983672142
-0.5284450054168701 0.21984319388866425 -0.0009319274104200304
-0.3332628905773163 -0.35723844170570374 -0.08700595051050186
-0.8488476872444153 -0.5072596073150635 0.0851420983672142
0.15827035903930664 -0.3129655122756958 -0.0009319274104200304
0.45326554775238037 -0.4780653119087219 -0.08700595051050186
-0.0019618284422904253 0.6635317802429199 -0.0009319274104200304
0.652077317237854 -0.09337398409843445 -0.0009319274104200304
0.060359127819538116 0.3119984269142151 -0.0009319274104200304
0.8648419380187988 -0.057097211480140686 -0.0766003429889679
0.5193291902542114 -0.09761244058609009 -0.08700595051050186
-0.464412122964859 -0.2009720355272293 -0.0009319274104200304
-0.4332320988178253 0.297174334526062 -0.0009319274104200304
0.14116954803466797 -0.37781232595443726 -0.0009319274104200304
-0.19483144581317902 0.20455209910869598 -0.019288556650280952
0.12030402570962906 0.23675483465194702 0.0851420983672142
0.12445685267448425 -0.5235241651535034 -0.00194939028006047
-0.9340568780899048 -0.04873041436076164 0.00330316717736423
0.30434826016426086 0.7245492339134216 -0.05420076847076416
0.38320526480674744 0.606028139591217 -0.0009319274104200304
-0.2513071298599243 -0.24762588739395142 -0.08700595051050186
0.12402200698852539 0.11437062174081802 0.05635914206504822
0.559443473815918 0.5536996722221375 -0.07801602780818939
-0.35444375872612 -0.27651140093803406 -0.05123477429151535
-0.17925481498241425 0.7060715556144714 0.04176716133952141
0.795952558517456 -0.16433747112751007 -0.08700595051050186
-0.5071550011634827 -0.48989057540893555 -0.0009319274104200304
0.05524332821369171 0.32403692603111267 -0.0009319274104200304
-0.27460843324661255 0.07811527699232101 0.0851420983672142
0.01617811620235443 -0.0006789381732232869 -0.08700595051050186
0.6734954118728638 0.0223383866250515 -0.0009319274104200304
0.04849310219287872 0.41234731674194336 -0.0009319274104200304
-0.7365471720695496 -0.32034170627593994 0.03024967387318611
-0.566150963306427 0.1905188262462616 -0.0009319274104200304
-0.09933564811944962 0.21476687490940094 -0.08700595051050186
0.5410746932029724 0.30155161023139954 -0.0009319274104200304
0.027400564402341843 0.6490161418914795 -0.05949850752949715
0.16736099123954773 0.6521041989326477 0.0851420983672142
-0.02084972709417343 0.22795194387435913 -0.0009319274104200304
0.22525903582572937 0.6341615319252014 -0.0009319274104200304
-0.5231829285621643 -0.31135568022727966 0.0851420983672142
0.8353210687637329 -0.27550992369651794 -0.0009319274104200304
0.18641634285449982 0.2593691945075989 -0.0009319274104200304
0.4446941614151001 0.529941737651825 -0.08700595051050186
0.26959291100502014 -0.03580785170197487 0.038223642855882645
-0.13301782310009003 -0.5235241651535034 0.046049878001213074
-0.15495726466178894 0.43946725130081177 -0.0009319274104200304
0.09734412282705307 -0.37118446826934814 -0.08700595051050186
0.12185005843639374 -0.3034346103668213 0.01731151156127453
-0.3042072355747223 -0.31624406576156616 -0.0009319274104200304
-0.06957913190126419 -0.48234793543815613 -0.0009319274104200304
-0.2100573182106018 -0.3509908616542816 -0.017427340149879456
0.06684444099664688 -0.32410141825675964 -0.08700595051050186
-0.9660765528678894 -0.08075017482042313 0.0038870011921972036
-0.40247294306755066 0.4828534424304962 0.08098790794610977
0.02428213506937027 0.17308403551578522 -0.0009319274104200304
-0.07069822400808334 0.2769174873828888 -0.0009319274104200304
-0.5267357230186462 -0.4721444845199585 0.0851420983672142
0.4562046229839325 -0.4637397229671478 -0.08700595051050186
-0.2873554229736328 -0.3810217082500458 -0.0009319274104200304
0.8936295509338379 -0.3689568340778351 -0.026344474405050278
-0.4105674624443054 -0.4834077060222626 0.0851420983672142
0.5152232646942139 0.07668057084083557 -0.0009319274104200304
-0.008870542980730534 -0.4276634454727173 -0.08700595051050186
0.09238050878047943 0.4891776442527771 0.02154058776795864
0.3978591561317444 0.023737512528896332 -0.08700595051050186
-0.9700559377670288 -0.09384487569332123 -0.0009319274104200304
0.11715447157621384 0.017974786460399628 0.0851420983672142
-0.531922459602356 0.03653530403971672 -0.0009319274104200304
-0.34805774688720703 0.3247065842151642 -0.0009319274104200304
-0.46633967757225037 0.4189867377281189 0.03819214552640915
-0.02165491320192814 0.47386497259140015 -0.0009319274104200304
-0.558800220489502 0.15530364215373993 0.0851420983672142
0.26959291100502014 0.20114098489284515 0.051094524562358856
-0.4710027873516083 0.11768992245197296 -0.0009319274104200304
0.07068131119012833 -0.031351495534181595 -0.0009319274104200304
0.014307425357401371 -0.23695142567157745 0.0851420983672142
0.04841380566358566 -0.042544204741716385 -0.0009319274104200304
0.8529495596885681 -0.5235241651535034 -0.020621545612812042
-0.3551355004310608 -0.23008570075035095 0.0851420983672142
-0.13534937798976898 -0.45618361234664917 -0.0009319274104200304
-0.35444375872612 -0.34110593795776367 -0.007597127463668585
0.6826472282409668 -0.06728756427764893 -0.08700595051050186
0.33471325039863586 0.4739812910556793 -0.0009319274104200304
0.833832859992981 -0.008151444606482983 -0.08700595051050186
0.8601781129837036 -0.04776950925588608 -0.08588051050901413
-0.8394812941551208 -0.08777564018964767 0.0851420983672142
0.8799149990081787 -0.0872434675693512 -0.07069151848554611
-0.19203388690948486 -0.24466845393180847 -0.0009319274104200304
0.06334369629621506 0.4826430678367615 0.06842854619026184
0.7395592927932739 0.12090480327606201 -0.08700595051050186
0.10996861010789871 0.41319191455841064 -0.08700595051050186
-0.00986145157366991 0.56111741065979 -0.0009319274104200304
-0.4002355933189392 0.48509079217910767 0.08401615172624588
0.09779277443885803 -0.5235241651535034 -0.02743508480489254
0.04779471084475517 0.6342490911483765 -0.0009319274104200304
0.03479383513331413 -0.46922096610069275 -0.0009319274104200304
0.19865603744983673 0.7245492339134216 -0.03357161208987236
-0.9999989867210388 -0.35538217425346375 0.02609454095363617
0.36544936895370483 0.7013504505157471 -0.08700595051050186
0.5417559742927551 0.5890746712684631 -0.06221333518624306
-0.08336750417947769 0.4127886891365051 -0.0009319274104200304
0.834722101688385 -0.5177372694015503 -0.08700595051050186
-0.6536753177642822 -0.3784606456756592 0.0851420983672142
0.39932119846343994 -0.28931692242622375 -0.0009319274104200304
0.4955874979496002 0.10635737329721451 -0.08700595051050186
-0.08940177410840988 -0.03025805950164795 -0.08700595051050186
-0.11524004489183426 0.14196768403053284 0.0851420983672142
0.0491262786090374 0.6209564208984375 -0.08700595051050186
0.05176125839352608 0.09205764532089233 -0.0009319274104200304
-0.2351243793964386 -0.2458547204732895 -0.0009319274104200304
0.08232787996530533 -0.020859597250819206 -0.0009319274104200304
-0.052090711891651154 0.7360446453094482 -0.0009319274104200304
-0.19431036710739136 0.04094039648771286 -0.08700595051050186
-0.32306236028671265 0.0803438052535057 0.0851420983672142
-0.12160684168338776 -0.21229951083660126 -0.0009319274104200304
0.18798981606960297 0.32621312141418457 -0.0009319274104200304
0.10206018388271332 -0.32098421454429626 -0.0009319274104200304
0.226756751537323 -0.4504491090774536 0.0851420983672142
0.5335918068885803 0.4709969460964203 -0.0009319274104200304
-0.35178083181381226 0.2274971902370453 -0.0009319274104200304
0.03764788433909416 -0.10176737606525421 -0.0009319274104200304
-0.28102198243141174 -0.5235241651535034 -0.048769183456897736
-0.4041110873222351 0.36166146397590637 -0.0009319274104200304
0.21559402346611023 0.6329284906387329 -0.0009319274104200304
-0.9271553754806519 -0.32559171319007874 -0.0009319274104200304
0.382580429315567 -0.15751612186431885 -0.0009319274104200304
0.4501104950904846 0.05642902851104736 -0.0009319274104200304
-0.12255609780550003 0.2930521070957184 -0.0009319274104200304
-0.7051733732223511 -0.13970611989498138 -0.0009319274104200304
-0.010227578692138195 -0.09218725562095642 0.0851420983672142
0.26675426959991455 0.41998761892318726 -0.08700595051050186
0.12971271574497223 -0.45563802123069763 -0.0009319274104200304
-0.41287821531295776 0.03291323408484459 0.0851420983672142
-0.3129545748233795 -0.19869834184646606 -0.0009319274104200304
0.4733714759349823 -0.29655417799949646 -0.08700595051050186
0.17729851603507996 0.7245492339134216 -0.05479535087943077
-0.6237360239028931 -0.2481185346841812 0.0851420983672142
-0.6892281770706177 -0.14240114390850067 0.0851420983672142
0.6284198760986328 0.39937278628349304 -0.0009319274104200304
0.19852979481220245 0.1770477592945099 -0.08700595051050186
0.26959291100502014 0.32046592235565186 0.025592224672436714
0.20594651997089386 0.1395570933818817 -0.0009319274104200304
0.635610818862915 -0.507087767124176 -0.0009319274104200304
0.1874791383743286 -0.20276732742786407 0.0851420983672142
0.14581796526908875 -0.16370876133441925 0.0851420983672142
0.03602207824587822 -0.5155032873153687 -0.0009319274104200304
0.6788520216941833 -0.17569127678871155 -0.0009319274104200304
0.7499051094055176 -0.5140843391418457 -0.0009319274104200304
0.5863864421844482 0.4998137652873993 -0.049715038388967514
-0.4861222207546234 -0.23988206684589386 -0.0009319274104200304
0.0877896100282669 0.5960450172424316 0.03473236411809921
-0.22806107997894287 -0.4468415677547455 -0.0009319274104200304
-0.5288664102554321 -0.5235241651535034 0.014998618513345718
0.17311543226242065 -0.11752336472272873 -0.0009319274104200304
-0.8002907037734985 -0.036917127668857574 -0.0009319274104200304
0.25196295976638794 0.7460677623748779 0.028981005772948265
-0.19107216596603394 0.23218506574630737 -0.0009319274104200304
0.23427997529506683 -0.3660306930541992 -0.0410027951002121
0.39858829975128174 0.5635480880737305 -0.08700595051050186
-0.1224784404039383 -0.1795772910118103 -0.08700595051050186
-0.25187551975250244 0.4124462306499481 -0.0009319274104200304
0.12026232481002808 0.0742974728345871 -0.0009319274104200304
0.15576480329036713 -0.16028054058551788 0.0851420983672142
0.590996265411377 0.14276835322380066 -0.0009319274104200304
0.08883248269557953 -0.29233023524284363 -0.0009319274104200304
0.26959291100502014 -0.4585263133049011 0.07668007165193558
-0.503613293170929 -0.03700828552246094 0.0851420983672142
-0.11735504865646362 0.034499842673540115 -0.08700595051050186
0.7980542182922363 0.07647818326950073 -0.04664868861436844
0.5753663182258606 0.06436154991388321 -0.08700595051050186
-0.34953203797340393 -0.4247662425041199 0.0851420983672142
0.5174847841262817 0.15303915739059448 -0.0009319274104200304
0.7162895202636719 -0.03451806679368019 -0.0009319274104200304
0.8412026762962341 -0.009818622842431068 -0.046994879841804504
0.26959291100502014 0.2622893452644348 0.010012717917561531
-0.03287990391254425 0.07590784877538681 0.0851420983672142
-0.29415199160575867 -0.014542952179908752 0.0851420983672142
0.33962735533714294 -0.03679198771715164 -0.08700595051050186
0.09232807904481888 -0.2656085789203644 0.0851420983672142
-0.02853403612971306 0.08499733358621597 0.0851420983672142
-0.7275844812393188 -0.5235241651535034 0.008067486807703972
0.5627970695495605 0.3288031220436096 -0.0009319274104200304
-0.5710303783416748 0.14482609927654266 0.0851420983672142
0.752325177192688 -0.2190861850976944 -0.08700595051050186
-0.04628343507647514 0.16046524047851562 -0.08700595051050186
-0.12582872807979584 0.6354768872261047 -0.0009319274104200304
-0.37185579538345337 -0.4693547189235687 0.0851420983672142
0.22642850875854492 0.4999469220638275 -0.0009319274104200304
0.1764434278011322 0.7452370524406433 0.0851420983672142
0.02301434986293316 -0.39586421847343445 -0.0009319274104200304
-0.24088579416275024 0.021136227995157242 -0.08700595051050186
-0.14960291981697083 0.14514578878879547 -0.0009319274104200304
0.1711845099925995 -0.31679004430770874 0.0851420983672142
-0.29517626762390137 0.4349958300590515 -0.0009319274104200304
0.26959291100502014 0.010777558200061321 0.015459948219358921
0.4144477844238281 -0.16653800010681152 -0.0009319274104200304
0.2048398107290268 -0.29932671785354614 -0.08700595051050186
0.1567797213792801 -0.059480760246515274 -0.0009319274104200304
0.2412766069173813 0.33678102493286133 -0.08700595051050186
-0.32541003823280334 -0.5235241651535034 0.04918617382645607
0.09079178422689438 0.04952308535575867 -0.0009319274104200304
-0.7247418165206909 -0.08080394566059113 0.0851420983672142
0.32081934809684753 0.5125322937965393 -0.056868188083171844
0.25331297516822815 -0.5235241651535034 0.005716498475521803
0.6403670907020569 -0.447439044713974 -0.0009319274104200304
0.2993849813938141 -0.12629492580890656 -0.0009319274104200304
-0.11281126737594604 -0.2849849462509155 -0.07449270784854889
0.1238282173871994 -0.36155351996421814 -0.08700595051050186
0.21968603134155273 0.34432050585746765 0.0851420983672142
0.0533256009221077 -0.44579705595970154 -0.0009319274104200304
0.7625178694725037 0.13753385841846466 -0.08700595051050186
-0.7338594794273376 0.0933951660990715 -0.0009319274104200304
-0.6331036686897278 0.2522227466106415 0.01932409033179283
-0.28692397475242615 0.10560189187526703 -0.0009319274104200304
0.051211338490247726 0.00047569177695550025 -0.08700595051050186
-0.01851183921098709 0.011335911229252815 -0.0009319274104200304
-0.08772937953472137 -0.42077091336250305 -0.0009319274104200304
-0.3019564151763916 -0.1552697718143463 0.0851420983672142
-0.2961706519126892 -0.5077521800994873 0.0851420983672142
-0.4189785420894623 -0.1719648241996765 -0.0009319274104200304
-0.08731065690517426 0.6545428037643433 -0.0009319274104200304
-0.32702893018722534 0.5582974553108215 0.07758063822984695
-0.0705031007528305 -0.26488369703292847 -0.08700595051050186
5.938964386587031e-05 -0.031417738646268845 -0.0009319274104200304
0.702738344669342 0.18692359328269958 -0.08700595051050186
-0.21352797746658325 -0.2810775637626648 -0.08700595051050186
-0.38107576966285706 0.40110209584236145 -0.0009319274104200304
-0.28174516558647156 -0.5235241651535034 0.017437387257814407
0.6600977778434753 -0.2753937542438507 -0.018383800983428955
0.47842487692832947 0.7157369256019592 -0.036417096853256226
0.3367260694503784 0.08982706069946289 -0.0009319274104200304
0.013413933105766773 -0.4392692446708679 -0.0009319274104200304
0.07875695079565048 -0.16374270617961884 -0.08700595051050186
0.13459362089633942 0.056282464414834976 -0.0009319274104200304
0.21733270585536957 0.6797491312026978 -0.0009319274104200304
-0.07802802324295044 0.05898561328649521 0.0851420983672142
0.1579977422952652 0.34391263127326965 -0.08700595051050186
0.4691098630428314 -0.2336551547050476 -0.08700595051050186
-0.2555300295352936 -0.44058939814567566 -0.0009319274104200304
-0.5838524699211121 -0.12276151776313782 0.0851420983672142
-0.2255772203207016 0.34000924229621887 -0.0009319274104200304
0.22442422807216644 0.4006637632846832 -0.0009319274104200304
0.7299681305885315 0.19664478302001953 -0.0009319274104200304
-0.6566999554634094 -0.2641664445400238 0.0851420983672142
0.34299877285957336 -0.3143792152404785 -0.0009319274104200304
0.22372789680957794 0.3526831567287445 -0.08700595051050186
-0.19238124787807465 0.12689261138439178 -0.0009319274104200304
-0.12789303064346313 -0.09768476337194443 -0.0009319274104200304
-0.9068326950073242 -0.3957788348197937 0.0851420983672142
-0.6692495346069336 -0.06307361274957657 -0.0009319274104200304
0.05044727772474289 -0.3974030017852783 -0.08700595051050186
-0.9645577669143677 -0.25583040714263916 -0.0009319274104200304
0.36154305934906006 -0.4856772720813751 -0.08700595051050186
-0.2512580454349518 0.21742688119411469 0.0851420983672142
0.742423415184021 -0.42653948068618774 -0.08700595051050186
0.24671751260757446 -0.3819034993648529 -0.0009319274104200304
-0.5242327451705933 0.2573580741882324 -0.0009319274104200304
-0.04109077900648117 0.5090202689170837 -0.0009319274104200304
-0.5490121245384216 0.3348105549812317 -0.0009319274104200304
0.6646860241889954 0.15962541103363037 -0.08700595051050186
0.3116869032382965 0.6279410123825073 -0.08700595051050186
0.6287728548049927 0.17861314117908478 -0.08700595051050186
0.6977598667144775 -0.16928914189338684 -0.0009319274104200304
0.21816390752792358 -0.3273533582687378 -0.0009319274104200304
-0.24881421029567719 -0.3346669375896454 -0.0009319274104200304
-0.65933758020401 -0.3974006474018097 -0.0009319274104200304
-0.49954336881637573 -0.2974426746368408 -0.0009319274104200304
0.36103835701942444 -0.007154707796871662 -0.0009319274104200304
0.2902120351791382 -0.5235241651535034 -0.022839639335870743
0.013382453471422195 -0.5008364319801331 -0.0009319274104200304
-0.1249345913529396 0.46216443181037903 0.0851420983672142
-0.419421523809433 0.182604119181633 0.0851420983672142
0.11366116255521774 -0.40495893359184265 -0.08700595051050186
-0.6036873459815979 -0.3597697913646698 0.0851420983672142
-0.4893861413002014 0.2279951274394989 0.0851420983672142
-0.6850281357765198 -0.2360093593597412 0.0851420983672142
-0.1698303371667862 0.18357692658901215 -0.0009319274104200304
0.5640554428100586 0.3544239103794098 -0.08700595051050186
-0.27222004532814026 -0.3699570298194885 -0.0009319274104200304
0.1476423293352127 -0.39100655913352966 -0.0009319274104200304
0.6519755125045776 -0.5235241651535034 -0.010804594494402409
-0.45915594696998596 0.3116149306297302 -0.0009319274104200304
-0.1491704136133194 -0.5007533431053162 0.0851420983672142
-0.5286779403686523 -0.4128592610359192 -0.0009319274104200304
0.43145906925201416 0.34501925110816956 -0.0009319274104200304
0.24753504991531372 0.1258845031261444 0.0851420983672142
0.5395013093948364 -0.44581207633018494 -0.08700595051050186
0.36130911111831665 0.260724276304245 -0.08700595051050186
0.046669814735651016 -0.08329173922538757 -0.0009319274104200304
0.16067393124103546 -0.5068019032478333 -0.0009319274104200304
-0.9055869579315186 -0.09664476662874222 -0.0009319274104200304
-0.7158647775650024 -0.1707637459039688 -0.0009319274104200304
0.06376826763153076 0.7217515707015991 -0.022581547498703003
0.18960115313529968 0.2987156808376312 -0.0009319274104200304
0.26959291100502014 -0.11662833392620087 0.012506233528256416
-0.17230799794197083 0.193294495344162 -0.0009319274104200304
0.2053764909505844 0.2965705990791321 -0.0009319274104200304
-0.8456195592880249 0.03970680013298988 0.06988804787397385
0.5878706574440002 0.32750049233436584 -0.0009319274104200304
0.7219820618629456 -0.5235241651535034 -0.06605461239814758
-0.23777417838573456 -0.34218674898147583 -0.0009319274104200304
0.8189015984535217 -0.25783461332321167 -0.08700595051050186
0.7904432415962219 -0.4995751976966858 -0.08700595051050186
-0.9751238226890564 -0.30272263288497925 -0.0009319274104200304
-0.3519827723503113 -0.5235241651535034 -0.04366254433989525
-0.18576087057590485 -0.07975511997938156 0.0851420983672142
-0.20438681542873383 0.12345600873231888 0.0851420983672142
-0.21917574107646942 -0.310729056596756 -0.023645862936973572
0.4104440212249756 -0.03239144757390022 -0.08700595051050186
-0.5412975549697876 -0.008897693827748299 0.0851420983672142
0.11005976796150208 0.5037475824356079 0.06895526498556137
-0.014745952561497688 -0.3906523585319519 -0.08700595051050186
-0.134686678647995 0.24831196665763855 -0.0009319274104200304
-0.6552416086196899 -0.3764074742794037 0.0851420983672142
0.06458328664302826 0.4480969309806824 -0.0009319274104200304
0.10048367828130722 -0.5235241651535034 0.02288156934082508
-0.02485473081469536 -0.20417988300323486 0.0851420983672142
-0.3408423960208893 -0.14859403669834137 -0.0009319274104200304
0.2204892635345459 0.30861514806747437 -0.0009319274104200304
0.821540355682373 -0.46889761090278625 -0.08700595051050186
-0.5886307954788208 0.27752771973609924 0.0851420983672142
0.8936295509338379 -0.42988166213035583 -0.07870188355445862
-0.096110999584198 0.14897122979164124 -0.08700595051050186
0.015605398453772068 0.011226408183574677 -0.0009319274104200304
-0.16192536056041718 -0.17489905655384064 0.0851420983672142
-0.19019855558872223 0.3964391052722931 0.0851420983672142
-0.2688376307487488 -0.09249290823936462 -0.0009319274104200304
-0.13609443604946136 0.5290650129318237 -0.0009319274104200304
-0.01215821411460638 0.4739876985549927 -0.08700595051050186
0.11852048337459564 0.3007476329803467 -0.08700595051050186
-0.4295719563961029 0.179942786693573 -0.0009319274104200304
0.26959291100502014 0.4812001585960388 0.048934563994407654
-0.053529996424913406 0.4187541604042053 -0.0009319274104200304
-0.8544909954071045 -0.3234483301639557 0.0851420983672142
0.3158166706562042 0.2841431796550751 -0.0009319274104200304
-0.19165121018886566 -0.2502337694168091 -0.0009319274104200304
0.6474586129188538 -0.13487355411052704 -0.08700595051050186
0.21951085329055786 0.3544144630432129 -0.0009319274104200304
-0.22623777389526367 0.13179230690002441 -0.08700595051050186
0.026617785915732384 -0.09910600632429123 -0.0009319274104200304
-0.9757435321807861 -0.32251036167144775 0.0851420983672142
0.31973713636398315 0.6745905876159668 -0.0009319274104200304
-0.06224919483065605 0.6276630759239197 -0.0009319274104200304
0.3207400143146515 -0.012453028000891209 -0.0009319274104200304
-0.21463175117969513 0.16495147347450256 -0.04909766465425491
0.6944683790206909 0.1438419222831726 -0.08700595051050186
-0.9609968662261963 -0.07686009258031845 0.0851420983672142
-0.17885157465934753 0.21404524147510529 -0.0009319274104200304
-0.21685194969177246 -0.12639816105365753 0.0851420983672142
0.1847529411315918 0.6707122325897217 0.0851420983672142
-0.26825830340385437 0.00047638951218687 -0.08700595051050186
0.8238100409507751 -0.07936422526836395 -0.0009319274104200304
0.5826049447059631 0.39901742339134216 -0.0009319274104200304
-0.053119953721761703 -0.20962782204151154 -0.0009319274104200304
-0.8023738861083984 0.07209927588701248 -0.0009319274104200304
-0.7033815979957581 -0.3529195785522461 -0.0009319274104200304
0.49612534046173096 0.07268496602773666 -0.0009319274104200304
0.05724209547042847 0.6444988250732422 -0.08700595051050186
0.09262057393789291 -0.3887137770652771 -0.0009319274104200304
-0.03484717011451721 -0.466533362865448 -0.0009319274104200304
0.6106191277503967 0.28414949774742126 -0.08700595051050186
0.06794197857379913 -0.3352735936641693 -0.0009319274104200304
0.2992504835128784 -0.26807108521461487 -0.06170543655753136
0.12401941418647766 0.38238760828971863 -0.0009319274104200304
-0.16863198578357697 0.5528689026832581 0.0851420983672142
-0.9987404346466064 -0.1720905900001526 0.0851420983672142
0.2067572921514511 -0.08424682170152664 0.0851420983672142
-0.14224369823932648 -0.20444487035274506 -0.0009319274104200304
-0.27075526118278503 -0.44435587525367737 -0.08700595051050186
-0.3378887474536896 -0.11013298481702805 -0.0009319274104200304
0.04272801801562309 0.4614654779434204 -0.0009319274104200304
0.14741726219654083 -0.18941089510917664 -0.0009319274104200304
0.15845051407814026 -0.5173159241676331 0.0851420983672142
0.03434886410832405 -0.10853484272956848 0.0851420983672142
0.17821404337882996 0.14144930243492126 -0.0009319274104200304
-0.5858522653579712 0.14041990041732788 -0.0009319274104200304
-0.34274232387542725 -0.47493836283683777 -0.0009319274104200304
-0.9089450836181641 -0.47863054275512695 -0.0009319274104200304
-0.2858401834964752 -0.4454862177371979 -0.0009319274104200304
-0.000609431357588619 0.7460677623748779 0.04031688719987869
0.23692907392978668 0.34531402587890625 -0.0009319274104200304
-0.31571680307388306 0.2982139587402344 -0.0009319274104200304
0.015489533543586731 0.5095797181129456 0.06680966168642044
-0.12070220708847046 0.2889958918094635 0.0851420983672142
0.09824387729167938 -0.3247404396533966 -0.0009319274104200304
0.0006226883269846439 0.564927875995636 0.0851420983672142
0.20590169727802277 -0.23599359393119812 -0.0009319274104200304
-0.02218656800687313 -0.22041840851306915 -0.0009319274104200304
0.08805377036333084 -0.11507780104875565 -0.0009319274104200304
-0.9607110619544983 -0.26307907700538635 0.0851420983672142
-0.2546618580818176 -0.5235241651535034 -0.0151240648701787
-0.21141085028648376 -0.5078974366188049 -0.08700595051050186
0.26959291100502014 0.22065240144729614 0.017186209559440613
-0.5106304883956909 0.13672924041748047 -0.0009319274104200304
0.23159387707710266 0.5401135087013245 0.0851420983672142
-0.8533678650856018 0.03195852413773537 0.0513487309217453
0.17415374517440796 -0.11752701550722122 -0.0009319274104200304
0.13930819928646088 -0.4824995696544647 -0.0009319274104200304
-0.736240804195404 -0.1247643455862999 -0.0009319274104200304
-0.13224686682224274 0.02400072291493416 -0.0009319274104200304
0.6115614771842957 0.023172838613390923 -0.08700595051050186
0.2589978873729706 -0.4702771008014679 0.0851420983672142
0.021841783076524734 0.5814450979232788 0.05707663670182228
0.10013792663812637 0.16398191452026367 -0.0009319274104200304
0.7752968668937683 0.1219928190112114 -0.08573789149522781
0.13766613602638245 -0.43999284505844116 -0.0009319274104200304
0.054348934441804886 -0.4868796765804291 -0.0009319274104200304
0.1861659288406372 -0.10752324759960175 -0.0009319274104200304
-0.004063060507178307 0.46318280696868896 -0.0009319274104200304
-0.42671945691108704 -0.37147751450538635 -0.0009319274104200304
0.10043596476316452 0.1436775028705597 -0.0009319274104200304
0.3193342983722687 0.14567406475543976 -0.0009319274104200304
0.5149605870246887 -0.3920987844467163 -0.0009319274104200304
-0.2282170057296753 0.5857484340667725 0.0851420983672142
0.027068113908171654 -0.023806916549801826 -0.08700595051050186
-0.22678446769714355 0.2876860201358795 -0.0009319274104200304
-0.05515566095709801 -0.3710373640060425 0.0851420983672142
-0.17913542687892914 -0.2630694508552551 -0.04661129415035248
0.1519588977098465 -0.5235241651535034 -0.05124058201909065
0.2535785436630249 0.6858505606651306 -0.0009319274104200304
-0.7806775569915771 0.04439739137887955 -0.0009319274104200304
-0.2245762199163437 0.04562019556760788 -0.08700595051050186
-0.5990028381347656 -0.4466456472873688 -0.0009319274104200304
0.858938992023468 -0.1265728771686554 -0.0009319274104200304
0.7276317477226257 0.21732304990291595 -0.081475630402565
0.634824275970459 -0.46701496839523315 -0.0009319274104200304
-0.8139254450798035 -0.051434509456157684 0.0851420983672142
0.06589823216199875 0.5338503122329712 -0.08700595051050186
0.7671924829483032 0.09402197599411011 -0.08700595051050186
0.4551636874675751 0.5815253853797913 -0.0009319274104200304
0.6083055734634399 -0.5235241651535034 -0.0371047779917717
-0.3065044581890106 0.5788219571113586 0.07922133058309555
-0.8629516363143921 -0.4452952742576599 -0.0009319274104200304
-0.24378447234630585 0.481256365776062 -0.0009319274104200304
-0.12340326607227325 0.49890071153640747 -0.0009319274104200304
-0.22998954355716705 -0.18765228986740112 -0.08700595051050186
0.35746899247169495 0.1425069123506546 -0.08700595051050186
0.3404112160205841 0.018464967608451843 -0.08700595051050186
0.271965891122818 0.3271491527557373 -0.08700595051050186
0.1788427233695984 -0.48952406644821167 -0.0009319274104200304
-0.8565367460250854 -0.5235241651535034 0.031410813331604004
0.8637943863868713 -0.3115874230861664 -0.0009319274104200304
-0.20157694816589355 0.20386141538619995 0.0851420983672142
-0.4475417733192444 -0.11894013732671738 -0.0009319274104200304
-0.02428736910223961 0.46326759457588196 -0.0009319274104200304
0.31294015049934387 -0.0787217766046524 -0.08700595051050186
0.2138233333826065 -0.5235241651535034 0.02654445171356201
-0.2950315475463867 0.0041518984362483025 -0.05602468550205231
0.2913981080055237 0.29076066613197327 -0.0009319274104200304
0.48652514815330505 0.6574277281761169 -0.0009319274104200304
-0.09103340655565262 0.30677682161331177 -0.08700595051050186
-0.11258680373430252 0.28715813159942627 -0.0009319274104200304
-0.9834567308425903 -0.4648451805114746 0.0851420983672142
0.5843355655670166 0.14086337387561798 -0.08700595051050186
-0.4593369662761688 0.057912249118089676 0.0851420983672142
0.4109591841697693 -0.10201823711395264 -0.0009319274104200304
-0.720414400100708 -0.5221621990203857 -0.0009319274104200304
-0.0037482171319425106 -0.012160511687397957 -0.08700595051050186
-0.0101975342258811 0.19239795207977295 -0.08700595051050186
0.1228136494755745 0.4903816878795624 -0.0009319274104200304
0.5585320591926575 -0.4812023341655731 -0.08700595051050186
0.30658963322639465 -0.06578246504068375 -0.0009319274104200304
0.38441336154937744 -0.14329950511455536 -0.0009319274104200304
-0.3539358079433441 0.5313906073570251 0.010271183215081692
-0.07932679355144501 -0.44058120250701904 0.0851420983672142
-0.21485142409801483 -0.3428539037704468 0.0851420983672142
-0.09492558240890503 0.17508696019649506 -0.08700595051050186
0.37263214588165283 0.4982881247997284 -0.0009319274104200304
0.002786039374768734 0.5802343487739563 -0.08700595051050186
0.44927605986595154 -0.00898162741214037 -0.0009319274104200304
0.8936295509338379 -0.4056922197341919 -0.0528312548995018
-0.5419073104858398 -0.3280051052570343 0.0851420983672142
0.0358644500374794 -0.04142696410417557 -0.0009319274104200304
-0.11186403036117554 0.04198527708649635 -0.08700595051050186
-0.04978276416659355 0.41187015175819397 -0.0009319274104200304
0.5658863186836243 -0.13224665820598602 -0.0009319274104200304
0.12196822464466095 0.17474161088466644 -0.0009319274104200304
-0.08953586220741272 -0.15360480546951294 0.0851420983672142
0.41032862663269043 0.7227004766464233 -0.08700595051050186
-0.047972530126571655 0.05135197192430496 0.0851420983672142
-0.8936285376548767 -0.5235241651535034 0.05554497614502907
0.10331191122531891 0.1632595956325531 -0.0009319274104200304
0.26561522483825684 -0.3809828460216522 -0.08700595051050186
0.47968578338623047 0.1876758337020874 -0.0009319274104200304
0.3121163845062256 0.7245492339134216 -0.07693764567375183
-0.012568359263241291 0.2553805112838745 0.0851420983672142
0.2040206342935562 0.5087316036224365 0.0851420983672142
-0.2464699000120163 0.012603245675563812 -0.0009319274104200304
-0.0679357647895813 0.4583434760570526 -0.03794797509908676
-0.18484671413898468 -0.37310487031936646 -0.08597178012132645
-0.11251936852931976 0.2986549437046051 -0.08700595051050186
-0.6483055353164673 -0.24402876198291779 -0.0009319274104200304
0.13201096653938293 0.7432406544685364 0.0851420983672142
0.15432420372962952 -0.07000032067298889 0.0851420983672142
0.2194392830133438 -0.5177028775215149 -0.0009319274104200304
-0.5475594997406006 0.16148455440998077 0.0851420983672142
-0.15808981657028198 0.20866431295871735 -0.0009319274104200304
0.1649760603904724 -0.0400078110396862 -0.08700595051050186
-0.15987791121006012 -0.5235241651535034 0.07169273495674133
0.4604339301586151 0.48573970794677734 -0.0009319274104200304
0.10991983115673065 0.2737794816493988 -0.0009319274104200304
0.47706925868988037 0.39707642793655396 -0.0009319274104200304
-0.18124553561210632 0.29576778411865234 -0.0009319274104200304
-0.7803784608840942 -0.14367890357971191 0.0851420983672142
0.15598376095294952 0.6275904178619385 -0.08700595051050186
-0.4481918215751648 -0.33200880885124207 0.0851420983672142
-0.10130392014980316 -0.05087381973862648 -0.0009319274104200304
-0.1907876580953598 -0.40235862135887146 0.0851420983672142
-0.14450855553150177 0.30519789457321167 -0.0361701138317585
-0.910724401473999 -0.02539808303117752 0.04905791953206062
-0.23293009400367737 0.03451084345579147 0.0851420983672142
0.5472207069396973 -0.2377818375825882 -0.0009319274104200304
-0.06470409780740738 0.6617381572723389 0.0851420983672142
0.0695723220705986 0.4828769266605377 0.05314638465642929
0.4927515685558319 -0.0564432293176651 -0.08700595051050186
-0.02008061669766903 -0.18533697724342346 -0.08700595051050186
0.43589359521865845 0.6331430077552795 -0.0009319274104200304
-0.05486232414841652 -0.22917351126670837 -0.0009319274104200304
0.049161411821842194 0.6675847172737122 -0.08700595051050186
0.8575488924980164 -0.04251112416386604 -0.009806805290281773
-0.4210461974143982 0.46428021788597107 0.014952070079743862
0.6164727807044983 -0.4518214762210846 -0.08700595051050186
0.07475877553224564 0.3111226558685303 -0.0009319274104200304
0.26959291100502014 -0.040771666914224625 0.07233569025993347
-0.16094109416007996 0.3579155206680298 0.0851420983672142
-0.8814587593078613 -0.193597212433815 -0.0009319274104200304
0.20740216970443726 0.6449249386787415 -0.08700595051050186
0.3857022225856781 -0.02458878979086876 -0.0009319274104200304
0.7279034852981567 0.03484107553958893 -0.0009319274104200304
-0.39957770705223083 0.48574864864349365 0.02287137694656849
0.26959291100502014 0.33034026622772217 0.017626844346523285
-0.4281544089317322 0.005225673317909241 0.0851420983672142
0.007206053007394075 -0.3307684063911438 0.036126457154750824
-0.0734494999051094 -0.5235241651535034 0.004004655871540308
-0.5181573629379272 0.31442999839782715 -0.0009319274104200304
-0.23849228024482727 0.30851680040359497 -0.0009319274104200304
0.48486846685409546 0.20630358159542084 -0.0009319274104200304
-0.020135121420025826 -0.3312629759311676 0.0851420983672142
-0.4374476671218872 -0.5235241651535034 0.07426457852125168
-0.7479493618011475 -0.10581264644861221 -0.0009319274104200304
-0.0672730803489685 0.4164874255657196 -0.0009319274104200304
0.10970062762498856 0.6383188962936401 0.0851420983672142
0.7529278993606567 0.12073253840208054 -0.08700595051050186
0.33936887979507446 0.23068863153457642 -0.0009319274104200304
-0.26941975951194763 -0.4774836003780365 -0.0009319274104200304
-0.035947952419519424 0.5628203749656677 -0.0009319274104200304
0.22375163435935974 0.5428322553634644 0.0851420983672142
0.3542412519454956 0.33012643456459045 -0.0009319274104200304
-0.03598093241453171 0.5030521750450134 -0.0009319274104200304
-0.45523542165756226 -0.06718184053897858 0.0851420983672142
-0.021776093170046806 0.5506628155708313 -0.07294393330812454
0.14113225042819977 -0.4691692888736725 -0.0009319274104200304
0.12217694520950317 -0.33475160598754883 0.03906659781932831
0.07462356239557266 -0.35218265652656555 -0.08700595051050186
-0.35826575756073 0.018775541335344315 -0.0009319274104200304
0.47673162817955017 -0.2269505113363266 -0.08700595051050186
0.8936295509338379 -0.16861611604690552 -0.0097618717700243
-0.15669751167297363 -0.2460656464099884 -0.08700595051050186
-0.10715381801128387 0.6162600517272949 0.0851420983672142
0.20121851563453674 0.19591379165649414 -0.0009319274104200304
0.7936270833015442 -0.18748652935028076 -0.0009319274104200304
-0.31603020429611206 0.3851323127746582 0.0851420983672142
0.5443344712257385 -0.5235241651535034 -0.04857596382498741
-0.19646993279457092 -0.49578922986984253 -0.0009319274104200304
0.013841809704899788 0.5126575231552124 0.055102020502090454
0.17312851548194885 -0.07826480269432068 -0.0009319274104200304
0.3257269859313965 -0.2836206555366516 -0.0009319274104200304
-0.028181167319417 0.2570899724960327 -0.0009319274104200304
0.18974220752716064 -0.5235241651535034 0.045238301157951355
-0.1946214735507965 -0.3472311496734619 -0.0009319274104200304
-0.3151712715625763 -0.03612757846713066 -0.03910566121339798
-0.7336193323135376 -0.34621766209602356 0.0851420983672142
0.3494718074798584 0.5139259099960327 -0.0009319274104200304
0.5419632196426392 -0.5136361122131348 -0.08700595051050186
-0.5645254254341125 0.3208009898662567 0.06532113254070282
-0.7458661198616028 -0.07532700151205063 0.0851420983672142
0.7616322040557861 -0.15582013130187988 -0.08700595051050186
0.5261598229408264 -0.38483914732933044 -0.08700595051050186
0.19207289814949036 -0.21240222454071045 -0.0009319274104200304
-0.8928295373916626 -0.024790847674012184 -0.0009319274104200304
0.2853146493434906 0.7173952460289001 -0.0009319274104200304
0.14202338457107544 -0.32684415578842163 -0.08700595051050186
0.2418283373117447 -0.2560243010520935 -0.0009319274104200304
-0.2813597321510315 0.5242160558700562 0.0851420983672142
0.09900014102458954 -0.5235241651535034 -0.0501532219350338
0.0007067449623718858 -0.022418010979890823 -0.08700595051050186
-0.4040336310863495 -0.36337003111839294 0.012260819785296917
-0.24762731790542603 0.6376991271972656 0.05190229043364525
-0.20380109548568726 0.6028313636779785 0.0851420983672142
-0.2983521819114685 -0.4649413824081421 -0.0009319274104200304
0.26051270961761475 0.5029528737068176 0.0851420983672142
0.2580587565898895 -0.006919447798281908 0.0851420983672142
-0.44778522849082947 -0.21683800220489502 0.0851420983672142
0.658830463886261 0.1936352401971817 -0.08700595051050186
0.23545272648334503 -0.46061208844184875 -0.0009319274104200304
-0.8419808149337769 -0.46023112535476685 0.0851420983672142
0.07654237747192383 0.664922297000885 -0.08700595051050186
-0.25004813075065613 -0.5235241651535034 -0.08061797171831131
-0.36490800976753235 -0.4767340123653412 0.0851420983672142
-0.6623871326446533 0.18836183845996857 0.0851420983672142
-0.06587391346693039 -0.5235241651535034 0.010736490599811077
0.47903433442115784 0.35917672514915466 -0.0009319274104200304
0.38675397634506226 -0.1734040528535843 -0.0009319274104200304
0.09178180992603302 0.4889863133430481 0.061062101274728775
-0.5531015992164612 0.2866792380809784 -0.0009319274104200304
0.26716476678848267 0.6231982707977295 0.0851420983672142
0.2045895904302597 0.6995822787284851 -0.08700595051050186
0.5028460621833801 0.4780120551586151 -0.08700595051050186
0.34353166818618774 0.21913395822048187 -0.08700595051050186
-0.01720573753118515 -0.2145250290632248 0.0851420983672142
-0.0029778755269944668 -0.005696726962924004 -0.08700595051050186
0.3631465435028076 0.2560116946697235 -0.0009319274104200304
-0.06855084002017975 -0.3813818395137787 -0.0009319274104200304
0.10794927179813385 0.5822803974151611 0.002520625712350011
0.3209505081176758 -0.03786703571677208 -0.0009319274104200304
-0.02486388385295868 0.651124894618988 0.0851420983672142
0.371687114238739 0.42927086353302 -0.08700595051050186
0.1845584511756897 -0.19627387821674347 -0.0009319274104200304
-0.0611727312207222 -0.02121724747121334 -0.0009319274104200304
0.5055167078971863 0.25228357315063477 -0.08700595051050186
-0.10931872576475143 0.48092326521873474 -0.0009319274104200304
