0.13296929001808167 0.07356271147727966 0.09166308492422104
-0.9181299805641174 0.017503801733255386 0.038038142025470734
0.5924266576766968 0.03888753801584244 -0.18809933960437775
0.24217143654823303 0.07226201891899109 0.09681735932826996
0.6143653988838196 -0.006950447801500559 0.0363113209605217
-0.9974946975708008 0.07356271147727966 -0.07634352147579193
0.5755184888839722 0.009166231378912926 0.03606512024998665
0.7206540703773499 -0.07338535040616989 -0.016352098435163498
-0.6389404535293579 -0.0233896616846323 0.038038142025470734
0.15531456470489502 -0.03424739092588425 0.038038142025470734
0.44090160727500916 -0.02159009501338005 -0.24704109132289886
0.6894864439964294 -0.07338535040616989 0.013619309291243553
-0.9412197470664978 -0.038393426686525345 -0.047956205904483795
-0.8354679942131042 0.02769404463469982 0.038038142025470734
0.6514687538146973 0.030081093311309814 0.02340415120124817
0.40104788541793823 -0.07338535040616989 -0.0610274039208889
0.44710782170295715 -0.07338535040616989 -0.21305380761623383
0.43314865231513977 -0.023052118718624115 -0.24704109132289886
-0.5300525426864624 -0.07338535040616989 0.04807589575648308
0.44622090458869934 0.07356271147727966 -0.2422865480184555
0.49045395851135254 0.07356271147727966 -0.11681706458330154
0.5065277218818665 -0.02440895326435566 0.07164633274078369
0.42297667264938354 0.07356271147727966 -0.005108916200697422
0.5306501984596252 -0.07338535040616989 -0.19481581449508667
0.6711937189102173 -0.01401981245726347 0.07934685796499252
0.39012962579727173 0.028156396001577377 0.02835330367088318
-0.6010304689407349 -0.03358221799135208 0.038038142025470734
0.736968994140625 0.07356271147727966 -0.06423188745975494
0.26194214820861816 -0.05140995979309082 0.038038142025470734
-0.9063982963562012 -0.07338535040616989 0.05896943807601929
0.45073315501213074 -0.037918660789728165 0.05322198197245598
-0.7562636733055115 0.07356271147727966 0.09464546293020248
0.35005319118499756 0.07356271147727966 0.045313797891139984
0.39012962579727173 -0.009323693811893463 -0.05070176348090172
0.4840969443321228 -0.05775574967265129 -0.05750048905611038
-0.3815099000930786 -0.05331339314579964 0.09681735932826996
0.6990431547164917 -0.022639937698841095 -0.12102732062339783
0.19939996302127838 0.03765575587749481 0.09681735932826996
-0.3619139790534973 -0.07338535040616989 0.08701883256435394
0.39756497740745544 0.07356271147727966 -0.08029429614543915
-0.9648811221122742 0.05918737128376961 0.09681735932826996
0.534905195236206 0.071513332426548 0.08562402427196503
0.44890886545181274 0.028562597930431366 -0.22005842626094818
-0.9834275245666504 0.02300424315035343 0.09681735932826996
0.21076828241348267 0.07356271147727966 0.08981729298830032
0.5234136581420898 -0.003968557342886925 -0.16185548901557922
0.4541076123714447 -0.05354924872517586 0.04878924787044525
0.5106149315834045 0.07356271147727966 0.0403534471988678
-0.7694262266159058 0.0033566125202924013 0.038038142025470734
0.06440284103155136 -0.07338535040616989 0.04401550814509392
-0.1809922456741333 0.012047276832163334 0.09681735932826996
-0.7092366218566895 -0.07338535040616989 0.08386535942554474
-0.6474014520645142 -0.01568872481584549 0.038038142025470734
-0.49255281686782837 -0.07338535040616989 0.06307900696992874
0.561165988445282 0.07356271147727966 -0.2225104719400406
0.7069703936576843 -0.03076247125864029 -0.09628597646951675
-0.5598265528678894 0.019214680418372154 0.09681735932826996
0.5056483149528503 -0.005412327591329813 0.07102584838867188
0.7154192924499512 0.07065603882074356 0.04837005212903023
0.5002875924110413 0.05702804774045944 0.06757288426160812
-0.4289553761482239 0.05220440402626991 0.038038142025470734
0.6925327777862549 0.028411637991666794 -0.13381683826446533
-0.15165743231773376 0.03674960881471634 0.09681735932826996
-0.22407889366149902 -0.04330073669552803 0.038038142025470734
-0.26222124695777893 -0.04007021710276604 0.038038142025470734
0.7675724625587463 0.053242769092321396 -0.07990802824497223
-0.8615012764930725 -0.03842376172542572 0.09681735932826996
-0.9999989867210388 0.03934577852487564 0.0028009340167045593
-0.3698401153087616 0.07356271147727966 0.0777268335223198
-0.1638689488172531 0.04279020428657532 0.038038142025470734
0.7173912525177002 0.043599992990493774 0.046287901699543
-0.15923865139484406 0.07356271147727966 0.04733913391828537
-0.9241913557052612 -0.07338535040616989 -0.09560360014438629
0.7275292277336121 0.0262007899582386 0.03532848134636879
-0.3219452202320099 -0.07338535040616989 0.07255784422159195
0.6714755892753601 -0.028691859915852547 -0.1590433418750763
-0.9412197470664978 0.05012866482138634 -0.0370229110121727
0.21209289133548737 0.07356271147727966 0.042308345437049866
-0.5880655646324158 0.05754997581243515 0.038038142025470734
-0.06793036311864853 0.002745438367128372 0.038038142025470734
-0.9412197470664978 -0.01363411732017994 -0.03943652659654617
-0.18315526843070984 0.0014103889698162675 0.09681735932826996
0.6578914523124695 0.06316594779491425 -0.23544304072856903
0.7190446853637695 0.02570202574133873 0.04471195861697197
0.30941420793533325 -0.025415834039449692 0.038038142025470734
-0.25051409006118774 -0.05548907443881035 0.09681735932826996
-0.06817902624607086 -0.03298625722527504 0.038038142025470734
-0.3377613425254822 0.04773487150669098 0.038038142025470734
0.5037370324134827 -0.012918524444103241 -0.009576430544257164
0.39012962579727173 0.06750856339931488 -0.183664470911026
0.39012962579727173 0.02084914967417717 -0.004926348105072975
0.5254786610603333 0.07356271147727966 -0.21123388409614563
0.6990200281143188 0.020108357071876526 -0.028889749199151993
-0.5668470859527588 -0.024289343506097794 0.038038142025470734
-0.9143139123916626 0.055805813521146774 0.038038142025470734
0.5606735944747925 -0.02358861081302166 0.09314171969890594
0.43301382660865784 0.07356271147727966 -0.06671884655952454
0.7424538731575012 -0.06737170368432999 -0.16482745110988617
-0.2668795585632324 0.03653257340192795 0.09681735932826996
-0.7384522557258606 0.07356271147727966 0.07905445992946625
0.47611936926841736 -0.07338535040616989 -0.13653239607810974
-0.9697639346122742 0.06555787473917007 0.09681735932826996
0.5345665216445923 -0.05943553149700165 -0.17002195119857788
0.7415910363197327 -0.024884169921278954 -0.16622836887836456
-0.16390396654605865 -0.07338535040616989 0.06077943742275238
-0.14485111832618713 0.07356271147727966 0.08814700692892075
0.06696397066116333 0.07356271147727966 0.04782818630337715
0.6124469041824341 -0.01605026051402092 0.09582040458917618
-0.534709095954895 -0.07338535040616989 0.04542400315403938
0.24458174407482147 0.004113967064768076 0.038038142025470734
-0.10128411650657654 -0.07338535040616989 0.09149901568889618
0.5735354423522949 -0.06020420417189598 -0.1859525889158249
-0.3494802415370941 0.07356271147727966 0.0884416475892067
-0.9805994629859924 0.07356271147727966 -0.0474311038851738
0.2781241834163666 -0.07338535040616989 0.05653730407357216
0.5652199983596802 -0.06784217059612274 -0.24418124556541443
0.5178757905960083 -0.03753170371055603 -0.15670794248580933
-0.9756411910057068 -0.006475833710283041 -0.09715408086776733
-0.7069191336631775 -0.07338535040616989 0.06933476775884628
-0.9011722803115845 -0.07338535040616989 0.09003206342458725
0.42616695165634155 -0.07338535040616989 -0.03377937898039818
0.42328011989593506 0.07356271147727966 -0.03137662634253502
0.7600950002670288 0.035592880100011826 -0.024603135883808136
0.23789367079734802 -0.06005813553929329 0.09681735932826996
0.4561590552330017 0.03960245102643967 -0.19470612704753876
0.140578031539917 -0.02286822535097599 0.09681735932826996
-0.5031121969223022 -0.07338535040616989 0.07939586788415909
0.1771937608718872 -0.07338535040616989 0.05955854803323746
-0.9999989867210388 -0.0069201355800032616 0.09511522948741913
-0.1003187745809555 0.07356271147727966 0.045782286673784256
-0.4548381268978119 0.04356620833277702 0.038038142025470734
0.6213347315788269 -0.07338535040616989 0.07167904824018478
-0.5913107991218567 -0.07338535040616989 0.09611710160970688
-0.27952340245246887 -0.06427353620529175 0.09681735932826996
0.39012962579727173 0.0593925341963768 0.03463589772582054
0.04456967115402222 0.051260996609926224 0.038038142025470734
0.39003390073776245 0.046532731503248215 0.038038142025470734
-0.8135968446731567 -0.055760692805051804 0.038038142025470734
0.16079288721084595 0.038847390562295914 0.09681735932826996
-0.23475775122642517 0.045862868428230286 0.038038142025470734
-0.46271899342536926 -0.07338535040616989 0.08717518299818039
-0.9870231747627258 -0.046055831015110016 -0.09715408086776733
0.23225149512290955 0.07356271147727966 0.03909172862768173
-0.10034164786338806 0.033045247197151184 0.09681735932826996
0.4306178092956543 -0.024154428392648697 0.09681735932826996
0.4225651025772095 -0.07338535040616989 0.058060262352228165
-0.5589064955711365 0.03962210193276405 0.09681735932826996
-0.5043972730636597 0.050302423536777496 0.09681735932826996
-0.9826579689979553 0.035896193236112595 -0.09715408086776733
0.39012962579727173 -0.04129669442772865 -0.1691950112581253
0.30626535415649414 0.07356271147727966 0.0626600980758667
0.6276494860649109 0.035571735352277756 0.03330506384372711
0.43462568521499634 0.07356271147727966 -0.18722881376743317
-0.9999989867210388 0.008002013899385929 0.036719124764204025
-0.53970867395401 0.025082986801862717 0.09681735932826996
-0.8172445297241211 -0.011817537248134613 0.09681735932826996
0.7622171640396118 -0.03787725418806076 -0.03255045786499977
-0.9999989867210388 -0.026377206668257713 -0.09517505764961243
0.4531064033508301 -0.07338535040616989 -0.16665267944335938
-0.9849022626876831 0.07356271147727966 -0.07824196666479111
-0.9412197470664978 -0.011364806443452835 -0.016546882688999176
0.6282857060432434 -0.06460606306791306 -0.18343982100486755
0.16083955764770508 -0.03486938402056694 0.038038142025470734
-0.9489341974258423 0.07356271147727966 -0.0917595773935318
0.6741778254508972 -0.005803460255265236 -0.22799038887023926
0.506873369216919 -0.06597834825515747 0.07192903757095337
0.21753297746181488 -0.07165508717298508 0.09681735932826996
-0.9013395309448242 0.04304172843694687 0.09681735932826996
0.7381250858306885 0.028786811977624893 0.021249493584036827
-0.1847989410161972 -0.02574829012155533 0.09681735932826996
-0.2502857744693756 0.07356271147727966 0.048135582357645035
0.4981589913368225 0.05680247023701668 0.06612948328256607
-0.3850170075893402 -0.022221071645617485 0.09681735932826996
-0.40408897399902344 -0.039691317826509476 0.09681735932826996
-0.648678183555603 -0.014563108794391155 0.09681735932826996
-0.9999989867210388 -0.04803996905684471 -0.013762709684669971
0.6969887614250183 -0.06240391731262207 -0.024506451562047005
0.7646715641021729 -0.004282212816178799 -0.043017685413360596
0.7473852634429932 0.046468134969472885 0.005961763206869364
-0.36876437067985535 -0.032974857836961746 0.038038142025470734
-0.887431800365448 0.012961463071405888 0.038038142025470734
0.5000790357589722 0.07356271147727966 -0.15447013080120087
0.7636643052101135 -0.007960181683301926 -0.11206790804862976
0.7425512075424194 0.06768883764743805 0.014443157240748405
-0.9412197470664978 0.007793043274432421 0.030690744519233704
-0.9271084070205688 0.05646265298128128 -0.06776446849107742
0.4056212306022644 0.07356271147727966 -0.018782079219818115
-0.7373836040496826 0.07356271147727966 0.07640204578638077
0.12115779519081116 -0.037549495697021484 0.09681735932826996
-0.9999989867210388 0.06651315838098526 -0.05156613513827324
0.5070605278015137 0.03722110018134117 0.07199094444513321
-0.14603549242019653 -0.07338535040616989 0.06445792317390442
-0.5499365925788879 0.0003354125074110925 0.09681735932826996
0.6123796105384827 -0.010543666779994965 -0.24611611664295197
0.39012962579727173 -0.005667537916451693 0.033886875957250595
-0.4768906533718109 -0.020479725673794746 0.038038142025470734
-0.8588026165962219 -0.058302927762269974 0.038038142025470734
0.157760351896286 0.045801371335983276 0.09681735932826996
0.39012962579727173 0.047036439180374146 -0.11286759376525879
-0.09344137459993362 -0.015079324133694172 0.038038142025470734
0.5635408759117126 -0.021662147715687752 0.09365769475698471
-0.192803293466568 -0.07338535040616989 0.0759713426232338
0.6668590307235718 0.009746876545250416 -0.23156845569610596
-0.923271119594574 0.04253125190734863 0.09681735932826996
-0.9412197470664978 0.0722908303141594 -0.0584142729640007
-0.9279839992523193 -0.020517297089099884 -0.06776446849107742
0.7520245909690857 0.023780379444360733 -0.14663836359977722
0.4769674837589264 -0.000296761718345806 -0.19911988079547882
-0.25005000829696655 -0.046775370836257935 0.09681735932826996
0.5149490833282471 -0.005472034681588411 0.0036608821246773005
0.09293513000011444 -0.07338535040616989 0.058212004601955414
0.47203758358955383 -0.03388471156358719 -0.1953532099723816
0.5805088877677917 -0.0028109541162848473 0.09605031460523605
-0.13998427987098694 -0.07161764800548553 0.038038142025470734
-0.7583400011062622 0.0481293722987175 0.038038142025470734
0.7593614459037781 0.02964647300541401 -0.12797479331493378
-0.2918277382850647 -0.07338535040616989 0.07013928890228271
0.754634439945221 -0.07338535040616989 -0.12472674995660782
0.4980659484863281 0.023028623312711716 -0.2164030820131302
0.7035598158836365 0.002013371791690588 -0.10939101129770279
-0.9999989867210388 0.04197022691369057 -0.05365883558988571
0.7162610292434692 0.07176639139652252 0.04757222160696983
0.7202327251434326 0.040416471660137177 0.04338643327355385
-0.9030812382698059 0.04494326189160347 0.038038142025470734
-0.7932042479515076 -0.035208314657211304 0.09681735932826996
-0.17899750173091888 0.01625213213264942 0.038038142025470734
-0.4014524817466736 0.07356271147727966 0.08599860221147537
0.7603203654289246 0.067184679210186 -0.025185370817780495
0.5415829420089722 0.061908550560474396 -0.2382282167673111
-0.22796235978603363 0.07356271147727966 0.07777988165616989
-0.5355169773101807 0.07356271147727966 0.0728716030716896
0.551872193813324 0.04186931252479553 -0.17917291820049286
0.3929187059402466 0.06376605480909348 -0.243447944521904
0.4958048462867737 -0.04573904350399971 -0.022551342844963074
0.39012962579727173 -0.023302871733903885 -0.020053569227457047
-0.982658863067627 -0.02721662074327469 -0.09715408086776733
0.5958590507507324 0.029266001656651497 0.03786088153719902
-0.39119231700897217 0.06248028948903084 0.038038142025470734
-0.9251853227615356 0.07356271147727966 0.06654251366853714
0.7339349985122681 -0.05597525089979172 0.026983490213751793
0.5342234373092651 0.005698831286281347 0.019636915996670723
0.6109713912010193 0.07356271147727966 0.04641598463058472
0.6854879260063171 0.07158610969781876 -0.1439565122127533
0.5147443413734436 -0.07338535040616989 -0.16009460389614105
-0.7524240612983704 0.06161067262291908 0.09681735932826996
-0.6181724667549133 -0.044495534151792526 0.038038142025470734
-0.4778692126274109 -0.05653610825538635 0.038038142025470734
0.09278417378664017 0.02433975785970688 0.09681735932826996
-0.049582820385694504 -0.031214473769068718 0.09681735932826996
0.39012962579727173 -0.04531785100698471 0.016131997108459473
-0.9327971935272217 0.07356271147727966 0.04078896343708038
-0.42198410630226135 0.02219550870358944 0.09681735932826996
0.7534613013267517 -0.06592367589473724 -0.14372318983078003
0.4000862240791321 -0.07338535040616989 -0.1755753457546234
0.015238803811371326 -0.04905572533607483 0.038038142025470734
0.2671509385108948 0.0579582042992115 0.038038142025470734
-0.3100818693637848 0.0395047701895237 0.038038142025470734
0.6807108521461487 0.07193386554718018 -0.000693338573910296
0.44890886545181274 -0.0038615530356764793 0.08209457248449326
-0.4645118713378906 -0.058559779077768326 0.09681735932826996
0.7459694743156433 -0.07338535040616989 -0.06864073872566223
-0.4023604393005371 -0.014212981797754765 0.038038142025470734
-0.9999989867210388 0.07294460386037827 -0.026090916246175766
0.7559386491775513 -0.030324125662446022 -0.137406125664711
-0.7492907047271729 0.07356271147727966 0.07951156795024872
0.6721689701080322 -0.03365306183695793 -0.22896425426006317
-0.6955028772354126 -0.06506562232971191 0.09681735932826996
0.39012962579727173 -0.03978577256202698 -0.12644094228744507
-0.8824405074119568 -0.02167210541665554 -0.08339126408100128
0.44890886545181274 0.0050329603254795074 -0.24300187826156616
-0.4368627667427063 0.06668148189783096 0.038038142025470734
-0.6428248286247253 -0.07338535040616989 0.06805532425642014
0.3038492798805237 0.03620057925581932 0.09681735932826996
-0.6242202520370483 0.01854775846004486 0.038038142025470734
0.29488950967788696 -0.07338535040616989 0.08086415380239487
0.39012962579727173 0.00914898794144392 -0.10083165764808655
-0.9649267196655273 -0.03038291446864605 0.09681735932826996
0.7007103562355042 -0.005078302696347237 -0.033052146434783936
0.14904652535915375 0.013434115797281265 0.09681735932826996
0.5782665014266968 0.024075323715806007 -0.24607737362384796
0.3608691692352295 -0.004808069672435522 0.09681735932826996
-0.9148338437080383 0.00799915473908186 0.038038142025470734
-0.5957667231559753 -0.008599629625678062 0.038038142025470734
0.7068583965301514 0.0008909017778933048 -0.05382145941257477
0.6026619672775269 -0.006239773705601692 -0.18790601193904877
0.21277806162834167 -0.025871312245726585 0.09681735932826996
-0.13039886951446533 0.07356271147727966 0.04971575364470482
0.5365634560585022 -0.0262127798050642 0.021024294197559357
-0.02780310809612274 0.04218760132789612 0.038038142025470734
-0.8381641507148743 -0.062337785959243774 0.09681735932826996
0.48964112997055054 0.07356271147727966 -0.18683287501335144
0.7087074518203735 -0.06890607625246048 -0.06920327246189117
-0.09689459204673767 -0.03961092233657837 0.038038142025470734
0.5070191621780396 0.03989842161536217 -0.22211334109306335
-0.8302884101867676 0.07356271147727966 0.06283380091190338
-0.15775291621685028 0.052367109805345535 0.038038142025470734
-0.9999989867210388 0.04847477003931999 0.0006207211990840733
0.39012962579727173 0.05537059158086777 -0.1327858567237854
0.5444890260696411 -0.025224914774298668 -0.23907320201396942
-0.6086994409561157 0.016049083322286606 0.09681735932826996
-0.8533819913864136 -0.06101648509502411 0.09681735932826996
0.6756188273429871 -0.07338535040616989 -0.19709305465221405
0.4866647720336914 0.008781909942626953 -0.10388592630624771
-0.15467336773872375 0.016520919278264046 0.09681735932826996
0.6971933841705322 -0.03833480924367905 -0.21397610008716583
-0.7298194766044617 -0.07338535040616989 0.04530256986618042
-0.8924441933631897 0.07356271147727966 -0.06828851997852325
-0.10654795169830322 -0.036060772836208344 0.09681735932826996
-0.12204331159591675 -0.07338535040616989 0.08004441112279892
-0.5349217057228088 0.07213019579648972 0.09681735932826996
-0.3037155568599701 0.04116840660572052 0.09681735932826996
-0.07804031670093536 -0.07338535040616989 0.062136150896549225
0.18528643250465393 -0.07338535040616989 0.08036895096302032
0.7079769372940063 0.02118631824851036 -0.2052331566810608
0.49773329496383667 0.02147696353495121 -0.018919596448540688
-0.9999989867210388 0.02006535790860653 0.024162396788597107
0.39012962579727173 0.06940720975399017 -0.14411699771881104
0.28359100222587585 -0.014223940670490265 0.038038142025470734
0.557212769985199 -0.03701159358024597 0.03096417896449566
-0.1617964655160904 0.07356271147727966 0.09050652384757996
-0.5081095695495605 -0.04136641323566437 0.09681735932826996
0.6305482387542725 -0.07338535040616989 -0.23914025723934174
-0.7120065093040466 -0.025486430153250694 0.038038142025470734
0.5551614761352539 0.025708360597491264 0.09188030660152435
0.44890886545181274 -0.03357997164130211 -0.23242300748825073
-0.06386541575193405 0.05204202979803085 0.038038142025470734
0.21856334805488586 -0.0016375778941437602 0.09681735932826996
-0.8381221294403076 0.06928525120019913 0.09681735932826996
0.5952712893486023 -0.053354453295469284 -0.2468007504940033
-0.5943801999092102 -0.03345569968223572 0.038038142025470734
-0.8515108227729797 -0.03025086782872677 0.09681735932826996
-0.7898876667022705 -0.052038125693798065 0.09681735932826996
0.6858860850334167 -0.017115503549575806 -0.14331597089767456
0.47313323616981506 -0.07338535040616989 0.0301190372556448
0.6119188666343689 -0.010114002972841263 -0.18705904483795166
-0.3890150189399719 -0.07338535040616989 0.05951536074280739
0.009854461997747421 -0.008753658272325993 0.09681735932826996
-0.9523954391479492 0.07356271147727966 -0.04843147099018097
0.45941004157066345 0.06034528836607933 0.04284067824482918
0.272431880235672 -0.010848753154277802 0.038038142025470734
0.4031934142112732 -0.07338535040616989 -0.24606835842132568
-0.7097791433334351 0.0700468122959137 0.09681735932826996
0.1557425558567047 -0.008855820633471012 0.09681735932826996
-0.060537610203027725 -0.05613283812999725 0.09681735932826996
0.11418052762746811 0.06973640620708466 0.09681735932826996
-0.6472601890563965 0.07356271147727966 0.045497503131628036
0.5032376050949097 -0.07203255593776703 -0.010265130549669266
-0.13942086696624756 -0.022787589579820633 0.038038142025470734
0.4691488444805145 -0.07338535040616989 -0.04286544397473335
-0.9239559173583984 0.017532506957650185 0.038038142025470734
0.14453595876693726 0.07356271147727966 0.05632665008306503
0.4556104838848114 -0.036287613213062286 -0.19667752087116241
0.4810398817062378 -0.07338535040616989 -0.16076365113258362
0.42714783549308777 0.07356271147727966 -0.19455209374427795
0.6325217485427856 -0.07338535040616989 0.03457009792327881
-0.8699153065681458 0.07236593961715698 0.09681735932826996
-0.16855496168136597 0.03877635672688484 0.09681735932826996
-0.5468279123306274 0.023051487281918526 0.09681735932826996
0.45159876346588135 0.06405989825725555 0.05035458505153656
0.682006299495697 -0.02605205960571766 -0.148298442363739
0.6900765895843506 -0.07338535040616989 -0.20712225139141083
-0.9902122616767883 0.07356271147727966 -0.04116889461874962
0.6761453747749329 0.004104136489331722 0.07673245668411255
0.48892542719841003 0.06299231946468353 0.05941294878721237
0.016694024205207825 0.048322249203920364 0.038038142025470734
-0.7128683924674988 -0.07338535040616989 0.06809130311012268
-0.7503514289855957 0.030641628429293633 0.09681735932826996
0.4867015480995178 -0.023678217083215714 -0.10394935309886932
-0.9412197470664978 0.04614755138754845 0.016878576949238777
0.5549889206886292 0.050480011850595474 -0.18023960292339325
-0.717257559299469 0.02662898600101471 0.09681735932826996
-0.9929825067520142 0.009272626601159573 -0.09715408086776733
0.5248423218727112 -0.03084137849509716 0.0813739076256752
0.21681232750415802 -0.07338535040616989 0.0755375325679779
0.44890886545181274 -0.07030721753835678 -0.21987846493721008
0.6343782544136047 0.006783351302146912 0.030967995524406433
0.7246963977813721 -0.07338535040616989 -0.043932586908340454
-0.9412197470664978 0.05787497013807297 -0.0651150643825531
-0.0019714978989213705 -0.007794892881065607 0.038038142025470734
-0.6417422294616699 0.06532610207796097 0.038038142025470734
0.26920533180236816 -0.00941422488540411 0.038038142025470734
-0.9571605920791626 0.062256574630737305 -0.09715408086776733
0.7560860514640808 -0.012072214856743813 -0.012987242080271244
-0.4406159818172455 0.017126861959695816 0.09681735932826996
0.5458288788795471 0.07356271147727966 -0.238017275929451
0.5908716320991516 -0.05524440109729767 0.037639208137989044
0.6312711238861084 -0.02587147429585457 0.09298469871282578
0.44890886545181274 0.059798143804073334 0.06454864889383316
0.612349271774292 0.07009302824735641 -0.24610300362110138
0.4990765154361725 0.007668058853596449 -0.0167001411318779
-0.5109694004058838 -0.0027982713654637337 0.09681735932826996
0.7614808082580566 0.02553785778582096 -0.029291965067386627
0.6133866310119629 -0.07338535040616989 -0.21744951605796814
-0.7529891729354858 -3.7123241781955585e-05 0.09681735932826996
-0.18332482874393463 0.02497951313853264 0.038038142025470734
-0.13771891593933105 -0.044540952891111374 0.038038142025470734
-0.4003550410270691 -0.0627153292298317 0.09681735932826996
0.5883984565734863 -0.06171083822846413 0.09663522243499756
0.016006577759981155 -0.07338535040616989 0.041427481919527054
-0.5747782588005066 0.07356271147727966 0.08220768719911575
0.7399813532829285 -0.04511798173189163 0.018397744745016098
0.5210444331169128 -0.06272182613611221 0.009697915986180305
-0.10085401684045792 -0.07096949219703674 0.09681735932826996
-0.8766512870788574 -0.04927557706832886 0.038038142025470734
0.3848337233066559 -0.07338535040616989 0.0761428251862526
-0.5711681246757507 0.03392219543457031 0.038038142025470734
-0.03714919835329056 0.07356271147727966 0.07762687653303146
-0.44763684272766113 0.07356271147727966 0.05778222903609276
-0.5237653851509094 0.07356271147727966 0.04520096629858017
-0.9999989867210388 0.06330437958240509 -0.08565118163824081
-0.2438838630914688 0.07356271147727966 0.0631912350654602
0.7311171889305115 -0.031002728268504143 -0.1810254454612732
0.2428714632987976 0.07356271147727966 0.09579826146364212
-0.15885473787784576 0.04456887021660805 0.038038142025470734
-0.5021796226501465 0.06878947466611862 0.038038142025470734
-0.5644355416297913 0.055152300745248795 0.09681735932826996
-0.5710201263427734 0.010162077844142914 0.038038142025470734
0.39012962579727173 -0.012600538320839405 -0.15662294626235962
0.6526012420654297 0.026037488132715225 -0.17283056676387787
-0.8813468813896179 0.0647491067647934 0.038038142025470734
0.6909870505332947 0.027129532769322395 -0.014218829572200775
-0.5942269563674927 -0.02447408251464367 0.09681735932826996
-0.37780138850212097 -0.07338535040616989 0.06514780223369598
-0.5893720388412476 -0.029376201331615448 0.038038142025470734
-0.39611130952835083 -0.035897936671972275 0.038038142025470734
0.7656960487365723 -0.03158038854598999 -0.04948396235704422
0.40481799840927124 -0.06747064739465714 -0.24704109132289886
-0.9597517251968384 0.0407986082136631 -0.09715408086776733
0.764050304889679 0.006734813563525677 -0.03987867757678032
0.16576796770095825 -0.07338535040616989 0.07627618312835693
0.7617654800415039 0.04584772512316704 -0.11975163221359253
0.39012962579727173 -0.04361271858215332 0.0014120390405878425
-0.18592195212841034 -0.0497019961476326 0.09681735932826996
0.32347893714904785 -0.016564058139920235 0.038038142025470734
0.24871717393398285 -0.04503088444471359 0.09681735932826996
-0.23449058830738068 -0.03965852037072182 0.038038142025470734
0.7604418992996216 -0.07338535040616989 -0.0616886131465435
-0.7554288506507874 0.057234615087509155 0.038038142025470734
-0.7613384127616882 -0.019384512677788734 0.038038142025470734
0.30452761054039 -0.07338535040616989 0.038677141070365906
0.3087594211101532 -0.07338535040616989 0.06774497032165527
-0.8787723183631897 -0.07309866696596146 0.038038142025470734
-0.4353986084461212 0.015991050750017166 0.038038142025470734
-0.3218763470649719 0.017573637887835503 0.09681735932826996
0.5000770092010498 0.07356271147727966 0.004200886003673077
0.5348004102706909 -0.005903828889131546 0.020042292773723602
-0.9000648260116577 0.04388297721743584 -0.06776446849107742
0.5546287894248962 -0.026419149711728096 -0.18021976947784424
-0.14774252474308014 -0.049146536737680435 0.09681735932826996
0.6002619862556458 -0.07338535040616989 -0.19044826924800873
0.06360644847154617 0.018580785021185875 0.09681735932826996
-0.9412197470664978 0.07323037087917328 -0.05363147333264351
-0.6419180035591125 0.0030288936104625463 0.09681735932826996
0.4224819242954254 -0.07338535040616989 0.05270181968808174
-0.14961868524551392 -0.07338535040616989 0.04529226943850517
0.5002443790435791 0.07174427807331085 0.06769230961799622
0.18726448714733124 -0.050111863762140274 0.09681735932826996
0.033459462225437164 -0.07338535040616989 0.04601617902517319
0.7669222950935364 -0.06157748028635979 -0.09170559048652649
0.47498995065689087 -0.07338535040616989 -0.12937290966510773
-0.9861999750137329 -0.020703032612800598 -0.09715408086776733
-0.9036203622817993 0.037944331765174866 0.038038142025470734
0.4346871078014374 0.07356271147727966 -0.04545697197318077
0.7668749690055847 -0.040757033973932266 -0.057941194623708725
0.20920111238956451 -0.018955858424305916 0.09681735932826996
0.28567662835121155 -0.014199766330420971 0.038038142025470734
0.06059233471751213 -0.019844453781843185 0.038038142025470734
-0.4049587845802307 0.0226853359490633 0.09681735932826996
-0.7576465606689453 0.014926504343748093 0.09681735932826996
-0.0034363034646958113 -0.07011815160512924 0.09681735932826996
0.44890886545181274 -0.0614299401640892 0.08264189958572388
0.7673393487930298 0.04461108520627022 -0.06465331465005875
0.7533668875694275 -0.019469207152724266 -0.0067275576293468475
-0.5452778339385986 -0.04453003779053688 0.038038142025470734
-0.0840299129486084 0.018569812178611755 0.09681735932826996
-0.06908903270959854 -0.036125414073467255 0.09681735932826996
0.39012962579727173 0.0732281431555748 -0.12373065948486328
-0.05940220504999161 -0.07338535040616989 0.046546097844839096
0.5169678926467896 -0.05392615497112274 -0.15607355535030365
0.11664683371782303 0.03691643849015236 0.038038142025470734
0.42937663197517395 0.03571266680955887 0.09681735932826996
0.44890886545181274 -0.06185787543654442 0.08299518376588821
-0.20680919289588928 -0.04384501650929451 0.09681735932826996
0.39012962579727173 -0.0016196188516914845 -0.2070489525794983
-0.9765244126319885 0.07356271147727966 0.012409218586981297
0.44890886545181274 -0.028272481635212898 0.09664978086948395
0.6335157752037048 -0.06469699740409851 -0.24282048642635345
0.7656232714653015 -0.029976220801472664 -0.10134389996528625
0.5266969799995422 0.07356271147727966 -0.19217096269130707
-0.32090768218040466 -0.06151498109102249 0.09681735932826996
0.5680109262466431 0.07356271147727966 0.0365045964717865
-0.06821238249540329 0.03379570692777634 0.038038142025470734
0.06841658055782318 0.02682599611580372 0.038038142025470734
-0.6392081379890442 0.06504693627357483 0.09681735932826996
-0.5149829387664795 -0.044648177921772 0.09681735932826996
-0.5752968788146973 -0.05798115208745003 0.09681735932826996
0.5917696356773376 -0.030116479843854904 -0.18814334273338318
0.6408295035362244 0.069465272128582 0.09081417322158813
0.4832718074321747 -0.04735812917351723 -0.0837387964129448
0.4634025990962982 -0.03349529579281807 -0.19349412620067596
-0.25939419865608215 0.06934861093759537 0.09681735932826996
0.6950597763061523 -0.030251841992139816 -0.020738376304507256
-0.562171995639801 -0.07338535040616989 0.054482728242874146
0.5729092955589294 -0.07338535040616989 0.07476179301738739
-0.7363564968109131 -0.07338535040616989 0.04035497084259987
0.5272858142852783 0.014112837612628937 -0.23260538280010223
0.377949059009552 -0.07338535040616989 0.04538827762007713
0.7332197427749634 -0.027985578402876854 0.028142007067799568
-0.0698433369398117 0.005347848869860172 0.09681735932826996
0.7497121691703796 0.005546014755964279 0.001267308951355517
0.6979601383209229 0.025728411972522736 -0.2132730484008789
-0.45141303539276123 -0.07338535040616989 0.0649459958076477
0.7006184458732605 -0.008288335055112839 -0.21133501827716827
0.42053118348121643 0.06790971010923386 -0.24704109132289886
0.41880032420158386 0.07356271147727966 0.03621383011341095
0.4570237696170807 0.06979867070913315 0.043773896992206573
0.5332025289535522 0.0009951663669198751 -0.16914494335651398
0.516328752040863 -0.06856296956539154 -0.22749383747577667
0.2143263965845108 -0.0038258100394159555 0.038038142025470734
-0.9999989867210388 0.0011136132525280118 -0.0009176125749945641
-0.023653125390410423 0.07356271147727966 0.0479266382753849
0.39012962579727173 0.04469030350446701 -0.007581896614283323
-0.6907342672348022 0.07335475087165833 0.09681735932826996
-0.9490188360214233 0.07356271147727966 -0.04773619771003723
0.22480694949626923 0.004719745833426714 0.09681735932826996
-0.20638304948806763 -0.058267444372177124 0.038038142025470734
-0.8816685080528259 0.06300844997167587 0.038038142025470734
-0.5648386478424072 -0.05153961852192879 0.038038142025470734
-0.09495597332715988 0.040125831961631775 0.09681735932826996
-0.8865115642547607 0.04997320473194122 -0.09240817278623581
0.7088596224784851 0.01004631444811821 -0.07729478180408478
0.7673014998435974 -0.007337474264204502 -0.06398295611143112
-0.002331491094082594 0.03274276852607727 0.09681735932826996
-0.30182337760925293 0.003829635912552476 0.038038142025470734
0.3661096394062042 -0.07338535040616989 0.062308188527822495
-0.8288783431053162 -0.05106375738978386 0.038038142025470734
0.11195433884859085 0.07356271147727966 0.05677689239382744
-0.9037663340568542 0.052161842584609985 -0.06776446849107742
-0.9999989867210388 -0.03629016876220703 -0.06258273869752884
-0.9412197470664978 0.03883832320570946 -0.006722001358866692
0.11738229542970657 0.010118256323039532 0.09681735932826996
-0.9999989867210388 0.025115296244621277 -0.021075895056128502
0.436309814453125 0.07356271147727966 -0.015299663878977299
-0.911370038986206 -0.07338535040616989 0.06324830651283264
0.1906251162290573 0.00543578015640378 0.09681735932826996
0.6836659908294678 -0.011894496157765388 -0.003984242677688599
-0.9832803010940552 0.03433452174067497 -0.09715408086776733
0.7107806205749512 0.0374637246131897 0.05275259539484978
-0.8437473773956299 -0.04307931661605835 0.09681735932826996
-0.012893270701169968 -0.033479053527116776 0.038038142025470734
0.5660602450370789 -0.07338535040616989 -0.2228436917066574
-0.9327530264854431 0.01808454841375351 -0.06776446849107742
-0.5972349047660828 -0.04955863207578659 0.038038142025470734
0.5874466896057129 -0.07338535040616989 0.0391417071223259
-0.748238742351532 0.06627871096134186 0.09681735932826996
-0.4002290964126587 -0.0013234317302703857 0.09681735932826996
-0.342337965965271 0.043691325932741165 0.09681735932826996
-0.6877832412719727 -0.07338535040616989 0.06739652156829834
-0.2947103977203369 -0.04182411730289459 0.09681735932826996
-0.3714204430580139 -0.029807932674884796 0.038038142025470734
-0.8200649619102478 0.045554835349321365 0.038038142025470734
0.6694268584251404 0.07356271147727966 0.06534874439239502
0.5110408067703247 -0.018918104469776154 -0.0007334222900681198
0.6092953085899353 0.02641192264854908 0.03701213374733925
-0.8598380088806152 0.04801020398736 0.09681735932826996
-0.6201009750366211 -0.06833154708147049 0.038038142025470734
-0.44372332096099854 0.07182928919792175 0.09681735932826996
0.750188410282135 -0.07338535040616989 -0.08870306611061096
0.6826673150062561 -0.07338535040616989 0.04883355274796486
0.7475554347038269 0.042295902967453 0.0055088778026402
-0.4393084645271301 0.038633283227682114 0.038038142025470734
0.23358990252017975 0.029598653316497803 0.09681735932826996
0.2793026268482208 0.049579598009586334 0.09681735932826996
-0.833475649356842 0.02928953431546688 0.038038142025470734
-0.49897316098213196 -0.002012481912970543 0.09681735932826996
-0.24036668241024017 0.011767626740038395 0.09681735932826996
-0.8373282551765442 0.03608829155564308 0.038038142025470734
0.708569347858429 0.0723135694861412 -0.08127390593290329
0.35784414410591125 0.07356271147727966 0.06325880438089371
-0.26795849204063416 0.07356271147727966 0.04333114251494408
0.48716041445732117 -0.059955958276987076 -0.04402188956737518
-0.01583784818649292 -0.0092150354757905 0.038038142025470734
0.11311646550893784 0.037004634737968445 0.09681735932826996
0.13998080790042877 0.06815548986196518 0.038038142025470734
-0.559661865234375 -0.042845841497182846 0.09681735932826996
-0.718842625617981 -0.028585681691765785 0.09681735932826996
-0.23824074864387512 -0.03145134076476097 0.038038142025470734
-0.8405181169509888 0.07356271147727966 0.0817786380648613
-0.9412197470664978 -0.013490584678947926 0.004820005968213081
-0.28215518593788147 -0.0597807802259922 0.038038142025470734
-0.7333423495292664 0.003839081386104226 0.038038142025470734
0.6828490495681763 -0.07338535040616989 -0.16302792727947235
0.6216856241226196 0.0013950435677543283 -0.2448873668909073
-0.30049917101860046 -0.07338535040616989 0.06326769292354584
0.7172011137008667 0.00381614756770432 0.04642299562692642
0.6900674104690552 -0.04728974401950836 -0.13745631277561188
0.22882965207099915 0.02691078744828701 0.09681735932826996
0.6909624338150024 -0.07338535040616989 -0.18075396120548248
-0.09735064208507538 -0.02487066760659218 0.038038142025470734
0.7267153263092041 0.051320213824510574 0.036221735179424286
-0.3270360827445984 -0.00841893907636404 0.038038142025470734
-0.9308838844299316 -0.0678471028804779 0.038038142025470734
-0.9658538103103638 -0.01638616994023323 0.09681735932826996
0.24199822545051575 0.07356271147727966 0.08383594453334808
-0.8930634260177612 0.07356271147727966 -0.08271041512489319
0.41722750663757324 -0.07338535040616989 -0.08149880170822144
-0.7159742712974548 0.07356271147727966 0.06602376699447632
-0.8761497735977173 -0.023325027897953987 0.038038142025470734
-0.8388192653656006 0.07356271147727966 0.05924409255385399
-0.9899033904075623 0.061664972454309464 0.09681735932826996
0.39840611815452576 0.07356271147727966 -0.15914495289325714
-0.6348218321800232 -0.07338535040616989 0.08296595513820648
0.029629645869135857 -0.04544936120510101 0.038038142025470734
0.1439293771982193 -0.05770549550652504 0.038038142025470734
-0.5706720948219299 7.52204650780186e-05 0.038038142025470734
-0.011300292797386646 0.07356271147727966 0.08499102294445038
0.5257483124732971 -0.04995737597346306 -0.23202450573444366
0.7602869272232056 0.07356271147727966 -0.03568694368004799
-0.9428079724311829 0.0022405467461794615 -0.09715408086776733
-0.1972956657409668 0.05489596351981163 0.038038142025470734
-0.9624747037887573 0.07356271147727966 0.027831198647618294
-0.9809423089027405 0.00020402368681970984 -0.09715408086776733
-0.8457248210906982 -0.07338535040616989 0.044360220432281494
0.5188714265823364 0.07356271147727966 0.06815676391124725
0.5623927116394043 -0.06190496310591698 0.09349937736988068
-0.7747128009796143 0.059407249093055725 0.038038142025470734
-0.9999989867210388 0.011731014586985111 -0.08463342487812042
0.3301360011100769 -0.07338535040616989 0.06279432028532028
0.6874666213989258 0.05924849212169647 -0.22055087983608246
-0.3684132695198059 -0.07338535040616989 0.0808754414319992
-0.5505872964859009 0.07356271147727966 0.07813360542058945
0.4418308734893799 0.051290638744831085 0.09681735932826996
0.39673131704330444 0.07356271147727966 -0.10783905535936356
-0.21576188504695892 -0.01538088545203209 0.09681735932826996
-0.8911724090576172 0.0077354805544018745 0.09681735932826996
0.7160158157348633 0.07356271147727966 -0.10885196179151535
0.17738065123558044 -0.0555107407271862 0.038038142025470734
0.7670896649360657 0.03270168602466583 -0.06070807948708534
0.690079391002655 -0.06659930944442749 -0.1376335173845291
-0.6337986588478088 -0.01574653945863247 0.09681735932826996
0.23427154123783112 -0.06916864216327667 0.038038142025470734
0.7324775457382202 0.07019393891096115 0.029091225937008858
-0.8254004120826721 -0.07338535040616989 0.06116511672735214
-0.9271396398544312 0.033074479550123215 0.09681735932826996
0.6527740955352783 -0.07338535040616989 -0.2135385274887085
0.6485528349876404 -0.027736984193325043 0.024960191920399666
-0.542000412940979 0.06791287660598755 0.09681735932826996
-0.04611853137612343 -0.07338535040616989 0.08381251245737076
0.5838029384613037 -0.07338535040616989 -0.23042409121990204
-0.948314905166626 -0.07338535040616989 0.07831580936908722
0.5944279432296753 -0.07325038313865662 0.09658290445804596
-0.7196511626243591 -0.019593307748436928 0.09681735932826996
-0.9412197470664978 -0.06628752499818802 -0.04016963019967079
-0.7026982307434082 -0.04589881747961044 0.038038142025470734
-0.9557085037231445 0.032078396528959274 -0.09715408086776733
0.34628671407699585 -0.005298316478729248 0.038038142025470734
-0.8893910646438599 0.07356271147727966 -0.07922304421663284
-0.1251213401556015 0.03109211102128029 0.09681735932826996
-0.42380020022392273 -0.06254230439662933 0.09681735932826996
0.7129908204078674 0.07356271147727966 -0.1568945199251175
0.23055653274059296 0.005852166097611189 0.038038142025470734
-0.6602234840393066 -0.023781325668096542 0.09681735932826996
0.5617135167121887 -0.012474369257688522 -0.18287622928619385
0.45293286442756653 -0.07338535040616989 -0.03131861612200737
0.6061172485351562 0.04261435940861702 -0.18771332502365112
-0.8147926330566406 0.06152057275176048 0.038038142025470734
-0.4690558612346649 0.010702348314225674 0.09681735932826996
0.39012962579727173 0.045007869601249695 -0.22851336002349854
-0.28966718912124634 -0.022470802068710327 0.038038142025470734
0.12809909880161285 -0.01641365885734558 0.09681735932826996
0.5974215865135193 0.05316388979554176 -0.1882498562335968
0.44468429684638977 -0.07338535040616989 0.09276580065488815
-0.9999989867210388 -0.024962283670902252 -0.041543807834386826
0.6082014441490173 0.07356271147727966 0.04743005335330963
-0.2853006422519684 0.07356271147727966 0.08529418706893921
0.396587073802948 0.07356271147727966 -0.02156023494899273
-0.3447277843952179 0.07356271147727966 0.09121731668710709
0.48788467049598694 -0.057976387441158295 -0.0414896197617054
0.6171016097068787 -0.07338535040616989 -0.18710015714168549
0.48399290442466736 0.022988183423876762 0.05541606247425079
0.42511874437332153 0.07356271147727966 -0.06919453293085098
0.39012962579727173 -0.04554340988397598 -0.21239596605300903
-0.0319640226662159 -0.03833622857928276 0.038038142025470734
-0.6501376032829285 0.07356271147727966 0.04761775583028793
0.44768816232681274 0.07356271147727966 -0.16351552307605743
-0.33041808009147644 0.07356271147727966 0.09040568768978119
-0.9143956303596497 0.021159473806619644 0.038038142025470734
0.021537983790040016 -0.057638607919216156 0.038038142025470734
-0.6474546790122986 -0.04699986055493355 0.038038142025470734
0.1205526664853096 -0.06835824251174927 0.09681735932826996
0.15569603443145752 -0.023310594260692596 0.038038142025470734
0.38348937034606934 -0.07338535040616989 0.06455957889556885
-0.9379504323005676 0.0028491774573922157 0.09681735932826996
0.6515816450119019 0.0010722436709329486 -0.2376393973827362
-0.7352885603904724 0.07356271147727966 0.06150307506322861
0.4276483952999115 0.07356271147727966 -0.12470706552267075
-0.789577305316925 0.011095616966485977 0.09681735932826996
-0.2977924346923828 -0.07338535040616989 0.08083288371562958
-0.29652726650238037 -0.008903825655579567 0.038038142025470734
-0.7775838375091553 -0.02796623855829239 0.09681735932826996
0.09667394310235977 -0.07338535040616989 0.078768789768219
-0.4291250705718994 0.0731818825006485 0.09681735932826996
0.44890886545181274 0.015335984528064728 0.06156286597251892
-0.9792977571487427 -0.07338535040616989 0.05555621534585953
-0.770531415939331 0.06587199121713638 0.038038142025470734
-0.891775906085968 -0.03779997304081917 -0.09715408086776733
0.5338965058326721 -0.07338535040616989 0.0247676819562912
-0.9832249283790588 -0.07168618589639664 -0.09715408086776733
0.41399842500686646 -0.07338535040616989 -0.11266496777534485
0.027241593226790428 -0.05504098907113075 0.09681735932826996
0.7169964909553528 -0.0036913102958351374 0.0466281957924366
-0.4376973509788513 -0.05722809210419655 0.09681735932826996
0.5901036858558655 0.07113585621118546 -0.18789741396903992
-0.19717344641685486 -0.07338535040616989 0.07183045148849487
0.669384241104126 0.07356271147727966 0.04592030867934227
0.3742765784263611 0.052869901061058044 0.09681735932826996
-0.9792109727859497 0.07356271147727966 0.0007041854551061988
-0.5502168536186218 0.07356271147727966 0.062138091772794724
0.5903303623199463 0.02196676842868328 -0.18810568749904633
-0.5004280209541321 -0.07338535040616989 0.05618937686085701
0.39012962579727173 -0.0004259573179297149 0.024332281202077866
-0.05586351454257965 -0.011005373671650887 0.038038142025470734
-0.4946569502353668 0.03201362118124962 0.038038142025470734
0.39012962579727173 -0.0522904209792614 -0.21763299405574799
0.7113199234008789 0.04604689031839371 0.05211895704269409
0.7166292071342468 0.04980524629354477 0.047163158655166626
-0.17387664318084717 -0.058705735951662064 0.038038142025470734
0.5020381808280945 -0.022386036813259125 0.06883974373340607
0.2670936584472656 -0.07338535040616989 0.08170971274375916
-0.5618635416030884 0.07356271147727966 0.04854553937911987
-0.4036484956741333 -0.07338535040616989 0.039123229682445526
-0.2651667892932892 -0.07338535040616989 0.07127083837985992
-0.5380448698997498 -0.07338535040616989 0.07437755167484283
0.4656634032726288 0.07356271147727966 -0.16555063426494598
-0.4882986545562744 0.07356271147727966 0.07003694027662277
-0.8057826161384583 -0.02292589470744133 0.038038142025470734
-0.41778960824012756 0.004531523212790489 0.09681735932826996
-0.9882041811943054 -0.07338535040616989 0.021753866225481033
-0.2521938681602478 0.07356271147727966 0.055122967809438705
-0.10657627880573273 0.07232341170310974 0.09681735932826996
0.18458248674869537 0.07356271147727966 0.09141264110803604
-0.9293463826179504 -0.06605096906423569 0.038038142025470734
-0.5004332661628723 0.07356271147727966 0.06981725245714188
-0.8501927256584167 0.05939105153083801 0.038038142025470734
0.39012962579727173 -0.04904308170080185 -0.1959802806377411
-0.9167421460151672 0.05833524465560913 0.09681735932826996
-0.12872262299060822 0.007477887906134129 0.038038142025470734
-0.7691869735717773 0.045771464705467224 0.09681735932826996
-0.9453098177909851 -0.07338535040616989 0.04145367816090584
-0.19216853380203247 -0.003321381052955985 0.038038142025470734
-0.05993169918656349 0.06168597936630249 0.038038142025470734
0.4294883906841278 0.03172554075717926 0.09681735932826996
-0.9960638284683228 -0.06916483491659164 0.09681735932826996
0.024200934916734695 -0.07338535040616989 0.05858864635229111
-0.9163727164268494 0.07356271147727966 -0.08101878315210342
-0.5204258561134338 -0.059909332543611526 0.09681735932826996
-0.21842321753501892 0.0017677894793450832 0.09681735932826996
-0.9917019605636597 0.07356271147727966 0.0193948931992054
-0.7157027125358582 -0.05570623651146889 0.09681735932826996
0.7296115159988403 -0.02861488051712513 0.032702017575502396
-0.45503106713294983 0.056746795773506165 0.09681735932826996
0.39012962579727173 0.015268906019628048 0.017440559342503548
-0.9999989867210388 -0.049770720303058624 0.09290708601474762
-0.7933030724525452 -0.07338535040616989 0.07447158545255661
-0.9456862211227417 0.07356271147727966 0.08734846860170364
0.23856550455093384 0.05662497505545616 0.09681735932826996
0.36611422896385193 -0.07338535040616989 0.07646513730287552
-0.8239024877548218 -0.046935759484767914 0.09681735932826996
0.21181665360927582 -0.04761645197868347 0.09681735932826996
0.3903719484806061 -0.07338535040616989 -0.015263454988598824
0.5094574689865112 -0.022931694984436035 -0.002464761259034276
0.5221937894821167 0.05730699002742767 -0.1606455147266388
-0.0031741284765303135 0.07356271147727966 0.09554578363895416
0.6975795030593872 0.07209532707929611 -0.21347829699516296
0.6449937224388123 -0.009453323669731617 0.08957542479038239
0.4080354571342468 0.00023260535090230405 -0.24704109132289886
-0.3283016085624695 -0.031228145584464073 0.09681735932826996
-0.30296561121940613 0.07356271147727966 0.0953802764415741
0.5205786824226379 -0.07338535040616989 0.04406116530299187
-0.004073214251548052 -0.07338535040616989 0.0497865229845047
-0.9999989867210388 -0.0347626656293869 0.06018814072012901
0.15916188061237335 0.05475001409649849 0.038038142025470734
-0.919205367565155 0.03468862175941467 -0.09715408086776733
0.722868025302887 0.07356271147727966 -0.022250797599554062
0.17801526188850403 0.07356271147727966 0.05249451473355293
