-0.5485652089118958 0.231950044631958 0.5640628933906555
-0.5399010181427002 -0.5323801040649414 0.12443354725837708
0.34058883786201477 -0.5323801040649414 -0.13426226377487183
0.34484174847602844 -0.007750919554382563 -0.25767379999160767
0.2704463303089142 0.0168007742613554 0.0004202041309326887
0.39456707239151 -0.5112674832344055 -0.25767379999160767
0.3012629747390747 -0.23750096559524536 -0.25767379999160767
-0.17850995063781738 0.2807387411594391 0.0004202041309326887
0.16691836714744568 0.49999597668647766 -0.16046643257141113
-0.2904711663722992 0.16990873217582703 0.39525383710861206
0.4838109016418457 0.23137801885604858 -0.07658461481332779
-0.4178255498409271 -0.5231063961982727 -0.25767379999160767
-0.2904711663722992 -0.040454745292663574 0.0185152105987072
0.9999989867210388 0.40065643191337585 -0.08227371424436569
-0.3420097231864929 -0.396515816450119 -0.25767379999160767
-0.5485652089118958 -0.44998106360435486 -0.2215876579284668
-0.2904711663722992 -0.4024089276790619 0.30345839262008667
-0.5485652089118958 0.1939786821603775 0.21976864337921143
-0.5485652089118958 -0.4751743972301483 0.01458381675183773
0.9999989867210388 0.3986581861972809 -0.17195017635822296
0.34565049409866333 -0.49060893058776855 -0.25767379999160767
-0.039873186498880386 0.3680797517299652 -0.25767379999160767
-0.2955639362335205 -0.48362576961517334 -0.25767379999160767
0.42094483971595764 0.017863726243376732 -0.25767379999160767
-0.5485652089118958 -0.20885512232780457 0.2588748335838318
0.8535552024841309 -0.4120681881904602 0.0004202041309326887
0.4838109016418457 -0.038861580193042755 -0.059151727706193924
-0.4279474914073944 0.49999597668647766 0.5723076462745667
-0.16401930153369904 -0.03608370199799538 -0.25767379999160767
0.6951619982719421 -0.5323801040649414 -0.0588943250477314
-0.5485652089118958 0.267727255821228 0.3309086859226227
0.28064480423927307 -0.5323801040649414 -0.1893310844898224
0.5596688985824585 -0.3603174090385437 -0.07259847968816757
-0.13049383461475372 0.06008756160736084 -0.25767379999160767
0.24588075280189514 0.08325876295566559 -0.25767379999160767
0.24671746790409088 -0.5323801040649414 -0.1609678417444229
-0.06489286571741104 0.294524610042572 -0.25767379999160767
0.2325204312801361 0.12595859169960022 -0.25767379999160767
-0.5485652089118958 -0.3147282302379608 -0.13964113593101501
0.3696849048137665 0.024979520589113235 0.0004202041309326887
-0.31367120146751404 0.49999597668647766 0.33433130383491516
-0.3818884491920471 -0.3155647814273834 0.47532954812049866
0.18164636194705963 0.18834803998470306 0.0004202041309326887
0.4170824885368347 -0.4065874218940735 -0.25767379999160767
-0.5485652089118958 -0.20409105718135834 0.06250845640897751
-0.5485652089118958 0.21403174102306366 0.5832594037055969
0.10200760513544083 0.2365129292011261 0.0004202041309326887
-0.2904711663722992 -0.24875879287719727 0.2929878532886505
-0.36226004362106323 0.35678455233573914 -0.25767379999160767
-0.07620256394147873 0.49612683057785034 -0.25767379999160767
0.23270384967327118 0.4969165325164795 -0.25767379999160767
-0.2236623913049698 0.49999597668647766 -0.1215815320611
0.5748139023780823 0.32793334126472473 -0.23862412571907043
-0.40714940428733826 0.2599675953388214 -0.25767379999160767
0.4838109016418457 0.17531858384609222 -0.12468521296977997
0.3334316611289978 -0.40477892756462097 -0.25767379999160767
0.04320403188467026 0.19048216938972473 -0.25767379999160767
0.4838109016418457 -0.128376305103302 -0.22239534556865692
-0.35882073640823364 -0.34573647379875183 -0.25767379999160767
-0.21614006161689758 -0.1820840686559677 -0.25767379999160767
-0.4059230089187622 0.3712654411792755 0.6026395559310913
0.6419144868850708 -0.5323801040649414 -0.02808876894414425
0.12441372871398926 0.44489020109176636 0.0004202041309326887
-0.26987338066101074 -0.015077940188348293 0.0004202041309326887
0.8331442475318909 0.32793334126472473 -0.16305343806743622
-0.35839900374412537 0.267023503780365 0.6026395559310913
0.27508166432380676 0.45984986424446106 0.0004202041309326887
0.533699095249176 0.49999597668647766 -0.16427762806415558
-0.2904711663722992 -0.17389290034770966 0.5047488212585449
0.8570347428321838 0.49999597668647766 -0.18597261607646942
-0.44933658838272095 -0.017314910888671875 0.6026395559310913
0.5619992613792419 0.32793334126472473 -0.06082146614789963
-0.2904711663722992 0.30905094742774963 0.13552309572696686
0.640349805355072 -0.5255339741706848 -0.25767379999160767
0.7980281710624695 -0.3603174090385437 -0.04120389372110367
-0.5471959710121155 -0.24203692376613617 0.5488573908805847
-0.2904711663722992 0.4703896939754486 0.2016526460647583
-0.29857686161994934 0.4650551378726959 0.6026395559310913
0.4313541054725647 -0.5323801040649414 -0.20234371721744537
0.8242911696434021 0.49999597668647766 -0.07585184276103973
0.6999141573905945 -0.3603174090385437 -0.14302542805671692
0.829594075679779 0.36709269881248474 0.0004202041309326887
0.810259997844696 -0.36207231879234314 -0.25767379999160767
-0.4659585952758789 0.358196496963501 -0.25767379999160767
0.7341510653495789 0.32793334126472473 -0.1078571155667305
-0.23537161946296692 -0.3808349668979645 -0.25767379999160767
0.07636217027902603 0.49440744519233704 -0.25767379999160767
-0.5360346436500549 0.4299646019935608 0.6026395559310913
-0.2904711663722992 0.14507319033145905 0.018913449719548225
0.00998467393219471 0.39164942502975464 -0.25767379999160767
-0.2904711663722992 -0.14254800975322723 0.35428309440612793
-0.5485652089118958 -0.12259406596422195 -0.04887785017490387
-0.2904711663722992 -0.49118974804878235 0.1383344531059265
-0.2294866442680359 0.4954928755760193 0.0004202041309326887
-0.11705344915390015 0.2097277194261551 0.0004202041309326887
-0.5149132609367371 -0.5323801040649414 -0.10070538520812988
0.7206722497940063 0.49999597668647766 -0.17771868407726288
-0.2904711663722992 -0.15838250517845154 0.07889365404844284
-0.5485652089118958 0.023624666035175323 0.2607342004776001
-0.3205960690975189 0.49999597668647766 -0.018943773582577705
0.30610764026641846 -0.31272634863853455 0.0004202041309326887
0.3432462811470032 0.12886759638786316 -0.25767379999160767
-0.2904711663722992 0.4838266968727112 0.31243062019348145
-0.36248305439949036 -0.2559269070625305 -0.25767379999160767
0.9999989867210388 -0.4827152192592621 -0.20393238961696625
-0.5485652089118958 0.33606991171836853 -0.13157612085342407
-0.09778765588998795 -0.16476020216941833 -0.25767379999160767
-0.3786879777908325 -0.5323801040649414 -0.07645123451948166
0.6490199565887451 -0.480611115694046 0.0004202041309326887
0.3994174897670746 0.41628941893577576 -0.25767379999160767
0.10978865623474121 0.3952321410179138 0.0004202041309326887
0.44082656502723694 -0.19978083670139313 0.0004202041309326887
0.9826428890228271 -0.5323801040649414 -0.17329023778438568
-0.44630613923072815 -0.5323801040649414 -0.025781044736504555
0.2802239656448364 0.018081102520227432 -0.25767379999160767
-0.40080025792121887 -0.3163536787033081 0.474540650844574
0.7823098301887512 -0.40256035327911377 -0.25767379999160767
-0.14461779594421387 -0.5323801040649414 -0.06268799304962158
-0.11149366199970245 -0.056806810200214386 -0.25767379999160767
0.8540681004524231 -0.5323801040649414 -0.08745911717414856
-0.5485652089118958 0.4352363049983978 0.42003485560417175
0.8397845029830933 -0.5323801040649414 -0.13098986446857452
0.6534243822097778 -0.517204225063324 0.0004202041309326887
0.9222614765167236 -0.5323801040649414 -0.002886697184294462
-0.5485652089118958 -0.27080458402633667 0.4100583791732788
-0.1889299899339676 0.3608636260032654 -0.25767379999160767
0.7390619516372681 0.447295606136322 0.0004202041309326887
-0.5485652089118958 0.43895673751831055 -0.15054377913475037
-0.06829607486724854 -0.5323801040649414 -0.09169647842645645
-0.4552455544471741 -0.027324197813868523 -0.25767379999160767
0.6005823612213135 -0.5323801040649414 -0.2036626785993576
0.0916522890329361 0.31414011120796204 -0.25767379999160767
0.9290710091590881 0.49999597668647766 -0.11609939485788345
0.40120765566825867 0.4140428900718689 -0.25767379999160767
0.05778195708990097 0.11038439720869064 -0.030272778123617172
0.008381419815123081 -0.3717444837093353 0.0004202041309326887
-0.2814498841762543 0.49999597668647766 -0.0753076896071434
-0.4841173589229584 0.24192480742931366 0.6026395559310913
-0.5318748354911804 -0.3434005379676819 0.4474937915802002
0.10890220105648041 0.42864495515823364 -0.25767379999160767
0.8517677187919617 0.49999597668647766 -0.16490939259529114
0.4838109016418457 -0.26375657320022583 -0.060778096318244934
-0.11346379667520523 -0.3350795805454254 -0.25767379999160767
0.9788326621055603 -0.47202518582344055 -0.25767379999160767
-0.5485652089118958 0.03340458497405052 -0.12322065234184265
-0.08467597514390945 -0.21788226068019867 0.0004202041309326887
-0.5485652089118958 0.4685756266117096 0.47843778133392334
0.7156798839569092 -0.3603174090385437 -0.2046806961297989
0.4664857089519501 -0.5323801040649414 -0.1541348248720169
-0.5485652089118958 0.1294487565755844 0.20221087336540222
-0.3686317503452301 -0.4742041230201721 -0.25767379999160767
-0.2904711663722992 -0.04277440533041954 0.10979082435369492
0.10661011934280396 0.22355660796165466 0.0004202041309326887
-0.5485652089118958 0.38062989711761475 0.09426095336675644
-0.5185937881469727 0.49999597668647766 0.19785818457603455
0.5154626965522766 0.32793334126472473 -0.17945362627506256
-0.2904711663722992 0.4050770401954651 0.020164228975772858
0.23001524806022644 0.34422942996025085 -0.25767379999160767
0.9801955819129944 -0.5323801040649414 -0.02740521728992462
-0.3081510365009308 -0.10573114454746246 -0.25767379999160767
-0.08301883190870285 0.19740192592144012 0.0004202041309326887
-0.5485652089118958 -0.03660248965024948 0.22739872336387634
0.595626711845398 0.38491395115852356 0.0004202041309326887
-0.17352236807346344 -0.5323801040649414 -0.22537122666835785
-0.44126713275909424 0.49999597668647766 -0.19442491233348846
0.060950733721256256 0.34916096925735474 -0.25767379999160767
-0.2904711663722992 -0.3502081334590912 0.34492185711860657
-0.5485652089118958 0.46405133605003357 0.16860896348953247
-0.2513791620731354 0.1719209849834442 0.0004202041309326887
-0.2904711663722992 0.4794757664203644 0.4700480103492737
0.28231215476989746 -0.5323801040649414 -0.2093735635280609
-0.5125580430030823 -0.0004953762399964035 -0.25767379999160767
0.11392886191606522 -0.14076463878154755 -0.13620540499687195
-0.3408670127391815 -0.5323801040649414 -0.12870123982429504
0.23258037865161896 -0.284625381231308 0.0004202041309326887
-0.29628562927246094 0.49999597668647766 -0.11562296748161316
-0.5040103197097778 0.49999597668647766 0.024021277204155922
-0.47434550523757935 -0.5323801040649414 0.008511982858181
-0.2896999418735504 -0.02335100807249546 0.0004202041309326887
-0.5485652089118958 -0.17794819176197052 -0.17697131633758545
-0.19370071589946747 0.00045542570296674967 0.0004202041309326887
-0.5485652089118958 -0.5209981203079224 -0.1072288379073143
0.9257693290710449 0.32793334126472473 -0.05151453986763954
0.056330762803554535 0.11036130040884018 -0.11309193819761276
0.07723820209503174 -0.22244501113891602 0.0004202041309326887
-0.5485652089118958 -0.11457496881484985 0.34038642048835754
0.43365055322647095 -0.5323801040649414 -0.20383261144161224
0.20319531857967377 0.4634939134120941 0.0004202041309326887
-0.5450866222381592 0.40441426634788513 -0.25767379999160767
0.25766459107398987 -0.4034329056739807 0.0004202041309326887
-0.5485652089118958 -0.08953249454498291 0.11029697954654694
0.809163510799408 0.49999597668647766 -0.2093324512243271
0.934942901134491 0.49999597668647766 -0.25373387336730957
-0.3327098786830902 -0.4505087435245514 -0.25767379999160767
0.3215043544769287 -0.4726167917251587 0.0004202041309326887
-0.5485652089118958 -0.13437236845493317 0.5289486050605774
-0.05123709887266159 0.28293368220329285 0.0004202041309326887
0.3742091655731201 0.49999597668647766 -0.23465903103351593
0.0951305702328682 0.41592714190483093 0.0004202041309326887
0.6276718974113464 -0.3603174090385437 -0.10784674435853958
0.2641018331050873 0.49999597668647766 -0.24560226500034332
-0.044790901243686676 -0.044042229652404785 -0.16115005314350128
0.4838109016418457 -0.07514839619398117 -0.0536935068666935
-0.5485652089118958 -0.17947356402873993 0.08812696486711502
0.6792643666267395 -0.5323801040649414 -0.03449518233537674
-0.5485652089118958 0.38329586386680603 -0.0009171954588964581
0.20931637287139893 0.28234419226646423 0.0004202041309326887
-0.41424012184143066 0.4004289209842682 0.6026395559310913
0.7861212491989136 -0.3603174090385437 -0.1920425295829773
-0.5485652089118958 0.054953426122665405 0.4704079329967499
0.7649298310279846 -0.3901303708553314 -0.25767379999160767
-0.476520299911499 -0.31925898790359497 0.4716353416442871
-0.3504457473754883 0.49999597668647766 0.3701056241989136
0.4222632646560669 0.06254816055297852 -0.25767379999160767
-0.2904711663722992 -0.1916152685880661 0.18279871344566345
-0.2904711663722992 -0.48219582438468933 0.24132391810417175
0.3926756680011749 0.24105969071388245 -0.25767379999160767
0.604107141494751 0.49999597668647766 -0.21749110519886017
0.836431622505188 -0.5323801040649414 -0.2528473734855652
0.30625665187835693 0.49999597668647766 -0.12688812613487244
-0.5485652089118958 -0.4995006024837494 -0.221665620803833
-0.2904711663722992 0.3345169425010681 0.4857120215892792
0.32383060455322266 -0.5111314058303833 -0.25767379999160767
0.5510389804840088 -0.3603174090385437 -0.16021402180194855
-0.41750583052635193 -0.19208648800849915 0.5988078713417053
0.2677091360092163 -0.5323801040649414 -0.09995435178279877
-0.5473418235778809 0.12923763692378998 0.6026395559310913
-0.5373395085334778 -0.2829834222793579 0.5079109072685242
0.9999989867210388 0.48281052708625793 -0.15007418394088745
-0.254237562417984 0.34809383749961853 0.0004202041309326887
0.8904889225959778 -0.37662434577941895 -0.25767379999160767
-0.09233789891004562 -0.5323801040649414 -0.08391925692558289
-0.08055447787046432 -0.026142427697777748 -0.25767379999160767
0.18550968170166016 0.14690114557743073 0.0004202041309326887
0.8695054650306702 -0.5323801040649414 -0.08733224868774414
-0.5485652089118958 0.30183520913124084 -0.25699374079704285
-0.171737402677536 0.4974915385246277 0.0004202041309326887
-0.01875031366944313 -0.5323801040649414 -0.020433248952031136
-0.5485652089118958 0.18897660076618195 0.011611869558691978
-0.3632098436355591 -0.02299429476261139 -0.25767379999160767
-0.5318784117698669 -0.34242409467697144 0.44847023487091064
-0.2904711663722992 0.023942874744534492 0.5325855016708374
-0.39046812057495117 -0.036297354847192764 -0.25767379999160767
-0.05503978952765465 -0.2499806433916092 0.0004202041309326887
0.25442320108413696 -0.44387054443359375 0.0004202041309326887
-0.5485652089118958 0.05065303295850754 -0.11730954796075821
-0.5485652089118958 0.31131428480148315 -0.25240007042884827
-0.12492132931947708 0.44859209656715393 -0.25767379999160767
0.10826902091503143 -0.5323801040649414 -0.14232198894023895
-0.2904711663722992 0.19329792261123657 0.4787670969963074
0.12965817749500275 0.44931408762931824 -0.25767379999160767
0.37104785442352295 -0.06398307532072067 0.0004202041309326887
0.8931602835655212 -0.4028801918029785 -0.25767379999160767
-0.5485652089118958 -0.42808955907821655 -0.013997996225953102
0.25475719571113586 -0.36997556686401367 0.0004202041309326887
-0.5203016996383667 -0.49195486307144165 0.2989394962787628
0.9999989867210388 -0.38261187076568604 -0.12294338643550873
-0.2082080990076065 -0.10257882624864578 -0.25767379999160767
-0.06251712888479233 0.2860938608646393 0.0004202041309326887
0.2591051459312439 0.4377337098121643 -0.25767379999160767
-0.5485652089118958 -0.39952096343040466 0.2582082748413086
-0.5485652089118958 -0.4258326590061188 0.34439340233802795
0.7345144152641296 -0.5323801040649414 -0.15818549692630768
0.6314423084259033 -0.5323801040649414 -0.018037406727671623
-0.3503139615058899 0.49999597668647766 0.24022842943668365
-0.15713709592819214 -0.40595680475234985 -0.25767379999160767
-0.2904711663722992 -0.0789140835404396 0.1239803209900856
0.6074355840682983 0.32793334126472473 -0.1554751843214035
0.15030542016029358 -0.5323801040649414 -0.07743649184703827
-0.00927808415144682 0.47790658473968506 -0.25767379999160767
-0.4600028991699219 0.49999597668647766 0.012433542869985104
-0.5485652089118958 0.3686610758304596 0.22386671602725983
0.913485586643219 -0.5323801040649414 -0.12671299278736115
-0.4879480302333832 -0.3665412664413452 -0.25767379999160767
0.18264898657798767 -0.44111528992652893 -0.25767379999160767
-0.5485652089118958 0.05397797375917435 0.5774195194244385
-0.2965860664844513 -0.5323801040649414 -0.13177219033241272
-0.4699646532535553 -0.4911588430404663 0.2997354567050934
0.2994551658630371 -0.39261534810066223 -0.25767379999160767
-0.5178952813148499 -0.2360716611146927 0.5548226833343506
0.10442784428596497 0.49999597668647766 -0.21377092599868774
-0.5485652089118958 -0.24697352945804596 0.5079156160354614
0.4838109016418457 -0.14189812541007996 -0.2046477198600769
-0.5485652089118958 0.11233013868331909 0.18924744427204132
-0.2904711663722992 0.29444265365600586 0.5111672282218933
0.20962505042552948 -0.005454151891171932 -0.19522012770175934
0.2996816337108612 0.18949709832668304 0.0004202041309326887
0.5858873724937439 0.36791983246803284 0.0004202041309326887
-0.31371021270751953 -0.16923680901527405 0.6026395559310913
0.8990545868873596 0.32793334126472473 -0.13653896749019623
-0.5485652089118958 -0.3412363529205322 0.2373315989971161
-0.5485652089118958 -0.1057920753955841 -0.18555499613285065
-0.20299941301345825 0.4010348320007324 -0.25767379999160767
-0.4380285143852234 0.49999597668647766 0.5889458060264587
0.6115972399711609 0.32793334126472473 -0.12488432228565216
-0.5485652089118958 -0.09639370441436768 0.5221568942070007
0.3570539355278015 -0.1371576189994812 0.0004202041309326887
0.3997679352760315 0.49999597668647766 -0.163347527384758
-0.5485652089118958 -0.054512523114681244 0.2245359569787979
-0.5485652089118958 0.34628865122795105 -0.23608483374118805
0.8310300707817078 0.49999597668647766 -0.08739708364009857
0.373012900352478 -0.3175891041755676 -0.25767379999160767
-0.5485652089118958 0.034453947097063065 0.30245402455329895
0.813694417476654 0.32793334126472473 -0.20008967816829681
0.2737541198730469 -0.03140054643154144 -0.25767379999160767
0.8920131325721741 -0.5323801040649414 -0.07500045001506805
-0.3916638195514679 0.49999597668647766 0.23767037689685822
-0.2904711663722992 0.2177606225013733 0.2526180148124695
-0.5485652089118958 -0.42314112186431885 0.35212773084640503
0.13577570021152496 0.1005975529551506 -0.2525399625301361
0.882202684879303 -0.3603174090385437 -0.0551781989634037
-0.3351326584815979 -0.5323801040649414 -0.08186084777116776
-0.2904711663722992 -0.3067598044872284 0.3698279559612274
-0.04397979751229286 -0.07947219908237457 -0.25767379999160767
-0.5439519882202148 0.17785070836544037 0.6026395559310913
-0.4605623185634613 0.49999597668647766 -0.0158156156539917
0.6911187171936035 0.4091324508190155 -0.25767379999160767
0.9040102958679199 -0.5323801040649414 -0.04266631230711937
-0.06513742357492447 -0.42644214630126953 0.0004202041309326887
0.17150628566741943 0.2676907777786255 0.0004202041309326887
0.6662712097167969 -0.3603174090385437 -0.1550699919462204
0.956361711025238 -0.3603174090385437 -0.24399816989898682
0.3764043152332306 0.1392803192138672 0.0004202041309326887
-0.43336981534957886 0.49999597668647766 0.3081163167953491
-0.3545970320701599 0.49999597668647766 -0.01388823613524437
0.18505346775054932 0.06010720133781433 -0.033683180809020996
0.3799878656864166 0.2845776379108429 -0.25767379999160767
0.6335292458534241 -0.38989782333374023 0.0004202041309326887
-0.2904711663722992 0.14262695610523224 0.5650012493133545
0.4798993170261383 0.20327559113502502 0.0004202041309326887
-0.2922723889350891 0.49999597668647766 0.17730936408042908
0.3758713901042938 0.3991398513317108 -0.25767379999160767
-0.1956556737422943 -0.2990865409374237 0.0004202041309326887
-0.05575406551361084 -0.07260153442621231 -0.25767379999160767
0.8902041912078857 0.39544662833213806 0.0004202041309326887
0.2437828928232193 0.04156705364584923 -0.25767379999160767
-0.2904711663722992 -0.006806164514273405 0.42155173420906067
0.21751444041728973 0.49999597668647766 -0.07333020865917206
0.4838109016418457 -0.048008132725954056 -0.16526705026626587
-0.42584726214408875 -0.20841917395591736 0.5824751853942871
0.9530214667320251 0.32793334126472473 -0.08844104409217834
-0.5439386367797852 0.2302132546901703 -0.25767379999160767
0.07249196618795395 -0.35873013734817505 0.0004202041309326887
-0.07443879544734955 -0.4814887046813965 -0.25767379999160767
0.911106526851654 -0.3603174090385437 -0.2562442123889923
-0.5485652089118958 0.26424872875213623 0.49513936042785645
-0.3873243033885956 -0.031135831028223038 0.6026395559310913
-0.29962170124053955 0.21573296189308167 0.6026395559310913
0.9642869234085083 -0.3603174090385437 -0.08826873451471329
0.6062986254692078 0.49999597668647766 -0.18008536100387573
-0.402427077293396 0.49999597668647766 -0.06822988390922546
0.2091493308544159 0.36240965127944946 0.0004202041309326887
-0.49394938349723816 -0.4417496621608734 -0.25767379999160767
-0.29977279901504517 0.10366247594356537 -0.25767379999160767
-0.5485652089118958 -0.39591291546821594 0.14984676241874695
0.4838109016418457 0.19767558574676514 -0.2521374523639679
-0.5485652089118958 -0.4414217174053192 -0.1706482470035553
0.025054408237338066 0.49999597668647766 -0.06074455380439758
0.2201719433069229 0.21864449977874756 0.0004202041309326887
0.12781226634979248 -0.5094602108001709 -0.25767379999160767
-0.5485652089118958 -0.12610836327075958 0.36536362767219543
-0.5485652089118958 0.3366331458091736 0.28310641646385193
-0.3250643312931061 0.10589531064033508 0.6026395559310913
0.0786566361784935 0.49999597668647766 -0.10657420754432678
-0.5485652089118958 -0.4311163127422333 -0.18758130073547363
-0.11954139173030853 0.1671806126832962 -0.25767379999160767
-0.025130122900009155 0.40682607889175415 -0.25767379999160767
-0.5485652089118958 -0.49117663502693176 -0.1251066029071808
0.12891314923763275 0.49999597668647766 -0.04043493792414665
0.3021296262741089 -0.16903150081634521 0.0004202041309326887
-0.3734757602214813 0.4042176604270935 -0.25767379999160767
-0.2709352374076843 0.3829803168773651 0.0004202041309326887
0.16154725849628448 0.2549990117549896 0.0004202041309326887
-0.4112923741340637 -0.10336889326572418 -0.25767379999160767
0.35736700892448425 0.49999597668647766 -0.21643605828285217
-0.2904711663722992 0.25850117206573486 0.29058313369750977
-0.5485652089118958 0.07340539991855621 0.1973608434200287
-0.5057057738304138 0.20551343262195587 0.6026395559310913
0.8184890151023865 -0.41483262181282043 0.0004202041309326887
-0.04747200384736061 -0.012318666093051434 -0.05168759450316429
-0.5485652089118958 -0.30560311675071716 -0.05256291851401329
-0.038349173963069916 -0.0641828253865242 -0.1366289108991623
-0.2866467535495758 -0.5323801040649414 -0.0719119980931282
0.4016936719417572 0.49999597668647766 -0.18674539029598236
-0.5485652089118958 -0.11642101407051086 0.327910840511322
0.32641690969467163 0.0756431519985199 -0.25767379999160767
0.24491992592811584 0.46820154786109924 0.0004202041309326887
0.19163036346435547 0.15670235455036163 -0.25767379999160767
0.783318281173706 -0.5323801040649414 -0.1446729153394699
0.16942043602466583 -0.5323801040649414 -0.1157144233584404
0.7556465864181519 0.49999597668647766 -0.22279340028762817
0.5006996393203735 -0.3603174090385437 -0.10906143486499786
0.5184008479118347 -0.483807235956192 -0.25767379999160767
-0.23952089250087738 -0.1409703493118286 -0.25767379999160767
0.1953890174627304 -0.5323801040649414 -0.13371875882148743
0.34113311767578125 -0.5323801040649414 -0.15840080380439758
-0.2904711663722992 0.4323899745941162 0.09875564277172089
-0.04660061374306679 -0.032848794013261795 -0.1903018355369568
-0.48748138546943665 -0.4199512302875519 -0.25767379999160767
0.17134031653404236 -0.196330264210701 0.0004202041309326887
0.38081270456314087 -0.24727863073349 -0.25767379999160767
-0.40603888034820557 0.04102650657296181 -0.25767379999160767
-0.14132925868034363 0.4911693334579468 0.0004202041309326887
-0.45430073142051697 -0.31287261843681335 0.47802168130874634
-0.5485652089118958 0.20028088986873627 0.0946759358048439
0.7601436972618103 -0.5009402632713318 -0.25767379999160767
-0.5485652089118958 0.3557659685611725 0.1759852170944214
-0.5468126535415649 0.49999597668647766 -0.07627468556165695
0.020061200484633446 -0.35076090693473816 0.0004202041309326887
-0.20033583045005798 -0.5323801040649414 -0.21543371677398682
0.47488340735435486 0.011866341345012188 0.0004202041309326887
-0.5423249006271362 -0.4491124749183655 -0.25767379999160767
0.44349053502082825 -0.20850948989391327 0.0004202041309326887
0.039541784673929214 -0.2081676423549652 0.0004202041309326887
0.7570462822914124 0.32793334126472473 -0.0783669576048851
-0.09743262082338333 0.05046951025724411 -0.25767379999160767
0.14159464836120605 0.49999597668647766 -0.17158514261245728
-0.047804996371269226 -0.47663572430610657 -0.25767379999160767
0.4253483712673187 0.418671578168869 -0.25767379999160767
-0.2904711663722992 0.3253510594367981 0.4428459405899048
-0.5100859999656677 -0.14453750848770142 -0.25767379999160767
-0.26506489515304565 0.2525424361228943 0.0004202041309326887
0.5942130088806152 0.49999597668647766 -0.08260470628738403
-0.322461873292923 0.06564000993967056 -0.25767379999160767
-0.26278185844421387 0.49999597668647766 -0.06845942884683609
0.5338310599327087 0.3377035856246948 -0.25767379999160767
0.10225863009691238 -0.43653252720832825 -0.25767379999160767
0.4838109016418457 -0.1175881028175354 -0.17357687652111053
0.9123297333717346 -0.4391827881336212 0.0004202041309326887
-0.5485652089118958 -0.4969845414161682 0.14514188468456268
-0.2904711663722992 0.08891086280345917 0.13115492463111877
-0.5368616580963135 0.0053183818235993385 -0.25767379999160767
-0.03713494911789894 -0.1901792287826538 0.0004202041309326887
-0.5485652089118958 0.40932583808898926 0.3167542517185211
-0.4029339551925659 -0.5323801040649414 0.10828149318695068
-0.35450419783592224 -0.2859022617340088 0.5049920678138733
-0.5485652089118958 -0.3261389136314392 0.39967837929725647
0.9011837840080261 0.32793334126472473 -0.07644827663898468
-0.2904711663722992 -0.36924827098846436 0.17132776975631714
-0.2904711663722992 -0.11756929010152817 0.2654740512371063
-0.2904711663722992 -0.1047201082110405 0.23812329769134521
0.16265279054641724 -0.11602543294429779 -0.25000104308128357
-0.0377756804227829 0.03310643136501312 -0.10664505511522293
-0.19898103177547455 -0.332892507314682 -0.25767379999160767
0.852398693561554 0.32793334126472473 -0.15987995266914368
0.7880510091781616 0.32793334126472473 -0.12206610292196274
0.43463778495788574 -0.35718613862991333 -0.25767379999160767
0.5686254501342773 0.46887239813804626 0.0004202041309326887
-0.45236435532569885 0.4545866549015045 0.6026395559310913
-0.024866439402103424 -0.4575803577899933 -0.25767379999160767
0.05016379430890083 0.15683116018772125 0.0004202041309326887
0.4151518642902374 0.02371831424534321 0.0004202041309326887
0.9527890086174011 -0.5323801040649414 -0.23279887437820435
-0.49767646193504333 -0.5323801040649414 -0.00379964173771441
0.27056971192359924 -0.48329803347587585 -0.25767379999160767
0.11173588037490845 0.10900308191776276 -0.21185773611068726
-0.5485652089118958 0.2879815995693207 0.5707508325576782
-0.17113985121250153 -0.245377779006958 0.0004202041309326887
0.9118676781654358 -0.5323801040649414 -0.11181357502937317
0.6329716444015503 0.4550875425338745 -0.25767379999160767
-0.5485652089118958 0.40205568075180054 0.3977687656879425
-0.43152329325675964 0.49999597668647766 -0.04279470443725586
0.25207728147506714 -0.21249006688594818 -0.25767379999160767
-0.41305598616600037 -0.5323801040649414 0.14067690074443817
-0.09610895812511444 0.45325085520744324 0.0004202041309326887
0.19702182710170746 0.04470505565404892 0.0004202041309326887
-0.5485652089118958 0.2399529665708542 0.5842851400375366
-0.19613850116729736 0.06867532432079315 -0.25767379999160767
0.26524606347084045 -0.5323801040649414 -0.01893407106399536
0.46425721049308777 0.0804983526468277 -0.25767379999160767
0.4566453993320465 -0.1498779058456421 0.0004202041309326887
-0.5485652089118958 0.4725866913795471 0.36571672558784485
0.9999989867210388 0.3321990370750427 -0.13547757267951965
-0.07127998769283295 0.04024248570203781 -0.25767379999160767
0.4838109016418457 -0.265661358833313 -0.008919847197830677
-0.5485652089118958 0.3407738208770752 0.4792981445789337
-0.5289070010185242 -0.08579099923372269 -0.25767379999160767
-0.5485652089118958 0.24523986876010895 0.50252366065979
0.6458281874656677 0.3502384424209595 -0.25767379999160767
0.39477166533470154 0.05082746222615242 0.0004202041309326887
0.16845232248306274 0.07875913381576538 -0.20880481600761414
-0.1873406171798706 0.23497645556926727 -0.25767379999160767
-0.0009417316759936512 0.0830765813589096 -0.21954214572906494
0.22836479544639587 0.36854416131973267 0.0004202041309326887
-0.312038391828537 -0.5323801040649414 0.0677938237786293
0.4122198820114136 -0.13132499158382416 0.0004202041309326887
-0.4256894290447235 -0.06760533899068832 -0.25767379999160767
0.9056749939918518 0.32793334126472473 -0.08244747668504715
-0.22615529596805573 -0.5323801040649414 -0.11139919608831406
-0.5359251499176025 -0.5323801040649414 -0.05568189173936844
-0.4253579378128052 0.49999597668647766 0.20176446437835693
0.4838109016418457 -0.016808371990919113 -0.21575212478637695
-0.23768311738967896 -0.5323801040649414 -0.12293930351734161
-0.5485652089118958 0.3667341470718384 0.4313896894454956
0.8601180911064148 -0.5323801040649414 -0.056653838604688644
-0.5221553444862366 0.0404793955385685 -0.25767379999160767
-0.2904711663722992 0.4687283933162689 0.33340638875961304
-0.2904711663722992 0.14442013204097748 0.5021178126335144
-0.2904711663722992 0.45934244990348816 0.1891631782054901
-0.01688028685748577 0.49999597668647766 -0.00039632682455703616
-0.5485652089118958 -0.09027207642793655 0.08637256920337677
-0.5485652089118958 -0.5151441693305969 0.09841854125261307
-0.2904711663722992 -0.2185216248035431 0.1590961068868637
-0.2904711663722992 -0.15565820038318634 0.04468104988336563
-0.5485652089118958 -0.3027594983577728 0.4262342154979706
-0.2508382201194763 0.04456106945872307 0.0004202041309326887
-0.25388655066490173 -0.4812602698802948 0.0004202041309326887
-0.028429221361875534 -0.38454633951187134 -0.25767379999160767
-0.2904711663722992 -0.24998770654201508 0.4885137379169464
-0.5485652089118958 -0.10370488464832306 0.09326766431331635
-0.4100969433784485 0.49999597668647766 0.01905764266848564
-0.3026546835899353 -0.2599645256996155 -0.25767379999160767
-0.4707719683647156 0.4242019057273865 -0.25767379999160767
-0.46467325091362 -0.03672260046005249 -0.25767379999160767
0.2650265097618103 0.38650286197662354 -0.25767379999160767
-0.28816649317741394 0.3483395278453827 0.0004202041309326887
-0.2904711663722992 -0.028393663465976715 0.021827176213264465
0.22405248880386353 0.22794122993946075 -0.25767379999160767
-0.013197474181652069 0.4399188458919525 -0.25767379999160767
0.5373290181159973 0.32793334126472473 -0.15822862088680267
-0.0046946522779762745 0.46171924471855164 0.0004202041309326887
-0.2904711663722992 0.037229809910058975 0.02914581075310707
0.4838109016418457 -0.13373148441314697 -0.08917386084794998
-0.508447527885437 0.12292209267616272 -0.25767379999160767
0.29895347356796265 -0.5323801040649414 -0.17794154584407806
-0.34715336561203003 -0.48309358954429626 -0.25767379999160767
-0.2904711663722992 0.04462768882513046 0.12667985260486603
-0.38586753606796265 0.49999597668647766 0.5075899958610535
-0.2904711663722992 -0.32256895303726196 0.16013281047344208
0.2682490050792694 -0.5323801040649414 -0.20020046830177307
-0.5137096643447876 -0.12265396863222122 -0.25767379999160767
0.6378050446510315 0.49999597668647766 -0.09825333207845688
-0.2942161560058594 0.06203288957476616 0.6026395559310913
0.47072598338127136 -0.5208268165588379 -0.25767379999160767
-0.2904711663722992 -0.09935916215181351 0.05450194329023361
0.1841767132282257 -0.48137298226356506 -0.25767379999160767
-0.2904711663722992 0.24183249473571777 0.38045281171798706
-0.2904711663722992 0.18721231818199158 0.30345267057418823
-0.2904711663722992 0.4267778694629669 0.11277923732995987
0.08857771754264832 0.11257537454366684 -0.022116100415587425
0.1723865270614624 -0.5323801040649414 -0.0023054764606058598
-0.5292827486991882 -0.5323801040649414 0.19670332968235016
-0.26200202107429504 0.33322566747665405 -0.25767379999160767
0.2339852899312973 0.3013784885406494 0.0004202041309326887
0.4438910186290741 0.0794048085808754 0.0004202041309326887
0.8912960886955261 0.49999597668647766 -0.10706248134374619
0.2903813421726227 0.24810534715652466 0.0004202041309326887
-0.5485652089118958 0.3785518407821655 -0.246882364153862
-0.31842026114463806 0.49999597668647766 0.4132087528705597
0.4838109016418457 -0.23676294088363647 -0.15624238550662994
-0.3342815935611725 -0.3209720849990845 -0.25767379999160767
-0.056881051510572433 0.08794108778238297 0.0004202041309326887
-0.2717770040035248 0.1806894838809967 -0.25767379999160767
0.4838109016418457 -0.311098575592041 -0.1637469083070755
-0.07820874452590942 0.49999597668647766 -0.03832908347249031
0.4509434998035431 -0.5323801040649414 -0.19699861109256744
0.2738949656486511 -0.3330107629299164 -0.25767379999160767
-0.5485652089118958 -0.18094582855701447 -0.02465186081826687
-0.4718541204929352 0.18382778763771057 0.6026395559310913
-0.5485652089118958 -0.284115195274353 0.19495005905628204
0.775577962398529 -0.3603174090385437 -0.15599247813224792
-0.5485652089118958 -0.06808309257030487 0.12912887334823608
0.09804866462945938 -0.5323801040649414 -0.04659590497612953
-0.3427555561065674 0.0564354732632637 0.6026395559310913
-0.2904711663722992 -0.28126561641693115 0.16834157705307007
-0.2904711663722992 -0.3946340084075928 0.29676201939582825
0.6601741909980774 0.32793334126472473 -0.0653955489397049
-0.5485652089118958 -0.29524174332618713 -0.24576213955879211
0.18867714703083038 -0.16215923428535461 -0.25767379999160767
-0.5485652089118958 0.0735432431101799 0.284756064414978
-0.5485652089118958 0.08155789226293564 0.00844208151102066
-0.5485652089118958 0.3474990725517273 0.08296609669923782
-0.5485652089118958 0.3340608477592468 0.5346307754516602
-0.5485652089118958 0.4682357609272003 0.1551336944103241
0.6365045309066772 -0.5323801040649414 -0.20492127537727356
0.4065515697002411 -0.3711795508861542 -0.25767379999160767
0.4181331992149353 0.28083765506744385 0.0004202041309326887
-0.3232586979866028 -0.3360373079776764 0.4548570513725281
-0.5485652089118958 -0.13841183483600616 0.3048153221607208
-0.22793596982955933 -0.053593456745147705 -0.25767379999160767
0.4838109016418457 0.06843355298042297 -0.18526406586170197
-0.4895397424697876 -0.1204586774110794 0.6026395559310913
0.20651163160800934 -0.046636998653411865 -0.12123339623212814
-0.2924431562423706 -0.5323801040649414 0.09087357670068741
-0.2904711663722992 -0.30545100569725037 0.25439727306365967
-0.2904711663722992 0.33133170008659363 0.0749109536409378
0.10782675445079803 0.10998044908046722 -0.14776603877544403
-0.19520847499370575 -0.30455973744392395 0.0004202041309326887
-0.5485652089118958 0.3109471797943115 -0.22497396171092987
0.2238028645515442 -0.09084419906139374 -0.25767379999160767
0.024724481627345085 0.09975254535675049 -0.2057008147239685
-0.4959428310394287 0.22028256952762604 0.6026395559310913
0.741671621799469 0.42532724142074585 -0.25767379999160767
0.13513295352458954 -0.29934149980545044 0.0004202041309326887
0.550082266330719 0.32793334126472473 -0.05655743554234505
0.9283501505851746 -0.3603174090385437 -0.23054514825344086
0.23707039654254913 -0.14498555660247803 -0.25767379999160767
-0.2904711663722992 -0.3905736804008484 0.055479541420936584
-0.14451758563518524 -0.40012326836586 -0.25767379999160767
-0.2904711663722992 0.4235188663005829 0.3238995671272278
0.19754616916179657 0.03908789902925491 -0.09103504568338394
0.5982365012168884 -0.5323801040649414 -0.10417477786540985
0.22858256101608276 -0.2963007688522339 -0.25767379999160767
-0.2904711663722992 -0.2734200954437256 0.009396049194037914
-0.11878073215484619 -0.5113739371299744 -0.25767379999160767
-0.5485652089118958 0.007842862978577614 -0.05753432586789131
-0.09150940179824829 -0.5263856053352356 -0.25767379999160767
-0.5485652089118958 0.2901463806629181 0.23724190890789032
-0.5485652089118958 0.3734103739261627 0.5958133935928345
-0.5485652089118958 0.15616993606090546 0.40465736389160156
0.4838109016418457 -0.08188003301620483 -0.06978943198919296
-0.5485652089118958 -0.2369716614484787 0.5061957240104675
-0.3435423672199249 0.49999597668647766 0.19368593394756317
0.9461920857429504 0.4898371696472168 -0.25767379999160767
-0.19105970859527588 0.09715746343135834 0.0004202041309326887
0.1549900472164154 -0.12193599343299866 -0.19549523293972015
0.14540095627307892 0.09538956731557846 -0.25611141324043274
-0.1487683802843094 -0.24002017080783844 -0.25767379999160767
0.2502150535583496 -0.4307907819747925 -0.25767379999160767
-0.5485652089118958 -0.47001293301582336 0.1191038191318512
-0.2904711663722992 0.27642810344696045 0.36607518792152405
-0.5485652089118958 0.39091718196868896 0.5759924650192261
0.03144964575767517 0.48141542077064514 -0.25767379999160767
0.19890788197517395 0.03608716279268265 -0.199039489030838
-0.5222184062004089 0.07114941626787186 0.6026395559310913
-0.2904711663722992 -0.27052271366119385 0.22612132132053375
0.2995189428329468 0.2855415940284729 0.0004202041309326887
-0.5485652089118958 -0.21692995727062225 -0.08595646917819977
0.3702441453933716 -0.21793104708194733 0.0004202041309326887
0.4838109016418457 0.11468339711427689 -0.14277544617652893
0.19040079414844513 -0.08481807261705399 -0.14113706350326538
0.4838109016418457 -0.2671542465686798 -0.15400655567646027
-0.5485652089118958 0.45416513085365295 0.27310165762901306
-0.5485652089118958 0.23827384412288666 0.19482767581939697
-0.4072019159793854 0.49999597668647766 -0.018881019204854965
0.7778322100639343 0.49999597668647766 -0.2538273334503174
0.8841732144355774 -0.4869213104248047 0.0004202041309326887
-0.03688085079193115 -0.0673074945807457 -0.10371173173189163
0.17267289757728577 -0.19426709413528442 -0.25767379999160767
0.23470881581306458 -0.288162499666214 -0.25767379999160767
-0.5485652089118958 -0.12333592027425766 -0.08179232478141785
-0.27703040838241577 0.3912957012653351 0.0004202041309326887
-0.5485652089118958 0.3865044116973877 0.4915812015533447
-0.20269793272018433 -0.5323801040649414 -0.09990975260734558
-0.547594428062439 -0.5323801040649414 0.15396647155284882
0.3761083483695984 -0.49736377596855164 -0.25767379999160767
0.007006149739027023 0.49999597668647766 -0.2031526118516922
-0.2904711663722992 0.3755936324596405 0.3436691462993622
-0.012080048210918903 0.13242168724536896 0.0004202041309326887
-0.2904711663722992 0.35013899207115173 0.2562258839607239
0.28373897075653076 -0.10615205019712448 -0.25767379999160767
-0.5485652089118958 -0.10596539825201035 0.49047425389289856
0.4845236539840698 0.49999597668647766 -0.17363473773002625
-0.5485652089118958 0.4655408263206482 0.2979067862033844
-0.5485652089118958 -0.46584391593933105 0.13396956026554108
0.2666568458080292 0.10893837362527847 -0.25767379999160767
0.4838109016418457 -0.2825637459754944 -0.16408367455005646
0.31121307611465454 0.24296846985816956 0.0004202041309326887
-0.5485652089118958 0.261952668428421 0.033220093697309494
-0.5485652089118958 -0.0047096144407987595 -0.2555658221244812
0.8139849305152893 0.32793334126472473 -0.007627411745488644
0.06619197875261307 -0.22108978033065796 0.0004202041309326887
0.4383116364479065 0.2914717197418213 0.0004202041309326887
-0.5485652089118958 -0.2709691524505615 -0.23781196773052216
-0.19569692015647888 0.49999597668647766 -0.17636950314044952
-0.5485652089118958 0.3910403847694397 0.24005040526390076
-0.3346399962902069 0.033421020954847336 -0.25767379999160767
-0.2904711663722992 -0.05505358800292015 0.3561551570892334
0.4886322021484375 0.32793334126472473 -0.16153830289840698
-0.1914466917514801 0.49999597668647766 -0.08815047889947891
0.36682596802711487 -0.4577466547489166 -0.25767379999160767
0.7281700968742371 -0.4468604624271393 0.0004202041309326887
0.049989599734544754 -0.48825186491012573 0.0004202041309326887
0.04125084728002548 0.49999597668647766 -0.2484515756368637
0.366820365190506 0.3605307936668396 0.0004202041309326887
0.6625944375991821 0.4720257520675659 -0.25767379999160767
0.2694832384586334 0.12568576633930206 0.0004202041309326887
0.017531124874949455 -0.17655335366725922 -0.25767379999160767
0.18866397440433502 -0.08738990128040314 -0.21136796474456787
0.6411742568016052 -0.49292293190956116 0.0004202041309326887
-0.07521865516901016 0.20986075699329376 -0.25767379999160767
0.4838109016418457 -0.14009757339954376 -0.034898027777671814
0.8241724371910095 0.37518027424812317 0.0004202041309326887
-0.1260572373867035 0.49999597668647766 -0.19962558150291443
-0.2904711663722992 0.30531740188598633 0.4200816750526428
0.3144173324108124 0.13667701184749603 0.0004202041309326887
-0.5474247336387634 0.05746157467365265 -0.25767379999160767
-0.5485652089118958 0.3516940176486969 0.1332751214504242
0.026130463927984238 -0.5323801040649414 -0.0011526606976985931
0.5371497869491577 0.49310702085494995 0.0004202041309326887
-0.5355864763259888 0.47244417667388916 -0.25767379999160767
0.029499564319849014 0.49999597668647766 -0.0680227130651474
-0.5485652089118958 0.26297247409820557 0.5808770656585693
0.7528382539749146 -0.5323801040649414 -0.22469526529312134
-0.5038177967071533 -0.16031348705291748 -0.25767379999160767
-0.013067053630948067 0.48958319425582886 0.0004202041309326887
-0.5485652089118958 -0.4328745901584625 0.24896039068698883
-0.3359851539134979 0.130003422498703 0.6026395559310913
-0.2051655799150467 0.1145259216427803 0.0004202041309326887
0.7658315300941467 -0.459393173456192 -0.25767379999160767
0.9047597050666809 0.32793334126472473 -0.25693994760513306
0.992382824420929 -0.4010487496852875 0.0004202041309326887
0.4838109016418457 -0.06184595450758934 -0.1613553911447525
-0.4176556169986725 0.49999597668647766 0.1989266574382782
-0.4361881613731384 0.49999597668647766 0.02010546624660492
0.9999989867210388 0.47472748160362244 -0.1998281478881836
0.8526896238327026 0.49999597668647766 -0.23350462317466736
-0.08721296489238739 -0.5323801040649414 -0.16075953841209412
0.3268856704235077 -0.18507646024227142 -0.25767379999160767
-0.014391441829502583 0.14482666552066803 -0.25767379999160767
-0.5485652089118958 0.39669859409332275 -0.1041872575879097
0.3256690800189972 -0.5189226269721985 0.0004202041309326887
-0.01989719830453396 -0.5323801040649414 -0.1811150163412094
-0.3211507201194763 0.49999597668647766 0.353362500667572
0.16857516765594482 0.1833917498588562 0.0004202041309326887
-0.16051006317138672 -0.15053687989711761 -0.25767379999160767
0.5677306056022644 -0.3603174090385437 -0.17658351361751556
-0.1744423359632492 0.49999597668647766 -0.011037212796509266
0.9718929529190063 -0.3603174090385437 -0.2227105051279068
0.4838109016418457 -0.3510502278804779 -0.09716815501451492
-0.3111252784729004 -0.25509536266326904 0.535798966884613
-0.5346482992172241 0.05829448997974396 0.6026395559310913
-0.3075132369995117 0.49999597668647766 0.06437203288078308
-0.5106785297393799 0.4134090542793274 -0.25767379999160767
0.8366659879684448 -0.3603174090385437 -0.20762166380882263
-0.3017778694629669 0.49999597668647766 0.5561245679855347
-0.13444262742996216 0.10356520861387253 -0.25767379999160767
-0.4917375445365906 -0.3132941424846649 0.4776001572608948
-0.5485652089118958 0.05141064524650574 -0.21470364928245544
-0.08129338175058365 0.31439340114593506 -0.25767379999160767
-0.5485652089118958 -0.44338130950927734 0.1400766670703888
-0.5485652089118958 -0.1930205225944519 -0.015192403458058834
-0.5485652089118958 -0.3037249743938446 0.48407670855522156
0.060227878391742706 0.2348860651254654 -0.25767379999160767
0.44629061222076416 -0.2597357928752899 0.0004202041309326887
0.24600517749786377 -0.04080354794859886 0.0004202041309326887
-0.3641907274723053 0.09642274677753448 -0.25767379999160767
-0.2904711663722992 -0.19423861801624298 0.12112104147672653
-0.5170865058898926 0.49999597668647766 0.46989911794662476
-0.5485652089118958 -0.1502728909254074 0.427285760641098
-0.519355058670044 -0.08798031508922577 -0.25767379999160767
0.25200027227401733 0.42018142342567444 -0.25767379999160767
-0.46657127141952515 -0.21899715065956116 -0.25767379999160767
-0.1820545196533203 -0.5323801040649414 -0.22533567249774933
0.25295016169548035 0.49999597668647766 -0.0054052602499723434
-0.13698416948318481 -0.5323801040649414 -0.03876302391290665
-0.29020383954048157 0.49999597668647766 -0.13629677891731262
0.3364352881908417 -0.5323801040649414 -0.0041285487823188305
-0.2904711663722992 0.012910584919154644 0.18199032545089722
0.09899403899908066 0.43110957741737366 -0.25767379999160767
0.25326642394065857 -0.07034652680158615 -0.25767379999160767
0.1303827464580536 0.1522701233625412 -0.25767379999160767
-0.3224060535430908 -0.5184766054153442 -0.25767379999160767
0.043128807097673416 0.2468954175710678 -0.25767379999160767
-0.2369874268770218 -0.42720913887023926 0.0004202041309326887
-0.12752299010753632 0.18124815821647644 0.0004202041309326887
0.5933292508125305 -0.5323801040649414 -0.2327781766653061
-0.2904711663722992 -0.40478435158729553 0.1323111355304718
0.19809362292289734 0.03801491856575012 -0.08079691976308823
0.21812523901462555 0.0005908854072913527 0.0004202041309326887
-0.2904711663722992 -0.09033285081386566 0.5036665797233582
-0.5485652089118958 0.08942923694849014 0.06944647431373596
0.3303164541721344 0.49999597668647766 -0.11221157759428024
-0.5485652089118958 -0.410226047039032 0.2259669154882431
-0.5485652089118958 -0.007315339986234903 -0.20796701312065125
0.5334242582321167 -0.39898282289505005 -0.25767379999160767
0.6912186741828918 0.4251082241535187 -0.25767379999160767
-0.05720052868127823 -0.15420018136501312 -0.25767379999160767
0.33474263548851013 -0.32462838292121887 0.0004202041309326887
0.032671380788087845 0.12878428399562836 -0.25767379999160767
0.433485209941864 -0.24012421071529388 0.0004202041309326887
0.20970462262630463 -0.025806544348597527 -0.006185768637806177
-0.0906882956624031 -0.4239673614501953 -0.25767379999160767
0.4838109016418457 0.07928846776485443 -0.16234862804412842
0.0044990344904363155 -0.5323801040649414 -0.07420320808887482
-0.12143803387880325 0.2329656034708023 0.0004202041309326887
-0.021665487438440323 0.49999597668647766 -0.09665972739458084
-0.4491266906261444 0.41746169328689575 0.6026395559310913
-0.42078322172164917 -0.47747957706451416 0.3134147524833679
-0.2510775029659271 0.49999597668647766 -0.2001543790102005
-0.5090415477752686 0.49999597668647766 0.4435683488845825
-0.2904711663722992 -0.42442724108695984 0.037978313863277435
-0.4984181523323059 0.35946035385131836 -0.25767379999160767
0.8041976094245911 0.32793334126472473 -0.06749464571475983
-0.021747585386037827 -0.09341540187597275 -0.07963535934686661
-0.18538588285446167 0.3809700608253479 -0.25767379999160767
0.34440556168556213 0.33825090527534485 0.0004202041309326887
0.5023312568664551 0.4063548147678375 -0.25767379999160767
-0.5485652089118958 -0.13587802648544312 0.042143478989601135
-0.20445291697978973 0.13338515162467957 -0.25767379999160767
0.06965523213148117 0.49999597668647766 -0.11311840265989304
