0.9903470873832703 -0.520187258720398 -0.16048982739448547
-0.6979454159736633 0.36177220940589905 -0.25947847962379456
-0.5535104870796204 -0.00694400817155838 0.1516629457473755
-0.975664496421814 0.596214234828949 -0.24394816160202026
-0.5069632530212402 -0.5944213271141052 -0.17380517721176147
-0.2886899411678314 -0.5944213271141052 -0.10843708366155624
-0.12473092973232269 -0.029688915237784386 -0.13985088467597961
-0.0276381466537714 0.596214234828949 -0.016664154827594757
0.28451794385910034 0.31974315643310547 -0.25947847962379456
0.2931828796863556 -0.27509528398513794 0.19022181630134583
0.5438587069511414 0.3731922209262848 0.4305957853794098
0.5438587069511414 -0.3451923429965973 0.0010739511344581842
-0.09982669353485107 -0.07852227240800858 0.060653336346149445
-0.41746917366981506 0.0067405253648757935 0.3108140826225281
0.147477924823761 0.3262649178504944 0.16220496594905853
0.3252590298652649 0.34566402435302734 -0.25947847962379456
-0.6060804724693298 0.21129164099693298 -0.25947847962379456
0.516069769859314 0.07801848649978638 -0.25947847962379456
0.29380032420158386 -0.012998053804039955 0.2536073625087738
0.6692233085632324 0.0910891443490982 -0.14308440685272217
-0.6475722193717957 0.4159028232097626 -0.25947847962379456
0.7648465037345886 0.465148389339447 -0.25947847962379456
-0.0944838598370552 -0.08444693684577942 -0.21877281367778778
-0.7362304925918579 0.38050803542137146 -0.01414857804775238
0.12098930031061172 0.3337326943874359 -0.25947847962379456
0.4301641881465912 -0.023479174822568893 0.3108329474925995
-0.18709033727645874 0.4276580810546875 0.16220496594905853
-0.15137438476085663 0.049579232931137085 -0.25947847962379456
-0.2187294214963913 -0.19806906580924988 -0.25947847962379456
-0.689113199710846 -0.5944213271141052 -0.11729194223880768
0.5438587069511414 -0.5739139914512634 0.397470086812973
-0.13722047209739685 0.39621779322624207 -0.25947847962379456
-0.5965890288352966 0.28399354219436646 -0.25947847962379456
-0.7844130992889404 -0.37369203567504883 -0.25947847962379456
0.5387442708015442 0.023003341630101204 0.31080394983291626
0.8522671461105347 0.596214234828949 -0.08632265776395798
-0.5535104870796204 -0.5218674540519714 0.26782894134521484
-0.6785798072814941 -0.11489292979240417 -0.11443044245243073
-0.46642911434173584 0.405162513256073 0.45986390113830566
0.48662880063056946 -0.4394052028656006 0.45986390113830566
-0.3032165467739105 0.4601971507072449 0.22942185401916504
-0.6790510416030884 -0.030731922015547752 -0.16014841198921204
-0.11272554844617844 -0.12534701824188232 -0.25947847962379456
-0.36904075741767883 0.596214234828949 -0.11752451956272125
0.8544524312019348 0.596214234828949 -0.015351499430835247
-0.8938901424407959 0.5487232804298401 -0.25947847962379456
0.7195059657096863 0.5779674649238586 -0.25947847962379456
-0.9874069690704346 -0.4911395013332367 -0.25947847962379456
0.5438587069511414 0.5526819229125977 0.41307488083839417
-0.013497116044163704 0.15755514800548553 0.16220496594905853
-0.19000032544136047 -0.0740828812122345 0.16220496594905853
0.6458142399787903 0.2321530431509018 -0.014981187880039215
-0.917629599571228 -0.5532408356666565 -0.012278540059924126
-0.30494001507759094 0.4202459752559662 0.40634360909461975
-0.2795330286026001 -0.5944213271141052 0.015242042019963264
0.4815880060195923 0.596214234828949 -0.04715874418616295
0.0890735611319542 -0.07977452129125595 -0.054446328431367874
-0.5600755214691162 -0.1525917798280716 -0.25947847962379456
-0.4606871008872986 0.05083141103386879 0.31078657507896423
-0.3054293394088745 -0.5119118690490723 0.45657217502593994
0.2939669191837311 0.22409707307815552 0.2707081139087677
-0.04631638154387474 0.596214234828949 -0.09786958992481232
0.6995379328727722 -0.17466048896312714 -0.23811690509319305
-0.5056968927383423 0.596214234828949 -0.005138704087585211
0.5339553356170654 0.14520686864852905 -0.25947847962379456
0.08023661375045776 0.3745002746582031 0.16220496594905853
0.40979236364364624 -0.5944213271141052 -0.1484082192182541
-0.5214592218399048 0.021504703909158707 0.3108048737049103
0.5779321789741516 0.2629261612892151 -0.25947847962379456
-0.7732311487197876 -0.5944213271141052 -0.16916511952877045
0.6692714095115662 0.08835967630147934 -0.14774911105632782
0.21685326099395752 0.15105926990509033 0.16220496594905853
0.2942679226398468 0.04406626522541046 0.3016073405742645
-0.7954828143119812 -0.18145960569381714 -0.15948572754859924
0.8373286724090576 -0.18553458154201508 -0.09088015556335449
-0.10929401963949203 0.06764136999845505 -0.08902129530906677
-0.7062587738037109 0.4103579521179199 -0.014457556419074535
0.785415768623352 -0.5944213271141052 -0.20498453080654144
0.5968523621559143 -0.19500702619552612 -0.015485924668610096
0.1484992355108261 0.0034287720918655396 -0.25947847962379456
0.3238329291343689 -0.5944213271141052 0.1642150580883026
0.19636213779449463 -0.31185466051101685 0.16220496594905853
0.36556878685951233 -0.5944213271141052 0.43279603123664856
-0.5535104870796204 0.5508590340614319 0.426272451877594
-0.5535104870796204 -0.5610460042953491 0.09722519665956497
-0.02721727453172207 -0.4782790541648865 -0.25947847962379456
-0.20485667884349823 0.3997188210487366 0.16220496594905853
-0.5829405188560486 -0.17784419655799866 -0.25947847962379456
-0.11830662190914154 -0.16260811686515808 -0.25947847962379456
-0.07938229292631149 -0.09760156273841858 -0.23331508040428162
0.7615637183189392 0.494526743888855 -0.013787921518087387
0.6808512806892395 -0.5775019526481628 -0.014619994908571243
-0.21512629091739655 -0.4734075665473938 -0.25947847962379456
0.0876975730061531 -0.3076695501804352 0.16220496594905853
0.347653329372406 0.5213068723678589 -0.25947847962379456
0.015931330621242523 0.596214234828949 0.08348596096038818
-0.10182489454746246 -0.07625798881053925 0.016538044437766075
-0.3807445764541626 -0.04480678588151932 -0.25947847962379456
-0.5535104870796204 0.25812649726867676 0.24243678152561188
-0.999998927116394 -0.4619799256324768 -0.0578567273914814
-0.8279129266738892 0.20153841376304626 -0.1891777515411377
-0.30466124415397644 0.5364353656768799 0.3777279555797577
-0.7346165180206299 -0.549067497253418 -0.014165222644805908
-0.21970593929290771 -0.39906978607177734 -0.25947847962379456
0.3830726742744446 0.596214234828949 0.3658761978149414
0.7463624477386475 -0.58031165599823 -0.25947847962379456
-0.674289882183075 -0.35295096039772034 -0.014787128195166588
-0.2756911814212799 0.3416452407836914 -0.25947847962379456
0.2954537868499756 0.5944105982780457 0.4233381450176239
-0.8569751381874084 -0.18633794784545898 -0.062041010707616806
0.6508415937423706 -0.1688440889120102 -0.25947847962379456
0.470477432012558 -0.11264226585626602 -0.25947847962379456
-0.6553307771682739 -0.09090617299079895 -0.014982573688030243
0.16135908663272858 -0.4486151337623596 0.16220496594905853
0.5438587069511414 -0.19126483798027039 0.2616094648838043
0.26221850514411926 0.596214234828949 0.04163479059934616
-0.5535104870796204 0.11402004212141037 0.23186974227428436
0.9903470873832703 0.4636402726173401 -0.2457171529531479
0.4538940191268921 -0.3464595675468445 0.31985360383987427
-0.6646215915679932 0.2955790162086487 -0.01488680299371481
-0.28458938002586365 0.596214234828949 -0.09175855666399002
0.35267579555511475 0.521482527256012 0.45986390113830566
-0.8175172209739685 -0.5128169059753418 -0.01331060379743576
-0.01179878506809473 0.12460944801568985 -0.17224158346652985
0.5065991282463074 0.5001761317253113 0.45986390113830566
0.37109610438346863 -0.39809802174568176 0.45986390113830566
-0.02088315039873123 0.12367913872003555 0.06050240620970726
-0.0016209031455218792 -0.5944213271141052 -0.0546940453350544
0.9903470873832703 -0.32044899463653564 -0.24967029690742493
0.4565674364566803 -0.27150577306747437 0.310987651348114
-0.9987852573394775 0.43045270442962646 -0.011441906914114952
0.30522266030311584 -0.5415597558021545 -0.25947847962379456
-0.08864976465702057 -0.2143230438232422 -0.25947847962379456
-0.3030641973018646 0.524429202079773 0.21378150582313538
0.9302157163619995 0.596214234828949 -0.042395830154418945
0.10277571529150009 -0.08947378396987915 0.16220496594905853
-0.679092288017273 -0.061041463166475296 -0.16415151953697205
0.9901507496833801 0.21654382348060608 -0.011431416496634483
0.6686580181121826 0.18252000212669373 -0.08825061470270157
-0.151645228266716 0.13853691518306732 0.16220496594905853
-0.5760073661804199 -0.5523390769958496 -0.01580032706260681
0.799507737159729 -0.18254926800727844 -0.13202770054340363
0.18087835609912872 -0.524567186832428 -0.25947847962379456
-0.6098833680152893 0.41989806294441223 -0.0154510997235775
-0.7873510122299194 0.596214234828949 -0.025800153613090515
-0.999998927116394 0.5676775574684143 -0.03716911002993584
-0.8034424185752869 -0.35365161299705505 -0.25947847962379456
-0.7878241539001465 0.48182734847068787 -0.25947847962379456
0.3756154477596283 -0.5944213271141052 0.2334291636943817
0.2955978512763977 -0.4498756229877472 0.43812668323516846
-0.6517157554626465 0.06827091425657272 -0.015019841492176056
0.5656195878982544 -0.24263349175453186 -0.25947847962379456
0.46956631541252136 -0.029706519097089767 0.3108368217945099
0.2710767090320587 -0.42560526728630066 0.16220496594905853
-0.5535104870796204 0.4263206124305725 0.4002021849155426
-0.08756900578737259 0.09304480999708176 0.0729583203792572
-0.2862579822540283 -0.047800563275814056 -0.25947847962379456
-0.8057357668876648 0.4912372827529907 -0.25947847962379456
-0.3034144937992096 0.5215765833854675 0.2497389018535614
-0.5535104870796204 0.5591704845428467 0.19197651743888855
-0.3033101260662079 0.4817275404930115 0.2390255182981491
-0.7274190783500671 -0.5944213271141052 -0.18740877509117126
-0.3040190637111664 0.5396955013275146 0.3118002116680145
-0.6785948276519775 0.26458877325057983 -0.01474275253713131
-0.5535104870796204 -0.590162456035614 0.2697962820529938
-0.7647038102149963 -0.17900992929935455 -0.2180473357439041
0.2680787444114685 -0.22525373101234436 0.16220496594905853
0.9903470873832703 -0.3074178397655487 -0.19768191874027252
-0.2039426863193512 -0.5502804517745972 -0.25947847962379456
-0.41326844692230225 0.34891316294670105 0.38255539536476135
-0.11405438929796219 -0.05744843930006027 -0.2440008521080017
-0.6788957118988037 -0.16692468523979187 -0.14508046209812164
-0.2584814429283142 0.49538493156433105 -0.25947847962379456
-0.7419562935829163 0.44689470529556274 -0.25947847962379456
-0.8992461562156677 -0.441054105758667 -0.01246805489063263
0.9787967801094055 -0.3996140956878662 -0.011548466049134731
-0.7942084670066833 -0.2834981679916382 -0.013550886884331703
-0.30509525537490845 -0.5842841267585754 0.42227378487586975
-0.35868680477142334 -0.5944213271141052 -0.14921745657920837
-0.6800044775009155 0.12956401705741882 -0.252635657787323
-0.38982275128364563 -0.5944213271141052 -0.01746806502342224
-0.3045075833797455 0.5321233868598938 0.36195138096809387
0.606035590171814 -0.22554033994674683 -0.015391256660223007
-0.7598823308944702 0.22113750874996185 -0.013904762454330921
0.7456100583076477 0.596214234828949 -0.08191656321287155
0.8746356964111328 -0.5944213271141052 -0.03607936576008797
-0.2311287373304367 0.596214234828949 0.09578593820333481
-0.9108331799507141 -0.19056802988052368 -0.02966650202870369
0.3194068968296051 -0.25398802757263184 -0.25947847962379456
-0.999998927116394 -0.37584662437438965 -0.09168907254934311
-0.05186407268047333 0.11542583256959915 -0.21816448867321014
0.6302831172943115 -0.02827509120106697 -0.25947847962379456
0.5438587069511414 -0.34025150537490845 0.038193389773368835
-0.5535104870796204 0.46984967589378357 0.22739571332931519
0.5117674469947815 -0.21124346554279327 0.31095007061958313
-0.6577611565589905 -0.5267152786254883 -0.014957524836063385
0.33874034881591797 0.596214234828949 0.1372116357088089
-0.5035423040390015 -0.09820807725191116 -0.25947847962379456
-0.14097483456134796 -0.5368216633796692 0.16220496594905853
-0.5050445795059204 -0.12918461859226227 -0.25947847962379456
0.6910920739173889 0.39381977915763855 -0.014514419250190258
-0.5535104870796204 -0.18520671129226685 0.16751991212368011
-0.7658434510231018 -0.42362019419670105 -0.013843310065567493
0.9511314034461975 0.596214234828949 -0.13362008333206177
-0.9182767868041992 -0.1909668743610382 -0.25608745217323303
-0.3244047462940216 -0.33664608001708984 -0.25947847962379456
0.5019046068191528 0.4031599164009094 -0.25947847962379456
0.30416983366012573 0.053245775401592255 0.31078508496284485
0.5438587069511414 0.3367627263069153 0.1029173880815506
0.9702352285385132 0.39213117957115173 -0.011636726558208466
-0.6794764995574951 -0.16342638432979584 -0.2014143019914627
0.7733973264694214 -0.5943825244903564 -0.25947847962379456
0.40034180879592896 0.596214234828949 -0.143398255109787
-0.8943430185317993 0.3119555711746216 -0.01251859962940216
0.6688705682754517 -0.01490783877670765 -0.10887031257152557
0.9750134944915771 -0.5944213271141052 -0.02791925147175789
-0.33630380034446716 0.23801979422569275 -0.25947847962379456
0.5408919453620911 0.47882238030433655 0.45986390113830566
-0.5535104870796204 -0.009808334521949291 0.025430675595998764
0.6997886300086975 0.4733380973339081 -0.014424758031964302
0.09642192721366882 -0.07052543759346008 -0.19330137968063354
0.9752248525619507 0.21393604576587677 -0.25947847962379456
0.826943576335907 0.4422682225704193 -0.013113921508193016
0.5438587069511414 -0.5666229724884033 0.23584434390068054
0.5438587069511414 0.19166983664035797 0.10361769050359726
0.3334614038467407 -0.2466205209493637 0.31097212433815
0.5438587069511414 0.3732101321220398 0.1558537781238556
0.6999464631080627 0.20303232967853546 -0.15461190044879913
0.6656522750854492 -0.5159066319465637 -0.25947847962379456
0.5162925124168396 0.596214234828949 -0.21476225554943085
0.8548672199249268 0.596214234828949 -0.12546275556087494
0.5107707381248474 -0.22237791121006012 -0.25947847962379456
0.750376284122467 -0.17868825793266296 -0.16423077881336212
-0.18424288928508759 -0.1679716557264328 -0.25947847962379456
0.4587419033050537 -0.5834932923316956 0.45986390113830566
-0.08977767825126648 -0.18392042815685272 -0.25947847962379456
-0.8178505301475525 -0.5944213271141052 -0.1518741101026535
0.3251504600048065 0.5635063648223877 0.45986390113830566
0.027081076055765152 0.28099483251571655 -0.25947847962379456
0.5438587069511414 -0.07170205563306808 0.016832860186696053
-0.1478032022714615 -0.13470491766929626 0.16220496594905853
0.4109506607055664 -0.533115804195404 -0.25947847962379456
0.5438587069511414 0.3891138732433319 0.07363224029541016
0.714163601398468 -0.17580361664295197 -0.23625272512435913
-0.34402528405189514 -0.2029065191745758 -0.25947847962379456
-0.9302306175231934 0.476068913936615 -0.012148630805313587
-0.23931509256362915 0.39464306831359863 -0.25947847962379456
0.29291999340057373 0.26444369554519653 0.16323481500148773
0.5222229957580566 0.34923234581947327 0.349561870098114
-0.1402651071548462 -0.4547594487667084 0.16220496594905853
-0.2551555335521698 0.514175534248352 -0.25947847962379456
-0.5723105669021606 -0.45969974994659424 -0.25947847962379456
-0.5535104870796204 0.12459111958742142 -0.014017178677022457
-0.42883720993995667 -0.5944213271141052 0.0011693269480019808
0.29373058676719666 -0.48915958404541016 0.24644827842712402
0.8673316240310669 -0.5944213271141052 -0.08383244276046753
-0.7659291625022888 0.3314046263694763 -0.013842415995895863
0.8724541068077087 -0.19483283162117004 -0.01264475379139185
0.9741295576095581 0.19956116378307343 -0.16470105946063995
0.9334176778793335 0.20008239150047302 -0.20766685903072357
0.39947012066841125 -0.5944213271141052 0.408794105052948
-0.7354196310043335 0.20268836617469788 -0.024872979149222374
-0.18392720818519592 -0.4930393695831299 0.16220496594905853
0.21634894609451294 0.5794669389724731 -0.25947847962379456
0.6700146794319153 0.1692403256893158 -0.2198474109172821
-0.3465667963027954 -0.5944213271141052 0.15541930496692657
0.37637948989868164 0.41498276591300964 -0.25947847962379456
0.5438587069511414 -0.10818542540073395 0.30138275027275085
0.9903470873832703 -0.4159976541996002 -0.2559261918067932
-0.14581899344921112 -0.18259096145629883 -0.25947847962379456
-0.6134437322616577 -0.23449774086475372 -0.25947847962379456
-0.5197367668151855 -0.3463853597640991 0.4388544261455536
0.633072018623352 0.3438374102115631 -0.25947847962379456
0.33826151490211487 0.596214234828949 -0.1302066445350647
-0.6064662337303162 -0.5304301381111145 -0.25947847962379456
-0.5535104870796204 0.38775041699409485 0.016810359433293343
0.6697733402252197 -0.06249033287167549 -0.1964396834373474
0.138924703001976 -0.049742043018341064 -0.25947847962379456
-0.3199295997619629 0.5824874043464661 -0.25947847962379456
-0.999998927116394 -0.5528969168663025 -0.1547769457101822
-0.5072963237762451 0.31791064143180847 0.310619980096817
0.414806067943573 0.49622371792793274 0.45986390113830566
0.2930859923362732 -0.5883992314338684 0.18027834594249725
0.29477161169052124 -0.5672089457511902 0.35331419110298157
0.5438587069511414 -0.216976597905159 0.3082749545574188
-0.5535104870796204 0.3489583730697632 0.04481644183397293
-0.9796972870826721 -0.5606083273887634 -0.01163867861032486
0.7212101221084595 0.596214234828949 -0.08145316690206528
-0.052738603204488754 -0.11337478458881378 -0.14184539020061493
-0.5467363595962524 -0.5944213271141052 -0.18587109446525574
0.38833731412887573 0.25291430950164795 -0.25947847962379456
-0.7830999493598938 -0.394927978515625 -0.25947847962379456
0.11848480999469757 0.009768009185791016 -0.08515950292348862
0.6837279200553894 0.4807770252227783 -0.25947847962379456
-0.8739778399467468 -0.18769840896129608 -0.020713238045573235
0.44116324186325073 0.596214234828949 0.19564487040042877
0.6187832355499268 -0.2576201558113098 -0.25947847962379456
0.07916837185621262 -0.09005945920944214 0.09411165863275528
-0.3730359673500061 0.04187958687543869 -0.25947847962379456
-0.2171349823474884 0.596214234828949 -0.2261510193347931
0.5438587069511414 -0.039163634181022644 0.22229869663715363
-0.8373085260391235 0.4822391867637634 -0.01310657523572445
0.2929200232028961 -0.5023036003112793 0.16323983669281006
0.6323137283325195 -0.017148509621620178 -0.015120365656912327
0.5769496560096741 -0.14414921402931213 -0.015691114589571953
0.40784692764282227 -0.17265856266021729 0.31092599034309387
0.010708308778703213 -0.5330637097358704 0.16220496594905853
0.5438587069511414 -0.5625953674316406 0.047769200056791306
-0.5535104870796204 -0.021823324263095856 0.05980353057384491
0.5438587069511414 -0.40044331550598145 0.33418166637420654
-0.6034711003303528 0.14000310003757477 -0.25947847962379456
-0.5059201717376709 0.596214234828949 0.3146303594112396
0.2747884690761566 -0.34238430857658386 -0.25947847962379456
-0.3317355513572693 0.596214234828949 0.1911572366952896
-0.15228067338466644 0.4562801420688629 -0.25947847962379456
0.5438587069511414 0.2631877064704895 0.05835789442062378
0.5438587069511414 0.28591388463974 0.0850827693939209
0.5438587069511414 -0.4181120991706848 0.31429025530815125
0.6419998407363892 0.596214234828949 -0.020052753388881683
0.5511922836303711 0.37563255429267883 -0.015956642106175423
0.8053103685379028 0.3867861330509186 -0.01333693414926529
-0.11406636983156204 0.05895242840051651 0.08361722528934479
-0.30361607670783997 -0.2674191892147064 0.27043673396110535
0.26220571994781494 0.34761282801628113 -0.25947847962379456
0.11232521384954453 0.596214234828949 -0.1921433061361313
0.8439705967903137 0.48902568221092224 -0.25947847962379456
0.4766351878643036 0.5851465463638306 0.45986390113830566
0.5438587069511414 -0.5714770555496216 0.11672262102365494
0.2933574914932251 0.2781234681606293 0.20814861357212067
-0.5535104870796204 -0.163225919008255 0.09313365072011948
-0.4797699451446533 0.17423206567764282 -0.25947847962379456
0.37774336338043213 -0.5944213271141052 0.3113747239112854
0.17005059123039246 0.1087043359875679 0.16220496594905853
0.2930123209953308 0.17783987522125244 0.17271442711353302
0.8613197207450867 0.5075286626815796 -0.012759538367390633
0.0036303128581494093 0.12450681626796722 0.13577556610107422
-0.24449573457241058 -0.3431973457336426 0.16220496594905853
0.5294312834739685 -0.01913258247077465 0.3108302354812622
0.17548848688602448 0.596214234828949 -0.048791345208883286
0.46937358379364014 -0.027170564979314804 0.31083524227142334
-0.5229499340057373 -0.355528324842453 0.45986390113830566
-0.47307270765304565 -0.5944213271141052 0.36607426404953003
0.2935941219329834 0.4638737142086029 0.23243896663188934
-0.5826693177223206 -0.2637624740600586 -0.25947847962379456
0.8548130989074707 0.49784982204437256 -0.012826609425246716
0.6543998718261719 0.596214234828949 -0.2409188598394394
0.9643517136573792 0.5386181473731995 -0.01169738918542862
0.5438587069511414 0.3356948494911194 0.1459595412015915
0.32132676243782043 -0.4221772849559784 0.45986390113830566
-0.17305850982666016 -0.2879880666732788 0.16220496594905853
-0.5535104870796204 0.4024266004562378 0.03834674507379532
0.2172340750694275 0.04063297063112259 -0.25947847962379456
-0.026219245046377182 -0.2297808676958084 -0.25947847962379456
0.2964175343513489 0.596214234828949 -0.24781613051891327
0.9611159563064575 -0.324196457862854 -0.25947847962379456
-0.4201917052268982 -0.5944213271141052 0.2990625500679016
0.6696813702583313 0.0038332866970449686 -0.18751706182956696
-0.12754811346530914 0.017962295562028885 -0.12726905941963196
-0.9136868119239807 -0.4711911976337433 -0.012319190427660942
-0.6091473698616028 -0.5944213271141052 -0.22828547656536102
-0.5077874660491943 0.12904781103134155 0.3107377886772156
-0.5535104870796204 0.5091657042503357 0.01839393377304077
-0.5030006766319275 0.3390948474407196 0.3106067478656769
-0.4814927577972412 0.4310944080352783 0.45986390113830566
-0.03820239007472992 0.1463354527950287 0.16220496594905853
-0.10888233035802841 0.31070977449417114 0.16220496594905853
-0.5535104870796204 -0.13560719788074493 0.25168389081954956
0.10280077904462814 -0.12245648354291916 -0.25947847962379456
-0.3040691912174225 0.4348399341106415 0.31694984436035156
0.08562552183866501 0.2751510441303253 -0.25947847962379456
0.19235359132289886 -0.5944213271141052 -0.05254650115966797
0.17802853882312775 0.3502422571182251 0.16220496594905853
0.47331058979034424 0.596214234828949 0.0807175263762474
-0.12152756750583649 -0.04107395187020302 0.01942114718258381
-0.5390556454658508 0.596214234828949 0.2540823817253113
-0.3033340871334076 -0.17976364493370056 0.24148592352867126
0.9903470873832703 0.27829205989837646 -0.07154177874326706
0.29492658376693726 -0.5944213271141052 0.20543275773525238
-0.07539297640323639 -0.5944213271141052 0.049020059406757355
0.530092716217041 -0.5534297823905945 -0.25947847962379456
0.3590286076068878 0.09229531139135361 -0.25947847962379456
0.4571901857852936 -0.2719798684120178 -0.25947847962379456
-0.6798115968704224 0.00618293322622776 -0.23392760753631592
-0.18526725471019745 0.47715431451797485 0.16220496594905853
0.6687727570533752 0.04058796912431717 -0.09938135743141174
0.22541828453540802 0.30758288502693176 0.16220496594905853
0.08012324571609497 0.48598963022232056 0.16220496594905853
-0.7976392507553101 -0.5592833161354065 -0.25947847962379456
-0.30458346009254456 0.4173514246940613 0.36974281072616577
0.7612062096595764 0.20226651430130005 -0.23143203556537628
-0.7683754563331604 0.20229308307170868 -0.1941537857055664
0.2249135822057724 0.14533768594264984 -0.25947847962379456
-0.7538236975669861 0.20246738195419312 -0.11763818562030792
-0.152000293135643 -0.5944213271141052 -0.15058746933937073
0.10278322547674179 0.42592382431030273 0.16220496594905853
0.5438587069511414 -0.0860607698559761 0.24789468944072723
-0.02453480288386345 -0.4598549008369446 0.16220496594905853
0.1373690366744995 0.4378206729888916 0.16220496594905853
0.10949613898992538 0.04892997816205025 0.09864744544029236
-0.49721255898475647 -0.2510095536708832 0.3109748661518097
0.5438587069511414 0.1787911206483841 0.30154865980148315
-0.5287973284721375 -0.5944213271141052 -0.06525278836488724
-0.3034793436527252 -0.38947951793670654 0.2564001679420471
-0.8572738766670227 -0.4133116602897644 -0.25947847962379456
-0.3875386714935303 0.596214234828949 0.04733153432607651
0.8670984506607056 -0.40862518548965454 -0.25947847962379456
0.5438587069511414 -0.31797805428504944 0.06400702148675919
-0.3653711676597595 -0.34645336866378784 0.32982486486434937
0.8034406304359436 0.596214234828949 -0.07859688252210617
0.5438587069511414 0.047419510781764984 0.011010343208909035
0.009668496437370777 0.20911549031734467 -0.25947847962379456
-0.33551278710365295 0.36223942041397095 0.45986390113830566
-0.5613359212875366 0.5451347827911377 -0.25947847962379456
-0.5535104870796204 -0.2464253157377243 -0.006234068423509598
0.6515586972236633 -0.5944213271141052 -0.08236180245876312
-0.10211797803640366 0.596214234828949 0.11936470121145248
0.2942918539047241 0.29267966747283936 0.30406415462493896
0.2935548424720764 -0.1327442228794098 0.22840718924999237
0.5204470157623291 0.596214234828949 -0.1795220673084259
-0.05931829661130905 -0.30963388085365295 -0.25947847962379456
0.28996506333351135 -0.01849367655813694 -0.25947847962379456
-0.02746386080980301 0.596214234828949 0.04840452969074249
-0.3658081293106079 -0.5944213271141052 0.1306416243314743
0.7282682061195374 -0.21899618208408356 -0.014131173491477966
0.21966034173965454 -0.5155545473098755 0.16220496594905853
0.5438587069511414 -0.3966638445854187 0.40642449259757996
0.18056410551071167 0.2660238742828369 -0.25947847962379456
-0.5535104870796204 -0.21856708824634552 0.11341440677642822
-0.24952885508537292 0.04584744945168495 0.16220496594905853
-0.5535104870796204 0.5233349204063416 0.4389222264289856
0.5438587069511414 0.03845736011862755 0.008146515116095543
-0.007021251600235701 -0.5944213271141052 0.03726588562130928
-0.6258944272994995 0.596214234828949 -0.01880214735865593
0.6214249134063721 0.18675963580608368 -0.25947847962379456
-0.5182336568832397 -0.17074230313301086 -0.25947847962379456
0.9136607646942139 0.3498556613922119 -0.25947847962379456
-0.5535104870796204 -0.24754470586776733 0.19868601858615875
-0.4833625853061676 -0.3389807343482971 0.3110297620296478
0.33847010135650635 -0.10595358163118362 -0.25947847962379456
-0.33644452691078186 0.3493753969669342 0.3347747027873993
0.29386940598487854 -0.5313721299171448 0.26069796085357666
0.8405221700668335 0.20125246047973633 -0.15844525396823883
0.5438587069511414 0.372802197933197 0.3924034535884857
-0.03216205909848213 -0.4641706347465515 0.16220496594905853
0.4658769965171814 0.596214234828949 0.17022481560707092
0.1560971736907959 0.5605296492576599 0.16220496594905853
-0.6781629323959351 0.0650603398680687 -0.07399642467498779
0.259539395570755 -0.5944213271141052 -0.2367989718914032
0.9360467195510864 0.596214234828949 -0.052962470799684525
-0.46400830149650574 0.596214234828949 0.163286492228508
-0.4554347097873688 -0.29422733187675476 -0.25947847962379456
0.16400909423828125 -0.21765227615833282 0.16220496594905853
-0.5535104870796204 0.2844994068145752 0.1484697014093399
0.5438587069511414 0.19320544600486755 0.06441096216440201
0.5049998760223389 -0.18124161660671234 -0.25947847962379456
0.6289148926734924 -0.5944213271141052 -0.2563518285751343
-0.5693427920341492 0.4345780909061432 -0.25947847962379456
0.29365500807762146 -0.13502663373947144 0.2386888712644577
0.30196449160575867 -0.2367836833000183 0.31096598505973816
-0.18608534336090088 -0.36791113018989563 0.16220496594905853
-0.32959672808647156 0.05264684185385704 0.3107854425907135
-0.49061450362205505 0.596214234828949 0.2778297960758209
-0.01110170315951109 -0.5944213271141052 -0.15382814407348633
-0.9574778079986572 -0.22533957660198212 -0.011867741122841835
0.31966277956962585 -0.5944213271141052 -0.23177741467952728
-0.5535104870796204 -0.31273534893989563 0.016743309795856476
0.5597473382949829 -0.018443500623106956 -0.25947847962379456
0.4550308883190155 -0.3687710165977478 -0.25947847962379456
0.6681314706802368 0.33997997641563416 -0.25947847962379456
0.5438587069511414 0.4414788782596588 0.14286044239997864
0.45646506547927856 0.596214234828949 0.08718449622392654
-0.3052287697792053 -0.41349849104881287 0.43598228693008423
0.12451130896806717 -0.3786003291606903 -0.25947847962379456
-0.2661137580871582 0.596214234828949 -0.1279076784849167
-0.4795348644256592 -0.5654199123382568 -0.25947847962379456
0.07195906341075897 0.0978844165802002 -0.1426723599433899
-0.08818270266056061 0.596214234828949 0.05964665487408638
0.457484632730484 0.596214234828949 0.3467113673686981
-0.34156715869903564 0.596214234828949 -0.011610767804086208
0.23902754485607147 0.20267444849014282 -0.25947847962379456
-0.36865970492362976 -0.5944213271141052 0.30521339178085327
-0.42883923649787903 -0.34643828868865967 0.35397768020629883
0.9365820288658142 -0.47116413712501526 -0.25947847962379456
-0.5535104870796204 0.48756492137908936 0.26705804467201233
-0.6744627356529236 -0.5844808220863342 -0.25947847962379456
0.6680312752723694 -0.02568269893527031 -0.02745431661605835
0.8869293332099915 -0.2807639539241791 -0.25947847962379456
0.5751084685325623 -0.3612389862537384 -0.25947847962379456
-0.3036493957042694 -0.1347063183784485 0.2738530933856964
0.4577047526836395 -0.33938461542129517 -0.25947847962379456
-0.3050119876861572 -0.4429420530796051 0.41372600197792053
-0.7465633153915405 -0.5944213271141052 -0.25576627254486084
-0.3507411777973175 0.2868161201477051 0.3106393814086914
0.7040814161300659 0.3658895194530487 -0.014380501583218575
0.5040197372436523 -0.30786654353141785 -0.25947847962379456
-0.14368024468421936 -0.5276759266853333 -0.25947847962379456
-0.9916767477989197 0.19946959614753723 -0.22919100522994995
0.19996678829193115 -0.5944213271141052 0.06712518632411957
-0.1288231760263443 0.0003503871848806739 -0.19814400374889374
0.3571977913379669 -0.46873733401298523 -0.25947847962379456
-0.16901548206806183 0.2878679633140564 0.16220496594905853
-0.5535104870796204 -0.49462205171585083 0.3299978971481323
-0.3466772437095642 -0.15424515306949615 0.3109145164489746
-0.9011551737785339 -0.5944213271141052 -0.1033165380358696
-0.36691296100616455 -0.5715211629867554 0.45986390113830566
0.488981693983078 -0.5488688945770264 -0.25947847962379456
0.2930675446987152 -0.16564030945301056 0.17838306725025177
0.5547268986701965 -0.3928943872451782 -0.015920206904411316
-0.3039441406726837 0.04387874901294708 0.30410969257354736
-0.0050038546323776245 0.43093448877334595 0.16220496594905853
0.2062838077545166 -0.5944213271141052 0.059034839272499084
-0.5535104870796204 -0.4830619692802429 -0.009631533175706863
0.6684223413467407 0.11203338205814362 -0.06538701802492142
-0.16615724563598633 0.26066455245018005 -0.25947847962379456
0.9903470873832703 0.4359172284603119 -0.25189706683158875
0.16546718776226044 -0.06695613265037537 0.16220496594905853
-0.23618736863136292 -0.02292553149163723 -0.25947847962379456
-0.010629510506987572 -0.21194994449615479 -0.25947847962379456
-0.14882995188236237 -0.07169823348522186 0.16220496594905853
0.02202816680073738 -0.5281239748001099 0.16220496594905853
0.909468412399292 -0.222610741853714 -0.012263176962733269
0.9296825528144836 -0.29981157183647156 -0.25947847962379456
0.7898691892623901 0.596214234828949 -0.2564636170864105
0.22867263853549957 -0.03512909635901451 -0.25947847962379456
0.6686845421791077 0.01765613630414009 -0.09082169830799103
-0.15038838982582092 0.07083066552877426 0.16220496594905853
0.009879439137876034 -0.21261997520923615 0.16220496594905853
0.2946218252182007 0.43937623500823975 0.3379369080066681
-0.5535104870796204 -0.05043390765786171 0.29241180419921875
-0.3027101457118988 -0.1645725816488266 0.17743800580501556
0.7593085765838623 0.2736661732196808 -0.25947847962379456
0.26762738823890686 0.03343329206109047 0.16220496594905853
-0.5535104870796204 -0.5152788758277893 0.0005627250066027045
-0.3028782904148102 -0.378919780254364 0.19469760358333588
-0.5535104870796204 -0.5724949240684509 0.07531337440013885
0.43452608585357666 -0.5653042793273926 -0.25947847962379456
-0.999998927116394 -0.26578542590141296 -0.10650261491537094
0.6686826348304749 -0.16179266571998596 -0.09063701331615448
-0.07923369854688644 -0.4878303110599518 0.16220496594905853
0.8628408908843994 -0.36453598737716675 -0.25947847962379456
-0.27422356605529785 0.12818755209445953 0.16220496594905853
0.28042715787887573 -0.5944213271141052 -0.007704915478825569
-0.999998927116394 -0.39988934993743896 -0.1908966451883316
-0.43962812423706055 -0.04111768305301666 0.31084394454956055
-0.4945014715194702 -0.5944213271141052 0.29845932126045227
0.595599889755249 -0.19873376190662384 -0.015498843975365162
-0.2639521062374115 -0.5944213271141052 0.15264365077018738
-0.14851261675357819 0.49514302611351013 -0.25947847962379456
0.7499388456344604 0.596214234828949 -0.03459622338414192
0.31345242261886597 -0.5944213271141052 0.0666983351111412
0.5438587069511414 0.040425293147563934 0.12767945230007172
0.8259981870651245 -0.4092087745666504 -0.013123666867613792
0.5438587069511414 0.35663899779319763 0.11161195486783981
-0.5723222494125366 0.11138245463371277 -0.25947847962379456
-0.7818873524665833 0.596214234828949 -0.2456754595041275
0.5364934206008911 0.3487713634967804 0.39721110463142395
-0.20704299211502075 0.033454302698373795 0.16220496594905853
0.08251424878835678 -0.3941250741481781 0.16220496594905853
0.5438587069511414 -0.5590775609016418 0.31482216715812683
-0.38413289189338684 0.3155257999897003 0.3106214702129364
0.5260028839111328 0.596214234828949 -0.05527501925826073
-0.7803546786308289 0.42437413334846497 -0.25947847962379456
0.5438587069511414 -0.015267282724380493 0.11653289198875427
0.16848887503147125 0.596214234828949 0.005631444975733757
-0.03412259370088577 0.3628009855747223 -0.25947847962379456
0.6432977914810181 -0.5944213271141052 -0.2073388397693634
-0.00946440827101469 0.1245620846748352 -0.09842950850725174
-0.989357590675354 -0.26648321747779846 -0.011539093218743801
-0.6777129173278809 -0.17088817059993744 -0.030344512313604355
0.42738616466522217 -0.5944213271141052 0.2815265953540802
0.11841873824596405 0.01393871195614338 -0.24564339220523834
-0.39303773641586304 -0.27660179138183594 0.3109908401966095
-0.33584079146385193 -0.35033127665519714 -0.25947847962379456
0.022370895370841026 0.12170463055372238 -0.1057896614074707
0.10939832776784897 -0.17395833134651184 -0.25947847962379456
-0.5535104870796204 -0.15659143030643463 0.13405294716358185
0.5438587069511414 0.4037463068962097 0.3879767656326294
-0.0004962130915373564 0.2757680118083954 -0.25947847962379456
-0.999998927116394 0.21596601605415344 -0.037201400846242905
0.11876954883337021 0.3325120508670807 -0.25947847962379456
0.1648031324148178 -0.3520313799381256 -0.25947847962379456
0.20317479968070984 0.5801448822021484 -0.25947847962379456
-0.026814820244908333 0.3216947317123413 0.16220496594905853
-0.3282582759857178 -0.3214593231678009 0.31101882457733154
0.28936469554901123 0.2745008170604706 0.16220496594905853
-0.33330732583999634 -0.46679943799972534 0.45986390113830566
-0.41146406531333923 -0.5944213271141052 0.4026692509651184
-0.4094860255718231 -0.30387234687805176 -0.25947847962379456
0.3720387816429138 0.596214234828949 0.20896853506565094
0.5780148506164551 0.596214234828949 -0.02770152874290943
-0.9000861048698425 -0.2592739462852478 -0.012459397315979004
0.2557500898838043 -0.0464460626244545 0.16220496594905853
-0.2961483895778656 0.5037249326705933 -0.25947847962379456
0.9903470873832703 0.513650119304657 -0.16274839639663696
-0.5072829723358154 -0.3464222252368927 0.3797255754470825
-0.15084849298000336 0.596214234828949 0.04370895400643349
0.03756878525018692 0.4439486861228943 -0.25947847962379456
0.44983652234077454 -0.5944213271141052 0.3397632837295532
0.33849620819091797 0.596214234828949 -0.010184207931160927
-0.999998927116394 0.5194648504257202 -0.04663714021444321
0.5328259468078613 -0.17386777698993683 0.31092673540115356
-0.9222649335861206 -0.5944213271141052 -0.01687473990023136
0.09211968630552292 -0.5944213271141052 -0.17550261318683624
0.050625357776880264 0.11168460547924042 -0.14216427505016327
0.3050285279750824 -0.5944213271141052 -0.2473970651626587
-0.8629290461540222 0.596214234828949 -0.05262911319732666
-0.4607234597206116 0.3455054461956024 -0.25947847962379456
-0.003250508802011609 0.12455996870994568 0.01214300561696291
0.3910156786441803 0.596214234828949 0.1506451517343521
-0.5099380016326904 0.49279022216796875 -0.25947847962379456
0.6137702465057373 -0.3376905620098114 -0.015311519615352154
0.5438587069511414 0.49575796723365784 0.23301999270915985
-0.6852020621299744 -0.5678044557571411 -0.25947847962379456
0.9224653840065002 -0.19217891991138458 -0.0924299955368042
-0.30317649245262146 -0.051346588879823685 0.22530844807624817
-0.925204336643219 0.2340874820947647 -0.25947847962379456
-0.445295512676239 0.18409356474876404 -0.25947847962379456
0.5596890449523926 -0.5944213271141052 -0.03606339171528816
0.9903470873832703 0.3929218351840973 -0.11222526431083679
0.2949388325214386 -0.3768864572048187 0.37047848105430603
-0.0836813747882843 -0.0946677029132843 -0.17540310323238373
-0.5535104870796204 0.3946497142314911 0.3244459629058838
0.2954275608062744 -0.5123458504676819 0.42064541578292847
-0.010145396925508976 -0.5445493459701538 0.16220496594905853
0.4455145597457886 0.2105160802602768 -0.25947847962379456
0.8071895837783813 0.596214234828949 -0.027364252135157585
-0.15523363649845123 -0.12858335673809052 0.16220496594905853
0.09418792277574539 -0.0732904002070427 -0.16401013731956482
0.5929967164993286 -0.5944213271141052 -0.059255391359329224
0.6491953134536743 0.43345776200294495 -0.01494633313268423
0.7488093972206116 0.5384409427642822 -0.013919411227107048
-0.5535104870796204 -0.24904289841651917 0.08900537341833115
-0.5535104870796204 -0.3290979564189911 0.22240431606769562
-0.6568108201026917 -0.02711215242743492 -0.25947847962379456
-0.1303609311580658 0.3031841516494751 0.16220496594905853
-0.4955841600894928 -0.03413348272442818 0.31083959341049194
0.7129946351051331 0.20288076996803284 -0.2594248056411743
-0.5535104870796204 0.19479237496852875 0.3086141049861908
0.9265564680099487 -0.33209308981895447 -0.25947847962379456
-0.15052786469459534 0.08964461088180542 -0.25947847962379456
0.29362568259239197 0.10985822975635529 0.23567935824394226
0.28582069277763367 0.3985266387462616 -0.25947847962379456
0.17642322182655334 -0.3676791489124298 -0.25947847962379456
0.0035583695862442255 0.20295904576778412 0.16220496594905853
-0.5476020574569702 0.5954928994178772 -0.25947847962379456
-0.18881584703922272 -0.07566865533590317 0.16220496594905853
0.44362178444862366 -0.08436165750026703 -0.25947847962379456
0.8018518686294556 0.596214234828949 -0.1743684560060501
-0.6784223318099976 0.17648158967494965 -0.09916210174560547
-0.0829944908618927 -0.09517334401607513 -0.06433264911174774
0.5438587069511414 -0.23044082522392273 0.07222390919923782
0.2930738031864166 -0.5099740028381348 0.17902514338493347
0.2405748963356018 -0.5944213271141052 -0.10532941669225693
-0.5625966787338257 -0.3562413156032562 -0.01593858189880848
0.45743972063064575 0.596214234828949 -0.12166177481412888
0.3333573639392853 0.596214234828949 -0.03045405074954033
0.5438587069511414 -0.0630733072757721 0.2183285802602768
0.2937251329421997 -0.05943933129310608 0.24588662385940552
-0.34233036637306213 -0.5944213271141052 -0.0569881908595562
0.2949405908584595 -0.5409568548202515 0.370660662651062
0.22951769828796387 -0.5258485078811646 0.16220496594905853
0.5990982055664062 0.43227681517601013 -0.25947847962379456
0.5752841830253601 0.20266278088092804 -0.25947847962379456
-0.3037111461162567 -0.30830952525138855 0.280190646648407
0.06153924763202667 -0.10371699929237366 -0.03478674963116646
-0.5535104870796204 -0.3512032628059387 0.3107452690601349
-0.9255438446998596 -0.28706273436546326 -0.25947847962379456
0.9602089524269104 -0.3799159824848175 -0.011740096844732761
-0.5535104870796204 0.3378973603248596 0.016689307987689972
-0.7442113161087036 0.596214234828949 -0.14122526347637177
-0.8667422533035278 0.596214234828949 -0.1401025354862213
0.5438587069511414 -0.3295583128929138 0.1231846883893013
0.07031908631324768 -0.3313487470149994 0.16220496594905853
-0.5535104870796204 0.49166542291641235 0.14291347563266754
-0.5535104870796204 -0.21885988116264343 0.1715337187051773
0.4465075135231018 -0.5944213271141052 0.16283348202705383
0.5155226588249207 0.5103922486305237 -0.25947847962379456
0.29296600818634033 0.19225849211215973 0.16795822978019714
0.47911718487739563 0.4645271301269531 0.45986390113830566
0.9903470873832703 -0.4614082872867584 -0.06827198714017868
0.07345008850097656 -0.09525999426841736 -0.0518474355340004
-0.01614006794989109 0.3381215035915375 -0.25947847962379456
-0.24842454493045807 0.30415621399879456 -0.25947847962379456
-0.5535104870796204 0.5249316096305847 0.2114305943250656
0.8022319674491882 -0.3546931743621826 -0.25947847962379456
-0.48274412751197815 0.47782883048057556 -0.25947847962379456
-0.03898584097623825 -0.11787338554859161 -0.10646050423383713
-0.1419692188501358 -0.5785298943519592 -0.25947847962379456
-0.6359661221504211 -0.007484705653041601 -0.25947847962379456
0.3687291741371155 0.27516183257102966 0.310646653175354
0.433757483959198 0.34960588812828064 0.3109494149684906
-0.21979892253875732 -0.1661466658115387 0.16220496594905853
-0.5535104870796204 0.35552114248275757 0.39124417304992676
-0.9742406606674194 0.19966644048690796 -0.04546990618109703
-0.5380329489707947 -0.5944213271141052 -0.15653133392333984
0.09091583639383316 0.0793648436665535 -0.06867504864931107
-0.01513244304805994 -0.1223263293504715 -0.2398746907711029
0.5438587069511414 0.43371424078941345 0.10123253613710403
-0.5535104870796204 -0.38316577672958374 0.15599533915519714
-0.7178066968917847 0.2553877532482147 -0.014338510110974312
0.32432714104652405 0.348760724067688 0.3983120322227478
0.2240653932094574 0.101132333278656 -0.25947847962379456
0.6208238005638123 -0.09274229407310486 -0.015238815918564796
0.5438587069511414 0.088621124625206 0.04167161136865616
-0.9714779853820801 -0.19521944224834442 -0.13204751908779144
0.9655236005783081 0.4722898602485657 -0.011685304343700409
-0.059574540704488754 -0.23843319714069366 0.16220496594905853
-0.12411514669656754 0.03383243829011917 0.048276014626026154
0.18973061442375183 -0.5944213271141052 -0.23816393315792084
0.3147103190422058 0.5512710809707642 0.45986390113830566
-0.5334603786468506 -0.5293862223625183 0.45986390113830566
0.29193583130836487 0.12844158709049225 0.16220496594905853
0.33600345253944397 -0.5146152973175049 0.45986390113830566
-0.30259397625923157 0.5548447370529175 0.16551150381565094
0.7515504956245422 -0.17879019677639008 -0.151463583111763
0.2930229604244232 0.18113228678703308 0.1738060563802719
0.2149050384759903 0.2581673264503479 -0.25947847962379456
-0.2921289801597595 -0.4885932505130768 0.16220496594905853
0.9903470873832703 0.24363446235656738 -0.06527303904294968
-0.3909359276294708 -0.3464471697807312 0.33977121114730835
-0.24410197138786316 -0.2880597412586212 -0.25947847962379456
0.7859653234481812 0.41660869121551514 -0.25947847962379456
-0.07829950749874115 0.5133857131004333 0.16220496594905853
0.8741865754127502 -0.288734495639801 -0.01262690220028162
-0.17114268243312836 0.596214234828949 -0.2453315407037735
-0.30539679527282715 0.5020727515220642 0.45322877168655396
-0.5371089577674866 -0.5944213271141052 -0.1677505224943161
-0.5535104870796204 0.16365689039230347 0.16959689557552338
0.7082298994064331 -0.18881048262119293 -0.25947847962379456
-0.8465390801429749 -0.21437345445156097 -0.25947847962379456
0.5974922776222229 -0.44589027762413025 -0.015479338355362415
-0.3037984073162079 0.4713289141654968 0.2891528606414795
-0.037058863788843155 -0.11882922798395157 0.08130867779254913
0.33134207129478455 -0.3646467328071594 0.45986390113830566
-0.6796296834945679 0.11263398081064224 -0.21627596020698547
0.007534869480878115 0.1971801072359085 0.16220496594905853
-0.7099652290344238 0.596214234828949 -0.196812242269516
0.12613314390182495 -0.24646304547786713 -0.25947847962379456
-0.8918466567993164 0.35614484548568726 -0.012544333934783936
0.6686976552009583 -0.02534271776676178 -0.09209279716014862
0.2939954698085785 -0.4569098651409149 0.2736383378505707
0.40932586789131165 0.596214234828949 0.09788643568754196
0.5438587069511414 -0.36580923199653625 0.2685648202896118
-0.6565641164779663 -0.5944213271141052 -0.02521013654768467
-0.403624564409256 -0.5271918177604675 -0.25947847962379456
0.2375323325395584 0.596214234828949 -0.1412508636713028
0.3285978138446808 -0.018566874787211418 -0.25947847962379456
-0.035169318318367004 -0.5944213271141052 -0.2562672197818756
0.4522331953048706 -0.09456398338079453 -0.25947847962379456
-0.11765412241220474 0.45639917254447937 0.16220496594905853
-0.28314653038978577 0.33189234137535095 -0.25947847962379456
-0.999998927116394 -0.2778337299823761 -0.01814272068440914
0.28086817264556885 -0.3065078854560852 0.16220496594905853
-0.5535104870796204 0.0887998417019844 0.29913341999053955
0.08060301095247269 0.09011535346508026 0.015608897432684898
0.7487191557884216 -0.4600321054458618 -0.013920335099101067
0.3744586706161499 0.596214234828949 0.287651002407074
0.9903470873832703 0.27096936106681824 -0.2557622492313385
0.08899935334920883 -0.5944213271141052 -0.13487158715724945
-0.6386181116104126 0.596214234828949 -0.12450003623962402
-0.24194492399692535 0.34599819779396057 0.16220496594905853
0.6773512363433838 -0.5944213271141052 -0.19707977771759033
0.06311753392219543 0.10444529354572296 -0.03962113335728645
-0.37952232360839844 -0.418742835521698 -0.25947847962379456
-0.6791914701461792 -0.01073740515857935 -0.1737721860408783
0.023041216656565666 0.12156984955072403 -0.11132197827100754
0.0883653312921524 -0.45632368326187134 -0.25947847962379456
-0.2965567409992218 0.42645272612571716 0.16220496594905853
0.03167299926280975 -0.5944213271141052 0.05259387195110321
0.3804164230823517 0.19439637660980225 -0.25947847962379456
0.5693739652633667 0.5775435566902161 -0.25947847962379456
-0.4749599099159241 -0.1389421671628952 -0.25947847962379456
0.0281801950186491 0.4059746563434601 -0.25947847962379456
0.37335675954818726 0.5551784038543701 0.45986390113830566
0.9336978197097778 -0.580497145652771 -0.012013386003673077
-0.5535104870796204 0.2938743531703949 0.01719467155635357
0.2932644486427307 0.405823290348053 0.1985960453748703
-0.3052437901496887 -0.49199461936950684 0.4375247359275818
0.017645874992012978 0.12250004708766937 -0.04513814300298691
0.03737441450357437 -0.5944213271141052 0.11134481430053711
0.11836762726306915 0.013442152179777622 -0.014478745870292187
-0.431968629360199 0.5606576800346375 0.45986390113830566
0.15577559173107147 -0.2128085196018219 -0.25947847962379456
-0.7788470387458801 0.596214234828949 -0.04677610844373703
0.6114178895950317 0.4709232747554779 -0.015335778705775738
0.626225471496582 0.32264694571495056 -0.25947847962379456
-0.4451811909675598 -0.3094329237937927 0.31101131439208984
-0.21062764525413513 0.596214234828949 -0.019752299413084984
-0.4521596431732178 0.596214234828949 0.34561946988105774
0.08921530097723007 0.596214234828949 0.1289292275905609
-0.5205074548721313 -0.12059227377176285 0.3108935058116913
0.8551168441772461 0.4636422097682953 -0.012823480181396008
0.6043276786804199 -0.04129720479249954 -0.015408869832754135
0.3746347427368164 -0.5944213271141052 0.4432571828365326
-0.8366376757621765 0.22452503442764282 -0.25947847962379456
0.3369358479976654 0.596214234828949 -0.04321794956922531
0.2950977385044098 0.5027133226394653 0.38678881525993347
-0.1348324567079544 0.17731881141662598 -0.25947847962379456
