0.03281635046005249 -0.5735793113708496 0.06820885092020035
-0.23218631744384766 -0.551179051399231 -0.32497069239616394
-0.21065816283226013 0.6342484354972839 -0.2049538642168045
0.016752976924180984 -0.16179025173187256 0.06820885092020035
-0.015492184087634087 0.36067327857017517 0.06820885092020035
-0.20132523775100708 -0.7807518243789673 0.09519397467374802
-0.16351217031478882 -0.257267028093338 0.09519397467374802
0.1781364232301712 0.4855877459049225 0.09519397467374802
0.24230845272541046 -0.30653125047683716 0.09519397467374802
-0.26262563467025757 0.9864842891693115 0.09519397467374802
0.2691730856895447 0.6476752161979675 -0.5083068609237671
0.012561677955091 0.8552918434143066 0.06820885092020035
-0.08027023077011108 -0.5885728597640991 0.09519397467374802
0.3919098675251007 0.38359951972961426 0.09519397467374802
-0.06325091421604156 -0.37596720457077026 0.09519397467374802
0.26116469502449036 0.43625080585479736 0.06820885092020035
0.1924290657043457 -0.0258195661008358 0.06820885092020035
0.3999043107032776 0.2946120500564575 0.09519397467374802
-0.20565572381019592 0.8790783882141113 0.09519397467374802
0.1954306960105896 0.9539802670478821 0.09519397467374802
-0.030416034162044525 -0.9100652933120728 0.06820885092020035
-0.2641243040561676 -0.1744966208934784 0.06820885092020035
-0.10516662895679474 0.4727265238761902 0.06820885092020035
-0.3281674087047577 0.9048123359680176 0.09519397467374802
0.13067364692687988 0.15353801846504211 0.06820885092020035
0.11431226879358292 0.30982568860054016 0.09519397467374802
0.1672743707895279 -0.2519136667251587 0.06820885092020035
0.2233642339706421 0.5600228905677795 0.009419184178113937
0.2858935594558716 -0.6361269950866699 -0.4990183711051941
0.33637675642967224 -0.8085892796516418 0.06820885092020035
-0.3221091032028198 0.8137676119804382 0.06820885092020035
0.13787907361984253 -0.11276088654994965 0.09519397467374802
0.13024550676345825 -0.893999457359314 0.09519397467374802
-0.2660049796104431 -0.11007389426231384 0.06820885092020035
-0.3380047678947449 0.060365885496139526 0.09519397467374802
0.2019473761320114 0.06303982436656952 0.09519397467374802
0.09082282334566116 0.5856819152832031 0.09519397467374802
-0.2391749769449234 -0.6485269069671631 -0.5192037224769592
0.3480367660522461 0.8463742733001709 0.06820885092020035
-0.39714473485946655 0.04497392103075981 0.07509561628103256
-0.2153087854385376 -0.46499723196029663 0.06820885092020035
-0.11740624159574509 0.3268587291240692 0.09519397467374802
0.24840636551380157 -0.6485328674316406 -0.5714343190193176
0.03317871689796448 -0.27654948830604553 0.09519397467374802
0.1676667332649231 0.8865076899528503 0.06820885092020035
0.32240912318229675 -0.642636239528656 0.06820885092020035
-0.11720281094312668 -0.3308521807193756 0.09519397467374802
0.3539346158504486 -0.6941416263580322 0.09519397467374802
0.06690990924835205 0.5412898659706116 0.09519397467374802
-0.20202107727527618 -0.6202074289321899 -0.42327967286109924
-0.2531970143318176 -0.5496070384979248 -0.3310146629810333
0.4024144113063812 -0.08027855306863785 0.079090915620327
0.2004084289073944 0.9237993359565735 0.06820885092020035
0.3741745054721832 0.7426289916038513 0.09519397467374802
0.21323013305664062 -0.56817626953125 -0.5225347876548767
-0.15593813359737396 0.2442355751991272 0.09519397467374802
-0.31364038586616516 -0.7781233787536621 0.09519397467374802
-0.0022581196390092373 0.17556677758693695 0.09519397467374802
0.27376341819763184 -0.6532825827598572 0.09519397467374802
0.2620745599269867 0.6248584389686584 0.09519397467374802
0.2551417946815491 0.5507347583770752 -0.5010265707969666
-0.2652107775211334 -0.3121683895587921 0.09519397467374802
-0.2840740978717804 -0.6326179504394531 -0.4126502573490143
-0.39714473485946655 -0.24234166741371155 0.07787924259901047
0.18044032156467438 0.368831068277359 0.06820885092020035
0.30183494091033936 -0.5984684228897095 -0.40646424889564514
0.2791614234447479 -0.3162956237792969 0.09519397467374802
0.06363257765769958 -0.6533413529396057 0.09519397467374802
-0.2787494957447052 -0.8562524318695068 0.06820885092020035
0.048810191452503204 0.015896813943982124 0.06820885092020035
0.23446553945541382 0.5536993145942688 -0.4248160421848297
-0.3017074167728424 0.13806572556495667 0.09519397467374802
-0.1507607251405716 -0.6129491925239563 0.06820885092020035
0.020974449813365936 -0.44226622581481934 0.09519397467374802
0.0680912658572197 -0.7201789021492004 0.06820885092020035
0.3495124578475952 0.7018023729324341 0.06820885092020035
0.3375682830810547 0.36561763286590576 0.09519397467374802
0.3595200181007385 -0.9959380030632019 0.09519397467374802
-0.38104453682899475 0.7175924777984619 0.09519397467374802
0.24616263806819916 0.5504356622695923 -0.4055810570716858
-0.3597589433193207 -0.7230581641197205 0.09519397467374802
0.22939082980155945 -0.5545081496238708 -0.25563549995422363
-0.08739806711673737 -0.013441075570881367 0.06820885092020035
-0.23128996789455414 -0.7115519642829895 0.06820885092020035
-0.2046574056148529 -0.7620332837104797 0.09519397467374802
0.219695582985878 0.5628868937492371 -0.30378758907318115
0.2121231108903885 -0.7773974537849426 0.06820885092020035
0.27383726835250854 -0.3175273835659027 0.06820885092020035
-0.19786031544208527 -0.5903893709182739 -0.05348088964819908
0.09383781254291534 0.23612652719020844 0.06820885092020035
0.306535005569458 0.28610971570014954 0.09519397467374802
0.28502047061920166 0.6911156177520752 0.09519397467374802
-0.09651052206754684 0.6412416696548462 0.09519397467374802
-0.22443395853042603 0.5555588006973267 -0.5309383273124695
0.3698183000087738 0.8813809156417847 0.09519397467374802
-0.11982203274965286 0.2417648285627365 0.06820885092020035
-0.24238771200180054 -0.6489518284797668 -0.18170331418514252
0.3469875752925873 -0.7193489074707031 0.09519397467374802
0.15326422452926636 -0.5463146567344666 0.09519397467374802
0.042899757623672485 0.639164388179779 0.06820885092020035
0.27469339966773987 -0.3615937829017639 0.09519397467374802
0.0864199623465538 0.8917414546012878 0.09519397467374802
0.1347290277481079 -0.2510812282562256 0.09519397467374802
-0.29675254225730896 0.5965420603752136 -0.39800864458084106
0.10935940593481064 -0.8785939812660217 0.06820885092020035
0.2961719334125519 0.878667950630188 0.09519397467374802
0.34354645013809204 0.4982876777648926 0.09519397467374802
-0.09939538687467575 0.16865481436252594 0.06820885092020035
-0.17047269642353058 -0.7278674244880676 0.09519397467374802
-0.39595744013786316 -0.5649892091751099 0.09519397467374802
-0.3161869943141937 -0.30286920070648193 0.06820885092020035
-0.13463687896728516 0.21226949989795685 0.09519397467374802
0.2866434156894684 -0.5629202723503113 -0.02893875539302826
0.38910338282585144 0.6523495316505432 0.09519397467374802
0.27445536851882935 -0.6361505389213562 0.09519397467374802
0.36951300501823425 0.9792125821113586 0.09519397467374802
0.26692503690719604 -0.5511162281036377 -0.1378527283668518
-0.12696151435375214 0.43111079931259155 0.09519397467374802
0.012787031941115856 -0.5209141373634338 0.09519397467374802
0.2831346094608307 0.5605707764625549 -0.5934963226318359
-0.26082107424736023 -0.7081340551376343 0.09519397467374802
0.3162284791469574 0.39171114563941956 0.06820885092020035
0.17921684682369232 0.6961924433708191 0.09519397467374802
0.30090510845184326 -0.6111294031143188 -0.07818924635648727
-0.19953590631484985 -0.5839848518371582 0.005212457850575447
-0.39714473485946655 0.31363165378570557 0.07337263226509094
-0.2433495819568634 -0.6485856771469116 -0.3491528332233429
0.29943323135375977 0.5836372971534729 -0.21477565169334412
0.40203022956848145 0.4606342017650604 0.09519397467374802
0.0002768184640444815 0.7987877130508423 0.09519397467374802
0.23286142945289612 -0.6447334289550781 -0.3780454099178314
0.4024144113063812 -0.570537805557251 0.07077091932296753
0.03457048535346985 0.2933783531188965 0.09519397467374802
-0.26193031668663025 0.3200680911540985 0.09519397467374802
-0.005236324854195118 0.2240063101053238 0.09519397467374802
-0.2570645213127136 -0.6153791546821594 -0.6314054131507874
-0.19806940853595734 -0.6954028010368347 0.06820885092020035
0.37469372153282166 0.3808637261390686 0.09519397467374802
-0.2906780540943146 0.4760032296180725 0.09519397467374802
-0.25613608956336975 0.6494386196136475 -0.3563428223133087
0.3195033669471741 0.13801972568035126 0.06820885092020035
0.05622776225209236 0.7062979340553284 0.06820885092020035
-0.23450931906700134 0.35865065455436707 0.06820885092020035
0.3125275671482086 0.8723077178001404 0.09519397467374802
-0.3599635660648346 0.33693036437034607 0.06820885092020035
0.07049106061458588 -0.6793612241744995 0.06820885092020035
-0.2282884120941162 0.5538763999938965 -0.08510279655456543
0.3798532783985138 -0.08863380551338196 0.06820885092020035
-0.33416205644607544 -0.011271617375314236 0.09519397467374802
0.21191859245300293 -0.5707851052284241 -0.35691800713539124
0.11847416311502457 0.7723020315170288 0.06820885092020035
0.3222811222076416 -0.09489207714796066 0.09519397467374802
-0.38479018211364746 0.015959644690155983 0.06820885092020035
-0.10419785231351852 0.326157808303833 0.09519397467374802
0.2038249373435974 -0.6082704067230225 -0.24110879004001617
-0.13375990092754364 -0.3260325789451599 0.09519397467374802
0.38029003143310547 -0.17874671518802643 0.06820885092020035
-0.19905422627925873 0.5862994194030762 -0.018334129825234413
-0.28585052490234375 0.40683868527412415 0.06820885092020035
0.29437336325645447 -0.5724592208862305 -0.5251892805099487
0.2265181690454483 0.7559650540351868 0.06820885092020035
0.07691080868244171 0.1299172043800354 0.06820885092020035
0.15534350275993347 0.18722568452358246 0.06820885092020035
-0.11256525665521622 -0.23524536192417145 0.09519397467374802
0.20125925540924072 -0.9389209747314453 0.09519397467374802
-0.21792973577976227 -0.6392742991447449 -0.619264543056488
-0.24146269261837006 -0.07641483843326569 0.09519397467374802
0.20333506166934967 0.6399372816085815 0.09519397467374802
-0.39714473485946655 0.2146611213684082 0.08461587876081467
-0.1973414570093155 -0.2108965963125229 0.09519397467374802
-0.2661227881908417 0.7414330840110779 0.09519397467374802
-0.04262392967939377 0.4735318720340729 0.06820885092020035
-0.23329630494117737 0.7829731702804565 0.06820885092020035
0.3005791902542114 -0.5858104825019836 -0.330477237701416
-0.06759682297706604 -0.8583893179893494 0.06820885092020035
-0.3429960310459137 0.52534019947052 0.09519397467374802
0.302100270986557 -0.7618749141693115 0.09519397467374802
-0.3559012711048126 0.9385291337966919 0.06820885092020035
-0.22035031020641327 0.5585238337516785 -0.29280954599380493
-0.2624765634536743 -0.6464085578918457 -0.01104395929723978
0.191984161734581 0.06539149582386017 0.09519397467374802
0.21427075564861298 -0.6573938131332397 0.09519397467374802
0.22480657696723938 -0.9363178014755249 0.06820885092020035
-0.21369263529777527 -0.9000460505485535 0.06820885092020035
-0.2728644609451294 -0.09473346918821335 0.06820885092020035
-0.29723313450813293 0.0454123392701149 0.09519397467374802
-0.3343766927719116 -0.7573723793029785 0.09519397467374802
0.39074811339378357 0.010140953585505486 0.06820885092020035
0.2135009616613388 0.7490413784980774 0.09519397467374802
-0.26974108815193176 -0.9988988637924194 0.07606438547372818
0.20613616704940796 -0.5797634124755859 -0.1266329437494278
0.050660524517297745 -0.5578322410583496 0.09519397467374802
0.2039487063884735 0.5881879329681396 -0.6150522232055664
-0.27236035466194153 -0.5556460618972778 -0.3665502369403839
0.011830267496407032 -0.6073068380355835 0.06820885092020035
0.20376215875148773 -0.5890765190124512 -0.03569534420967102
0.055736713111400604 -0.6887120008468628 0.06820885092020035
-0.03775715082883835 -0.2526029646396637 0.06820885092020035
0.0019621571991592646 -0.45987650752067566 0.06820885092020035
-0.2960134744644165 0.6111048460006714 -0.0677393227815628
-0.28942519426345825 -0.8771100640296936 0.06820885092020035
-0.34517085552215576 0.20408450067043304 0.06820885092020035
0.2344880849123001 0.7436853051185608 0.06820885092020035
0.25756019353866577 -0.6484100222587585 0.023598438128829002
0.31749147176742554 0.5468175411224365 0.06820885092020035
-0.37085726857185364 0.30316415429115295 0.06820885092020035
-0.11706119775772095 -0.5854567885398865 0.09519397467374802
-0.2963249683380127 0.9999989867210388 0.07660473883152008
-0.3573545217514038 0.7415287494659424 0.06820885092020035
-0.19782264530658722 0.593592643737793 -0.40822678804397583
0.3716076612472534 0.6776157021522522 0.09519397467374802
-0.021854640915989876 -0.5451592206954956 0.09519397467374802
-0.32344746589660645 0.980621874332428 0.09519397467374802
-0.16529788076877594 0.9188681244850159 0.09519397467374802
0.080086350440979 -0.9372333288192749 0.06820885092020035
-0.005522524937987328 0.06302713602781296 0.06820885092020035
0.30303439497947693 0.35868406295776367 0.06820885092020035
0.21085411310195923 0.6274186968803406 -0.4564932882785797
0.2983632981777191 -0.5794532895088196 -0.5150724649429321
0.12446893006563187 0.7582050561904907 0.09519397467374802
-0.2964373528957367 -0.5915724635124207 -0.5204480886459351
0.2146674543619156 0.9999989867210388 0.0690096765756607
-0.09596490859985352 0.5339230298995972 0.06820885092020035
0.1194969043135643 0.28021976351737976 0.06820885092020035
0.22021381556987762 -0.5614014863967896 -0.13879448175430298
0.12480352818965912 -0.5694453716278076 0.09519397467374802
0.26301100850105286 0.6486155390739441 -0.25052663683891296
-0.25109463930130005 0.08528690040111542 0.06820885092020035
0.01209836546331644 0.00965446699410677 0.06820885092020035
0.14797060191631317 -0.7441878914833069 0.06820885092020035
-0.20965075492858887 -0.4531168043613434 0.09519397467374802
-0.20772285759449005 -0.5689176917076111 -0.4760444164276123
0.01731625199317932 0.48224711418151855 0.06820885092020035
0.23961219191551208 0.648709237575531 -0.03212535381317139
-0.3341354727745056 -0.7636223435401917 0.09519397467374802
0.09232708066701889 -0.39390432834625244 0.09519397467374802
-0.020915454253554344 -0.7171816825866699 0.09519397467374802
0.20583674311637878 0.5820391178131104 -0.21760764718055725
-0.24783596396446228 0.8867579102516174 0.09519397467374802
0.25234657526016235 0.649819552898407 -0.5837626457214355
0.4024144113063812 0.7077073454856873 0.09411357343196869
0.1376556158065796 0.779579222202301 0.06820885092020035
0.4024144113063812 -0.5807084441184998 0.08452608436346054
0.3422391712665558 -0.6334479451179504 0.06820885092020035
0.2753297686576843 0.5560418963432312 0.0562293715775013
0.23587201535701752 0.9673436284065247 0.06820885092020035
-0.08367753028869629 -0.08529616892337799 0.06820885092020035
0.240838885307312 -0.10348914563655853 0.06820885092020035
0.38948798179626465 0.08624450117349625 0.06820885092020035
0.07632272690534592 0.06892824172973633 0.09519397467374802
0.26580187678337097 0.10887466371059418 0.06820885092020035
0.2518385946750641 0.6497452855110168 -0.45202669501304626
0.3670850992202759 0.7457813024520874 0.06820885092020035
-0.3504618704319 -0.8182797431945801 0.09519397467374802
-0.31380608677864075 0.20805172622203827 0.09519397467374802
0.29880890250205994 0.618400514125824 -0.2299046665430069
0.39355215430259705 0.9518914222717285 0.06820885092020035
0.1802358776330948 -0.6630603671073914 0.09519397467374802
-0.1995154470205307 0.809581458568573 0.06820885092020035
0.19634296000003815 -0.1857675015926361 0.06820885092020035
-0.28576138615608215 -0.5670623779296875 -0.05331423133611679
-0.2543124258518219 0.9203944802284241 0.09519397467374802
-0.39714473485946655 -0.1621885895729065 0.08000148087739944
-0.1204487606883049 -0.5005967020988464 0.06820885092020035
-0.023708269000053406 -0.08609626442193985 0.06820885092020035
0.06277676671743393 0.5366784930229187 0.09519397467374802
-0.014913756400346756 0.9471904039382935 0.09519397467374802
-0.39653828740119934 -0.7049831748008728 0.09519397467374802
-0.31294968724250793 0.9148162007331848 0.09519397467374802
-0.08181668817996979 -0.5854388475418091 0.09519397467374802
0.0007069503189995885 -0.014657140709459782 0.09519397467374802
0.2720051407814026 -0.7738590240478516 0.09519397467374802
0.3855594992637634 -0.6533960103988647 0.09519397467374802
-0.19607912003993988 -0.46329161524772644 0.09519397467374802
0.31879690289497375 0.21493922173976898 0.09519397467374802
0.2920404076576233 0.2214840203523636 0.09519397467374802
-0.25095129013061523 -0.5498034954071045 0.033142492175102234
-0.39714473485946655 0.373700886964798 0.08833111822605133
0.2867829501628876 0.17633099853992462 0.06820885092020035
-0.28425130248069763 -0.9988988637924194 0.08170592784881592
0.08845648914575577 0.2094920426607132 0.06820885092020035
-0.031770218163728714 -0.31859928369522095 0.09519397467374802
0.15660353004932404 0.8154157400131226 0.09519397467374802
0.28962188959121704 -0.5656366944313049 -0.17240652441978455
-0.2156568318605423 -0.8088904619216919 0.06820885092020035
-0.39714473485946655 -0.23569615185260773 0.08840902149677277
0.022152718156576157 -0.793285071849823 0.06820885092020035
-0.014253262430429459 0.9183772802352905 0.09519397467374802
-0.11892000585794449 0.5357099771499634 0.09519397467374802
-0.011624260805547237 -0.2637086510658264 0.09519397467374802
-0.30831465125083923 -0.810333788394928 0.09519397467374802
0.07382214814424515 0.754044234752655 0.06820885092020035
-0.1873553842306137 -0.5230639576911926 0.06820885092020035
-0.1350882351398468 0.7530516386032104 0.06820885092020035
0.01536481361836195 -0.930407702922821 0.09519397467374802
0.18075859546661377 -0.48389866948127747 0.06820885092020035
0.06037156283855438 -0.1958991289138794 0.09519397467374802
-0.22250257432460785 -0.37294861674308777 0.06820885092020035
0.32387396693229675 0.7424833178520203 0.09519397467374802
0.2500322461128235 -0.3329247832298279 0.09519397467374802
-0.20206886529922485 -0.6200934648513794 -0.05613768845796585
0.39131826162338257 -0.6290123462677002 0.09519397467374802
0.19148026406764984 0.9451645612716675 0.06820885092020035
-0.1827545315027237 0.9140307903289795 0.06820885092020035
-0.37464824318885803 -0.6663768887519836 0.09519397467374802
0.05592643469572067 -0.9903759956359863 0.06820885092020035
0.28949904441833496 0.5677947402000427 0.06642114371061325
-0.1466565579175949 -0.06356474757194519 0.09519397467374802
-0.20126859843730927 0.58094722032547 -0.46824145317077637
0.31279757618904114 0.6761260032653809 0.09519397467374802
0.3479730486869812 -0.6297370791435242 0.09519397467374802
0.111106738448143 0.799962043762207 0.06820885092020035
-0.20107579231262207 0.5807544589042664 -0.24298296868801117
0.17133288085460663 0.1382703185081482 0.09519397467374802
-0.3407713770866394 0.13774850964546204 0.09519397467374802
0.21265068650245667 -0.20444226264953613 0.09519397467374802
-0.3471958637237549 -0.7535568475723267 0.09519397467374802
-0.31816935539245605 0.7912699580192566 0.06820885092020035
-0.1283235251903534 0.6574382185935974 0.06820885092020035
-0.39714473485946655 0.8434866070747375 0.08813396096229553
-0.2067372351884842 -0.5697861313819885 0.03378825634717941
-0.3905806541442871 -0.4421011507511139 0.06820885092020035
-0.07623346149921417 -0.9045798182487488 0.09519397467374802
-0.24162539839744568 -0.9988988637924194 0.07371436059474945
-0.22397877275943756 -0.836365818977356 0.06820885092020035
0.4024144113063812 -0.3826127052307129 0.08537730574607849
0.21454109251499176 0.6332190036773682 -0.2170984447002411
0.1811494678258896 -0.7580884099006653 0.09519397467374802
-0.22739705443382263 0.6401951313018799 0.09519397467374802
-0.34524285793304443 -0.5081292986869812 0.06820885092020035
-0.20730377733707428 -0.629531979560852 -0.5329481959342957
-0.19901502132415771 0.6095021963119507 -0.3442799746990204
-0.2598016560077667 0.49927982687950134 0.06820885092020035
0.17250433564186096 -0.7913408279418945 0.06820885092020035
-0.07714992016553879 -0.8350495100021362 0.06820885092020035
-0.21127507090568542 -0.09848945587873459 0.06820885092020035
0.21333619952201843 -0.568391740322113 -0.3429003953933716
-0.31297528743743896 -0.6035400629043579 0.06820885092020035
-0.3431820273399353 -0.10580256581306458 0.09519397467374802
-0.3788853883743286 -0.3782210946083069 0.09519397467374802
0.16283930838108063 -0.5500349402427673 0.06820885092020035
-0.030881894752383232 0.0772562325000763 0.06820885092020035
0.0682678148150444 0.9563535451889038 0.06820885092020035
0.06635457277297974 0.12574420869350433 0.06820885092020035
0.26394209265708923 -0.5508049130439758 -0.10768800228834152
0.21225488185882568 0.5083132982254028 0.06820885092020035
0.31892868876457214 -0.7056871652603149 0.06820885092020035
0.1926855593919754 -0.5558750629425049 0.06820885092020035
-0.013107867911458015 0.13122977316379547 0.09519397467374802
-0.20772026479244232 0.5697236061096191 -0.5685850381851196
0.08175940066576004 -0.7164263129234314 0.06820885092020035
0.32824835181236267 0.7914810180664062 0.09519397467374802
-0.1661730259656906 0.9546796679496765 0.09519397467374802
0.29970887303352356 0.3379339873790741 0.06820885092020035
0.13886317610740662 0.43779847025871277 0.06820885092020035
0.10541726648807526 -0.16043590009212494 0.09519397467374802
0.05152244493365288 -0.10491669923067093 0.09519397467374802
0.23883052170276642 0.7113444209098816 0.06820885092020035
0.30785802006721497 -0.7191556692123413 0.09519397467374802
-0.28479334712028503 -0.18977031111717224 0.09519397467374802
0.11919239908456802 0.5050035119056702 0.06820885092020035
-0.21539169549942017 -0.6374148726463318 -0.025167154148221016
-0.3781450092792511 -0.4759540557861328 0.09519397467374802
0.3979318141937256 0.530450701713562 0.09519397467374802
-0.362186074256897 0.8357474207878113 0.06820885092020035
0.3188762664794922 -0.006986992433667183 0.06820885092020035
0.36965617537498474 0.05831068381667137 0.06820885092020035
0.04530622810125351 0.3882579803466797 0.06820885092020035
-0.29994574189186096 -0.5139277577400208 0.09519397467374802
0.21277660131454468 -0.9502545595169067 0.06820885092020035
-0.2103220522403717 0.633793294429779 -0.3801332414150238
-0.29465553164482117 0.6158872246742249 -0.4145524799823761
0.05562220513820648 0.6164441704750061 0.06820885092020035
-0.03684774786233902 -0.4105304181575775 0.06820885092020035
-0.29536911845207214 -0.6122828125953674 -0.571389377117157
-0.03916887193918228 0.054979633539915085 0.09519397467374802
0.31796807050704956 -0.9009644985198975 0.06820885092020035
0.28705912828445435 0.5637166500091553 -0.017816103994846344
-0.21853379905223846 0.024845188483595848 0.06820885092020035
0.10077696293592453 -0.8297138214111328 0.09519397467374802
0.008974465541541576 0.03711332753300667 0.09519397467374802
0.2084231972694397 0.6230049729347229 -0.48199662566185
-0.1088145524263382 -0.059105657041072845 0.09519397467374802
-0.39714473485946655 -0.8373886942863464 0.07290389388799667
0.2094196230173111 0.625384509563446 -0.07507762312889099
-0.2823571264743805 -0.5636833906173706 -0.5731828212738037
0.2256893515586853 0.5583146214485168 -0.42220252752304077
-0.051066379994153976 -0.647988498210907 0.06820885092020035
-0.3234061896800995 -0.9959766864776611 0.06820885092020035
0.21674923598766327 -0.9988988637924194 0.08060906082391739
-0.13107025623321533 0.9497671723365784 0.06820885092020035
-0.08551932126283646 0.5191945433616638 0.06820885092020035
-0.047126587480306625 0.3115960657596588 0.06820885092020035
-0.25465336441993713 0.5512535572052002 -0.4408499300479889
-0.3268434703350067 0.5633624196052551 0.09519397467374802
-0.16294743120670319 0.9999989867210388 0.08706625550985336
-0.17767341434955597 -0.9498631954193115 0.06820885092020035
-0.35791900753974915 0.10415893793106079 0.06820885092020035
-0.2496146410703659 -0.5490033626556396 -0.46474558115005493
-0.09838239848613739 0.028210824355483055 0.09519397467374802
-0.3508535325527191 0.004666067194193602 0.09519397467374802
-0.04536464810371399 -0.8491508960723877 0.06820885092020035
-0.370456725358963 0.06311382353305817 0.09519397467374802
-0.0012821690179407597 -0.6104902625083923 0.09519397467374802
0.2047598958015442 -0.5843467116355896 -0.20870941877365112
0.06465604156255722 -0.6293050646781921 0.06820885092020035
-0.22245943546295166 0.1703663319349289 0.06820885092020035
0.0981760025024414 0.7976446747779846 0.06820885092020035
-0.2828405201435089 0.8586461544036865 0.06820885092020035
0.01233381126075983 0.24066857993602753 0.06820885092020035
-0.12550309300422668 0.7055776715278625 0.06820885092020035
-0.11425547301769257 -0.8907231688499451 0.09519397467374802
0.015016966499388218 -0.451419860124588 0.06820885092020035
0.135358527302742 -0.6627374291419983 0.06820885092020035
-0.35162153840065 -0.9466603398323059 0.09519397467374802
-0.25248605012893677 0.649800181388855 -0.5515525341033936
0.06684582680463791 -0.9785736799240112 0.06820885092020035
-0.30674052238464355 0.5266106724739075 0.09519397467374802
0.354196161031723 -0.8732131719589233 0.06820885092020035
-0.24760469794273376 -0.012437722645699978 0.06820885092020035
0.2695685029029846 -0.18625332415103912 0.09519397467374802
0.34279677271842957 0.03549410030245781 0.09519397467374802
-0.17217326164245605 -0.1523408740758896 0.09519397467374802
-0.27316200733184814 -0.9288531541824341 0.06820885092020035
-0.2614826560020447 -0.6999909281730652 0.09519397467374802
0.0735984742641449 -0.35597383975982666 0.09519397467374802
-0.39714473485946655 -0.9107567071914673 0.07556770741939545
0.20379549264907837 0.5877189636230469 0.04523714259266853
0.32426172494888306 -0.22208744287490845 0.06820885092020035
-0.307400107383728 -0.7130910158157349 0.06820885092020035
-0.3089076280593872 0.2164127230644226 0.06820885092020035
0.09086939692497253 -0.9245041012763977 0.09519397467374802
-0.17522487044334412 -0.8677512407302856 0.06820885092020035
-0.1773965060710907 0.722987711429596 0.06820885092020035
-0.11340244859457016 0.8113025426864624 0.06820885092020035
-0.05626264959573746 -0.018455522134900093 0.06820885092020035
-0.2867962419986725 0.9313302040100098 0.06820885092020035
-0.2856277823448181 0.4294341802597046 0.06820885092020035
0.2684040665626526 -0.5515356659889221 -0.053187716752290726
0.08588886260986328 -0.08372684568166733 0.09519397467374802
-0.20749016106128693 0.5704718232154846 -0.0358249731361866
0.20382234454154968 -0.5881192684173584 -0.1025422140955925
0.2156006395816803 -0.6327128410339355 -0.5982058644294739
-0.19910573959350586 -0.5865501761436462 -0.1093493178486824
0.33481791615486145 -0.3906611204147339 0.06820885092020035
-0.024299418553709984 -0.9863379597663879 0.06820885092020035
0.35928642749786377 -0.2650250792503357 0.06820885092020035
0.3361740708351135 -0.8680354952812195 0.06820885092020035
-0.299418568611145 0.6680281758308411 0.06820885092020035
0.34732377529144287 0.5467766523361206 0.06820885092020035
0.22518761456012726 0.7900927662849426 0.06820885092020035
-0.3140084743499756 -0.22236792743206024 0.09519397467374802
0.187954381108284 -0.5336198806762695 0.09519397467374802
-0.23871347308158875 -0.5498213171958923 -0.4902478754520416
0.01658339984714985 -0.8728424310684204 0.09519397467374802
0.34713464975357056 0.16119755804538727 0.06820885092020035
0.10652490705251694 -0.45291465520858765 0.06820885092020035
0.3464977443218231 0.8890351057052612 0.06820885092020035
-0.21124722063541412 0.5662626028060913 -0.330486536026001
0.09928648173809052 -0.7105191946029663 0.06820885092020035
0.14058296382427216 0.9664111137390137 0.06820885092020035
0.34119197726249695 -0.03727735951542854 0.09519397467374802
-0.04792608320713043 -0.29007741808891296 0.06820885092020035
-0.3257477879524231 0.6387022733688354 0.09519397467374802
0.25592470169067383 0.6499667167663574 -0.521109938621521
-0.26580241322517395 0.6468942761421204 -0.4303095042705536
-0.14885833859443665 -0.2817569375038147 0.06820885092020035
0.26740267872810364 -0.9610806107521057 0.06820885092020035
0.28570351004600525 0.6374955177307129 -0.09051277488470078
-0.060444120317697525 -0.13234102725982666 0.06820885092020035
-0.2624020278453827 0.5524343848228455 -0.513138473033905
-0.36920809745788574 0.6875863075256348 0.06820885092020035
-0.23296697437763214 -0.3267260491847992 0.06820885092020035
0.36568647623062134 0.28789636492729187 0.09519397467374802
-0.3092230558395386 0.42812180519104004 0.06820885092020035
-0.12299664318561554 -0.6669504642486572 0.09519397467374802
0.15774916112422943 -0.0288517065346241 0.09519397467374802
-0.08636504411697388 -0.14194487035274506 0.09519397467374802
0.3140355348587036 0.4169656038284302 0.06820885092020035
-0.08875550329685211 -0.2989116609096527 0.06820885092020035
-0.06300849467515945 -0.09118001163005829 0.06820885092020035
0.3935772180557251 -0.6679581999778748 0.06820885092020035
0.3483392298221588 0.3883974850177765 0.09519397467374802
-0.1120482087135315 0.9353736042976379 0.06820885092020035
-0.2933202385902405 -0.5809902548789978 -0.24001406133174896
-0.2136969268321991 0.9902166128158569 0.06820885092020035
0.17472511529922485 0.3598574995994568 0.09519397467374802
-0.39714473485946655 -0.6622755527496338 0.07708506286144257
0.2663283944129944 0.5524899363517761 0.025262072682380676
-0.026037409901618958 0.2856566607952118 0.06820885092020035
0.37068861722946167 0.6406248211860657 0.09519397467374802
0.2580539584159851 0.5503129363059998 -0.023698480799794197
0.24388137459754944 0.2624642848968506 0.06820885092020035
0.10922587662935257 -0.6529940366744995 0.09519397467374802
0.07483990490436554 -0.7867536544799805 0.09519397467374802
0.0003562167112249881 -0.5965643525123596 0.09519397467374802
0.19934560358524323 0.47200697660446167 0.09519397467374802
0.4024144113063812 0.6538217663764954 0.09157578647136688
0.08824276924133301 0.4377959072589874 0.06820885092020035
0.27805083990097046 0.5578608512878418 0.046018023043870926
0.048454344272613525 0.9323472380638123 0.06820885092020035
0.3354625999927521 0.1289190948009491 0.06820885092020035
0.26880380511283875 -0.26615458726882935 0.09519397467374802
0.20082500576972961 0.392343133687973 0.09519397467374802
0.4024144113063812 -0.3396683633327484 0.07882232218980789
-0.3439469039440155 0.0370299369096756 0.06820885092020035
0.033925775438547134 -0.28145352005958557 0.09519397467374802
0.30800700187683105 -0.02739023230969906 0.06820885092020035
0.20958153903484344 0.5744287371635437 -0.2549273371696472
0.0015966783976182342 0.11815299093723297 0.09519397467374802
-0.2494480460882187 0.23950381577014923 0.09519397467374802
-0.22180680930614471 0.4430147707462311 0.06820885092020035
0.045300859957933426 -0.10295696556568146 0.06820885092020035
0.2289409339427948 0.6763464212417603 0.06820885092020035
0.18346665799617767 -0.9057596921920776 0.09519397467374802
-0.26537543535232544 -0.6456508040428162 -0.2637595534324646
0.0029313054401427507 -0.6376295685768127 0.06820885092020035
-0.3151243329048157 0.4797123670578003 0.09519397467374802
-0.3308374583721161 0.8859300017356873 0.06820885092020035
-0.26222366094589233 0.6477774977684021 -0.1774372011423111
-0.24293240904808044 0.5168727040290833 0.06820885092020035
0.2802794277667999 -0.7047893404960632 0.09519397467374802
-0.26438847184181213 0.35503891110420227 0.06820885092020035
-0.028861597180366516 0.3526405990123749 0.06820885092020035
0.012630957178771496 0.9779170155525208 0.09519397467374802
-0.3071037828922272 0.28667354583740234 0.06820885092020035
0.34728479385375977 0.5411776900291443 0.06820885092020035
-0.34528329968452454 0.7881906628608704 0.09519397467374802
0.20184426009655 0.08322181552648544 0.06820885092020035
0.0635012686252594 0.7938365936279297 0.06820885092020035
-0.2555893361568451 -0.3597750961780548 0.06820885092020035
0.10631535947322845 -0.7382859587669373 0.06820885092020035
-0.1244194433093071 0.9147778153419495 0.09519397467374802
0.15781773626804352 0.0016231285408139229 0.06820885092020035
0.25316858291625977 -0.6489729285240173 -0.4091356694698334
-0.14607857167720795 0.43054836988449097 0.06820885092020035
0.28320762515068054 0.6392316222190857 -0.08735954761505127
-0.2190147340297699 0.04263481870293617 0.06820885092020035
0.21156148612499237 -0.6283336877822876 0.04541264474391937
0.3599891662597656 0.08556348085403442 0.06820885092020035
-0.29672977328300476 0.605543315410614 -0.5315263867378235
0.30767887830734253 0.27880164980888367 0.06820885092020035
-0.07427649945020676 0.951846718788147 0.06820885092020035
-0.24103319644927979 0.6498619914054871 -0.4241202473640442
-0.22036215662956238 0.21584132313728333 0.09519397467374802
-0.035059697926044464 -0.49727970361709595 0.06820885092020035
-0.26388415694236755 -0.6461191773414612 -0.3194621205329895
0.2906114459037781 0.567802369594574 -0.5600305199623108
-0.1999550461769104 -0.5837457180023193 -0.5928121209144592
0.1058584600687027 0.3456045389175415 0.06820885092020035
-0.20911024510860443 0.6317414045333862 0.016916759312152863
-0.39714473485946655 -0.7869629859924316 0.08060186356306076
-0.07035212218761444 0.041674837470054626 0.06820885092020035
0.14334672689437866 0.799452006816864 0.09519397467374802
0.35423845052719116 0.256918340921402 0.09519397467374802
-0.10736294090747833 -0.11215270310640335 0.09519397467374802
0.3296144902706146 -0.7781590223312378 0.09519397467374802
-0.09742413461208344 0.4691455066204071 0.06820885092020035
-0.10228525847196579 -0.4574662148952484 0.06820885092020035
-0.3773529827594757 0.43757525086402893 0.06820885092020035
0.33433815836906433 0.41347208619117737 0.06820885092020035
0.19636467099189758 0.7912954688072205 0.06820885092020035
0.3398469388484955 0.8870919942855835 0.06820885092020035
0.3524490296840668 0.6140230298042297 0.09519397467374802
-0.24530979990959167 -0.04842929169535637 0.06820885092020035
-0.3531874418258667 0.1771472543478012 0.09519397467374802
-0.2967967987060547 0.6046181321144104 -0.3043188750743866
0.3844219446182251 0.8626368045806885 0.06820885092020035
-0.27339276671409607 -0.6726831197738647 0.06820885092020035
0.04330369830131531 0.5451074242591858 0.06820885092020035
-0.22985416650772095 0.7970032095909119 0.06820885092020035
0.2736155092716217 0.6452965140342712 -0.1529943197965622
0.20435374975204468 0.6125837564468384 -0.5686672329902649
-0.0189015194773674 0.7363189458847046 0.06820885092020035
-0.22017009556293488 -0.557188093662262 -0.6171978116035461
-0.24723143875598907 -0.6656010746955872 0.06820885092020035
0.047808121889829636 -0.19575296342372894 0.06820885092020035
-0.16710802912712097 0.8279802203178406 0.06820885092020035
0.37988725304603577 0.6135868430137634 0.06820885092020035
-0.18537698686122894 0.034552786499261856 0.09519397467374802
-0.3150009214878082 -0.12497790902853012 0.09519397467374802
-0.3042367994785309 -0.6717191934585571 0.06820885092020035
-0.29705289006233215 -0.5987973213195801 -0.1718834936618805
0.26155000925064087 0.5511554479598999 -0.030263708904385567
-0.20790517330169678 -0.6295377016067505 -0.019278371706604958
0.023836806416511536 -0.18928728997707367 0.06820885092020035
0.12403181940317154 0.3993414640426636 0.06820885092020035
0.3759819269180298 -0.11450430750846863 0.09519397467374802
-0.19778616726398468 0.605721116065979 -0.1094425842165947
-0.2042209804058075 -0.3204980194568634 0.09519397467374802
-0.25826480984687805 0.6539950966835022 0.06820885092020035
0.38322699069976807 -0.3072722852230072 0.06820885092020035
0.24084028601646423 -0.07235750555992126 0.06820885092020035
-0.2112315595149994 -0.6332760453224182 -0.19829115271568298
0.32038187980651855 0.44492143392562866 0.06820885092020035
0.025258420035243034 -0.4956776797771454 0.06820885092020035
-0.358205646276474 0.9999989867210388 0.07915514707565308
-0.046195875853300095 -0.6673765778541565 0.06820885092020035
0.1327795386314392 0.4429171085357666 0.06820885092020035
-0.19320961833000183 0.9250223636627197 0.09519397467374802
-0.13155044615268707 0.299339234828949 0.09519397467374802
0.12894611060619354 -0.5412105917930603 0.09519397467374802
0.1186944767832756 -0.5384839177131653 0.06820885092020035
-0.334958016872406 0.8485267162322998 0.09519397467374802
0.33541712164878845 -0.3911054730415344 0.09519397467374802
-0.1768069863319397 -0.010101791471242905 0.06820885092020035
-0.0016343522584065795 -0.3720967769622803 0.06820885092020035
-0.1658683568239212 -0.21915669739246368 0.06820885092020035
0.2500540018081665 -0.6747515797615051 0.09519397467374802
-0.2122899740934372 0.8508313298225403 0.06820885092020035
0.12143325805664062 -0.6787348389625549 0.06820885092020035
0.2753666639328003 -0.5375552177429199 0.09519397467374802
0.2266109138727188 -0.20557811856269836 0.09519397467374802
-0.17297039926052094 0.011977283284068108 0.06820885092020035
-0.3163060247898102 -0.06978775560855865 0.06820885092020035
-0.2048550546169281 0.5742378234863281 -0.22097843885421753
0.2889820635318756 -0.6871897578239441 0.09519397467374802
0.25068026781082153 -0.7714176177978516 0.06820885092020035
0.029366327449679375 0.986346423625946 0.06820885092020035
0.26519522070884705 -0.6982229948043823 0.09519397467374802
-0.1976836770772934 -0.1513029932975769 0.09519397467374802
-0.11074765026569366 0.14678911864757538 0.09519397467374802
0.24451516568660736 0.21132586896419525 0.09519397467374802
0.2036166489124298 0.6110737323760986 -0.2798815369606018
0.2449440062046051 0.3047254681587219 0.06820885092020035
0.11442914605140686 0.6330572366714478 0.09519397467374802
-0.2390308678150177 0.3588681221008301 0.09519397467374802
-0.10420992970466614 -0.4994673430919647 0.09519397467374802
-0.2892268896102905 0.5496921539306641 0.09519397467374802
0.27972090244293213 -0.7239001393318176 0.06820885092020035
-0.10090489685535431 0.4335267245769501 0.09519397467374802
0.30203303694725037 0.6016450524330139 -0.3552570343017578
0.02780010923743248 -0.28366154432296753 0.06820885092020035
0.20757967233657837 0.8085564374923706 0.06820885092020035
-0.24359840154647827 -0.0727543830871582 0.09519397467374802
-0.2399609386920929 -0.648801863193512 -0.3676639497280121
-0.2594352066516876 -0.7876730561256409 0.09519397467374802
0.009959396906197071 -0.3523315489292145 0.06820885092020035
-0.19554656744003296 -0.707184374332428 0.09519397467374802
0.09085148572921753 0.03938056901097298 0.09519397467374802
-0.04137670248746872 0.7555831670761108 0.06820885092020035
-0.39466631412506104 0.2891958951950073 0.09519397467374802
0.19067026674747467 -0.29272574186325073 0.09519397467374802
0.4024144113063812 -0.2435230165719986 0.07570069283246994
-0.3735864460468292 -0.35346582531929016 0.06820885092020035
-0.22348332405090332 0.8286531567573547 0.09519397467374802
-0.027719225734472275 -0.9578472971916199 0.09519397467374802
0.19728294014930725 0.06706538051366806 0.06820885092020035
-0.19871161878108978 0.5884764790534973 0.011953553184866905
-0.19867897033691406 -0.6083806753158569 -0.340305358171463
0.12529993057250977 0.738311767578125 0.09519397467374802
0.19160538911819458 0.13361072540283203 0.06820885092020035
0.2971538305282593 -0.6216519474983215 -0.47479501366615295
0.4024144113063812 0.8865099549293518 0.06832524389028549
0.2745652496814728 -0.5541732907295227 -0.08606918156147003
0.047358736395835876 -0.7234118580818176 0.09519397467374802
-0.1635490357875824 -0.5105886459350586 0.06820885092020035
-0.3526235520839691 -0.24572481215000153 0.06820885092020035
-0.21828673779964447 0.5595539212226868 -0.11797090619802475
0.07010891288518906 -0.7628861665725708 0.09519397467374802
-0.10743948817253113 0.0896371603012085 0.09519397467374802
-0.10807277262210846 0.5988168120384216 0.06820885092020035
0.3901650309562683 0.6055396795272827 0.09519397467374802
-0.35529133677482605 0.9790641069412231 0.09519397467374802
0.26594558358192444 0.21644066274166107 0.06820885092020035
-0.36615243554115295 -0.3084338903427124 0.06820885092020035
-0.3834156394004822 0.3090812861919403 0.06820885092020035
-0.18659532070159912 0.31730741262435913 0.09519397467374802
0.29064756631851196 0.9046482443809509 0.09519397467374802
0.13465097546577454 0.6844823360443115 0.06820885092020035
0.2765253484249115 -0.2235739380121231 0.06820885092020035
0.1564968228340149 0.7337874174118042 0.09519397467374802
-0.033147912472486496 -0.3786352872848511 0.06820885092020035
0.11148734390735626 -0.5643721222877502 0.09519397467374802
0.15035909414291382 0.22477328777313232 0.09519397467374802
-0.20092733204364777 0.5815616846084595 -0.16764801740646362
-0.21839895844459534 0.7672887444496155 0.09519397467374802
-0.34476131200790405 -0.6347339749336243 0.09519397467374802
0.39169228076934814 -0.6661044955253601 0.09519397467374802
-0.12135764211416245 -0.485927939414978 0.09519397467374802
-0.2620922327041626 0.023206809535622597 0.09519397467374802
-0.18636861443519592 -0.19208495318889618 0.06820885092020035
0.06022309511899948 0.577567994594574 0.09519397467374802
-0.24549315869808197 -0.26810356974601746 0.09519397467374802
-0.20197175443172455 -0.3741738796234131 0.06820885092020035
-0.25299426913261414 -0.8685389757156372 0.06820885092020035
0.3186742961406708 -0.6478546261787415 0.06820885092020035
0.05416747182607651 -0.9558026790618896 0.09519397467374802
-0.30557456612586975 0.7232673764228821 0.09519397467374802
-0.02972385659813881 -0.21975743770599365 0.09519397467374802
-0.0013961814111098647 -0.1933869570493698 0.06820885092020035
0.1410374641418457 -0.3784753382205963 0.06820885092020035
-0.11611098796129227 0.560441255569458 0.06820885092020035
0.17446212470531464 -0.5724043250083923 0.09519397467374802
0.2982354462146759 -0.5786709785461426 -0.6298308372497559
-0.2728150188922882 0.14455744624137878 0.06820885092020035
-0.23019453883171082 -0.27757614850997925 0.06820885092020035
0.3406147062778473 0.321716845035553 0.06820885092020035
-0.1228325217962265 0.27505701780319214 0.09519397467374802
0.002620839746668935 -0.10235768556594849 0.09519397467374802
0.04076569899916649 -0.6212277412414551 0.09519397467374802
-0.36917951703071594 -0.42085590958595276 0.06820885092020035
0.25578826665878296 -0.6490294337272644 -0.029613066464662552
0.2896569073200226 0.5671915411949158 0.033430784940719604
0.05451769381761551 -0.20274154841899872 0.06820885092020035
0.18269626796245575 -0.5601530075073242 0.09519397467374802
-0.15284264087677002 -0.8231914639472961 0.06820885092020035
-0.21047428250312805 -0.5655896067619324 -0.48511749505996704
-0.339648962020874 0.8679724931716919 0.09519397467374802
0.1352042853832245 0.719332218170166 0.06820885092020035
0.1880757212638855 -0.3004615902900696 0.06820885092020035
-0.16768711805343628 -0.35735711455345154 0.06820885092020035
0.2878879904747009 -0.5646668672561646 -0.6296611428260803
0.26691383123397827 0.7851753830909729 0.09519397467374802
0.4024144113063812 0.08503435552120209 0.07217254489660263
0.2983532249927521 0.620373547077179 -0.5427800416946411
0.3368222713470459 0.6135237216949463 0.09519397467374802
0.40161776542663574 0.2464710921049118 0.06820885092020035
-0.2959286868572235 0.5906640887260437 0.03133995831012726
-0.26827090978622437 -0.6443076729774475 -0.19629527628421783
-0.08312489092350006 -0.26882827281951904 0.06820885092020035
0.16728587448596954 0.15831664204597473 0.06820885092020035
0.12545014917850494 0.41652265191078186 0.09519397467374802
0.2968662977218628 -0.620884895324707 -0.004212033003568649
-0.3440486490726471 0.1312263458967209 0.09519397467374802
0.22422412037849426 0.15546981990337372 0.09519397467374802
0.20321372151374817 -0.5937698483467102 -0.14812126755714417
0.2914683520793915 0.30946084856987 0.09519397467374802
0.12311631441116333 0.5680217742919922 0.06820885092020035
-0.14532238245010376 0.8141895532608032 0.09519397467374802
0.038576167076826096 -0.8447220325469971 0.06820885092020035
-0.18032723665237427 0.3444726765155792 0.09519397467374802
-0.031671326607465744 -0.36084505915641785 0.06820885092020035
0.3708442449569702 0.30036818981170654 0.09519397467374802
-0.2873370051383972 0.6531088948249817 0.09519397467374802
0.03422750532627106 0.9045888781547546 0.09519397467374802
0.23756776750087738 -0.2387363463640213 0.09519397467374802
-0.3674980700016022 0.8438799977302551 0.06820885092020035
0.3007233738899231 0.5897814035415649 0.01763913966715336
0.2689670920372009 -0.6463936567306519 -0.4597932994365692
0.0420135036110878 0.23137249052524567 0.06820885092020035
0.06268683075904846 0.9892933964729309 0.06820885092020035
0.2487584799528122 -0.739119291305542 0.06820885092020035
-0.06327672302722931 0.376536101102829 0.09519397467374802
0.4024144113063812 0.903895378112793 0.09201792627573013
-0.3593739867210388 -0.39687731862068176 0.06820885092020035
0.18968738615512848 0.26358896493911743 0.06820885092020035
0.24300503730773926 0.6319712996482849 -0.6314054131507874
0.07461821287870407 -0.6856376528739929 0.09519397467374802
0.3847493827342987 -0.412015438079834 0.06820885092020035
-0.2758481800556183 -0.00993934366852045 0.09519397467374802
0.21220415830612183 -0.18295900523662567 0.09519397467374802
-0.13489727675914764 0.7598553895950317 0.06820885092020035
0.11514373123645782 0.9873825907707214 0.06820885092020035
-0.2379177361726761 0.5893821716308594 -0.6314054131507874
-0.29283463954925537 -0.6195629835128784 -0.2670856714248657
-0.22574420273303986 0.6451233625411987 -0.44269701838493347
0.16705863177776337 0.5051406621932983 0.06820885092020035
0.05026215314865112 -0.9091601371765137 0.06820885092020035
-0.2730609178543091 -0.8472670316696167 0.09519397467374802
0.13966505229473114 -0.8007803559303284 0.06820885092020035
0.23250965774059296 0.5548156499862671 -0.3689514398574829
-0.16742531955242157 0.18989382684230804 0.06820885092020035
-0.3053619861602783 0.517238974571228 0.09519397467374802
-0.25536048412323 -0.5498327612876892 -0.43087977170944214
0.29674768447875977 -0.6210411787033081 -0.20011430978775024
0.22342313826084137 0.559554398059845 -0.14483514428138733
0.2513204514980316 -0.5491430759429932 -0.04796281456947327
0.11079496145248413 -0.513351559638977 0.09519397467374802
-0.19763611257076263 0.5920636653900146 -0.3950624465942383
-0.2875156104564667 -0.6287123560905457 -0.1537940800189972
-0.0638299286365509 -0.6389693021774292 0.09519397467374802
0.06364797800779343 0.5186566710472107 0.09519397467374802
-0.25039103627204895 -0.5493636727333069 -0.04797141253948212
0.36493152379989624 0.24013511836528778 0.09519397467374802
-0.05277908220887184 -0.4997478425502777 0.06820885092020035
-0.23045168817043304 -0.30372700095176697 0.06820885092020035
-0.29427090287208557 -0.6161126494407654 -0.14781947433948517
-0.03194315731525421 0.21407197415828705 0.09519397467374802
-0.25600510835647583 0.13257668912410736 0.06820885092020035
-0.2687530815601349 0.781003475189209 0.09519397467374802
-0.30361098051071167 -0.7655251026153564 0.06820885092020035
0.09021202474832535 0.07089090347290039 0.06820885092020035
0.07445142418146133 0.7733247876167297 0.06820885092020035
-0.004031796008348465 0.8120328783988953 0.06820885092020035
0.21323493123054504 0.6086575984954834 -0.6314054131507874
-0.21484898030757904 0.6378692388534546 -0.035236552357673645
0.0913781002163887 -0.4113446772098541 0.06820885092020035
-0.2527325451374054 0.5291589498519897 0.06820885092020035
0.19114962220191956 0.23537126183509827 0.09519397467374802
-0.0716247707605362 0.8266972899436951 0.09519397467374802
0.2802242040634155 0.5589739680290222 -0.4373408555984497
-0.16314120590686798 -0.5727828741073608 0.06820885092020035
-0.21539242565631866 0.6389045119285583 -0.36125388741493225
0.02139154076576233 -0.5520589351654053 0.09519397467374802
-0.27756816148757935 -0.12509770691394806 0.09519397467374802
0.1684660166501999 -0.32845067977905273 0.09519397467374802
0.034534331411123276 -0.9893479943275452 0.09519397467374802
0.2922491729259491 0.832424521446228 0.06820885092020035
-0.3461924195289612 0.755704939365387 0.06820885092020035
