0.9033446907997131 -0.4040515422821045 -0.07562761753797531
-0.10174962133169174 0.1160043329000473 -0.5158074498176575
0.16646166145801544 0.40454933047294617 -0.269424706697464
-0.748446524143219 0.40454933047294617 -0.23540888726711273
0.681304395198822 -0.3638472557067871 0.09064317494630814
-0.7688155174255371 -0.3553737998008728 0.1623506247997284
-0.6888718605041504 0.40454933047294617 0.6015238165855408
-0.5515069365501404 0.18082022666931152 -0.5158074498176575
-0.431842178106308 -0.4040515422821045 0.04199644923210144
0.191398024559021 0.19528037309646606 0.30592164397239685
-0.0036450116895139217 0.40454933047294617 -0.23193024098873138
0.4220879077911377 -0.4040515422821045 -0.35083338618278503
0.22510749101638794 -0.1075100228190422 -0.5158074498176575
-0.7688155174255371 -0.18956232070922852 0.37305155396461487
-0.522583544254303 0.40454933047294617 -0.3527878224849701
0.8723378777503967 -0.4040515422821045 -0.05327160656452179
0.3407084047794342 -0.13680891692638397 0.098044253885746
0.22763489186763763 -0.4040515422821045 -0.129983589053154
0.8762009739875793 0.07070651650428772 -0.49967366456985474
-0.4365525543689728 -0.4040515422821045 0.095441073179245
-0.7688155174255371 -0.28559139370918274 0.032303255051374435
-0.4310612678527832 0.31974610686302185 0.6970938444137573
0.561846911907196 0.16534915566444397 0.09064317494630814
-0.6940202116966248 -0.4040515422821045 0.1952807605266571
0.7922574281692505 -0.4040515422821045 -0.20658855140209198
-0.7688155174255371 -0.046889495104551315 0.3476337492465973
-0.19607029855251312 -0.4040515422821045 0.25798559188842773
0.99410480260849 0.03633052855730057 -0.06425707042217255
0.7469533681869507 0.14907371997833252 0.09064317494630814
-0.5465570092201233 0.40454933047294617 -0.3716612160205841
0.23747332394123077 -0.4040515422821045 0.08892929553985596
0.37254855036735535 -0.00881679356098175 0.09182199090719223
-0.33936047554016113 -0.4040515422821045 -0.13169752061367035
-0.7569780349731445 0.3770739436149597 0.5628958344459534
-0.30002182722091675 -0.4040515422821045 0.07135382294654846
0.5069003105163574 -0.14499905705451965 -0.5158074498176575
0.9275640249252319 0.11717735230922699 -0.4683995842933655
-0.319365918636322 -0.4040515422821045 0.24498413503170013
-0.7688155174255371 -0.0844312310218811 0.45700570940971375
0.34441402554512024 0.3772776126861572 0.09670720249414444
-0.14044632017612457 0.3869892954826355 -0.5158074498176575
0.8874407410621643 0.40454933047294617 -0.007772320881485939
0.8028795123100281 0.3671858310699463 -0.5156179070472717
-0.539993405342102 -0.05377521738409996 -0.5158074498176575
-0.6309239268302917 -0.4040515422821045 0.07565843313932419
-0.719901442527771 -0.4040515422821045 -0.4326232373714447
0.04297804459929466 0.40454933047294617 -0.3966980278491974
0.9545875191688538 -0.3075841963291168 0.016052989289164543
-0.4688648581504822 0.40454933047294617 -0.0013232065830379725
0.10051967948675156 -0.4040515422821045 0.03779967501759529
0.6352431774139404 -0.14794154465198517 -0.5158074498176575
-0.016322219744324684 -0.4040515422821045 -0.2048502266407013
-0.5397064089775085 -0.4040515422821045 -0.030638135969638824
0.17080920934677124 -0.4040515422821045 -0.31582003831863403
-0.6661462783813477 0.13128994405269623 -0.48927178978919983
0.796583354473114 -0.4040515422821045 -0.48923158645629883
0.3778665065765381 0.11933111399412155 -0.5158074498176575
-0.22040018439292908 -0.4040515422821045 0.15602660179138184
0.44553452730178833 -0.0974547266960144 -0.5158074498176575
0.963057816028595 -0.25250375270843506 -0.4297718107700348
-0.5296615362167358 0.40454933047294617 0.6057540774345398
0.9702980518341064 0.2748233675956726 -0.41875505447387695
0.1428886502981186 -0.4040515422821045 0.4392133355140686
-0.2634565532207489 -0.4040515422821045 0.5868083834648132
-0.09723079204559326 -0.25110501050949097 0.6970938444137573
-0.06049061566591263 0.40454933047294617 -0.3113732635974884
0.1422286182641983 -0.13710694015026093 0.6266562342643738
0.6949604153633118 -0.2578251361846924 0.09064317494630814
-0.30793729424476624 -0.08953148871660233 -0.5158074498176575
-0.3550442159175873 -0.4040515422821045 -0.2855009436607361
0.191398024559021 -0.23105484247207642 0.4502233564853668
0.5502882599830627 0.40454933047294617 -0.09647467732429504
0.04706187918782234 0.07914004474878311 -0.5158074498176575
0.999998927116394 -0.10027063637971878 -0.15368099510669708
-0.7688155174255371 -0.12618689239025116 -0.17668618261814117
-0.061128661036491394 0.40454933047294617 0.6359976530075073
-0.7361781001091003 0.40454933047294617 0.3003232181072235
0.06232933700084686 0.40454933047294617 -0.26250889897346497
-0.7446547746658325 -0.19985827803611755 -0.40877944231033325
-0.43980613350868225 0.3412421941757202 0.6970938444137573
0.7710415124893188 0.060178305953741074 0.09064317494630814
-0.18815042078495026 0.40454933047294617 -0.3932398557662964
-0.45082026720046997 -0.15101821720600128 0.6970938444137573
0.7689074873924255 -0.4040515422821045 -0.40175458788871765
0.999998927116394 -0.25466448068618774 -0.15928485989570618
-0.41548794507980347 -0.4040515422821045 -0.20891347527503967
-0.42502450942993164 -0.0706753060221672 0.6970938444137573
-0.7688155174255371 0.26931533217430115 -0.07262620329856873
-0.7688155174255371 -0.2541756331920624 0.42915230989456177
0.5803244113922119 0.40454933047294617 -0.09807367622852325
0.25048163533210754 0.3917691707611084 0.14998751878738403
-0.7688155174255371 -0.25110891461372375 0.03800078108906746
0.7298025488853455 -0.3498791456222534 0.09064317494630814
0.8929575085639954 0.2283650040626526 -0.4915579855442047
-0.13700562715530396 0.40454933047294617 0.6021794676780701
0.20971634984016418 -0.014785218983888626 0.2089318484067917
0.4227156341075897 -0.004994662012904882 -0.5158074498176575
0.8144218325614929 -0.02980891428887844 -0.5150915384292603
0.01582140289247036 0.1851404458284378 -0.5158074498176575
0.7053337097167969 -0.4040515422821045 -0.11105360090732574
0.5516685247421265 0.050125833600759506 0.09064317494630814
0.5209472179412842 0.40454933047294617 -0.15632057189941406
0.930777907371521 -0.04945029318332672 0.04034869372844696
0.13901478052139282 0.40454933047294617 0.3466930091381073
0.17719043791294098 -0.4040515422821045 -0.18490995466709137
0.9946876168251038 0.09463787078857422 -0.0663946196436882
0.10642662644386292 -0.31681111454963684 0.6594136357307434
0.17804348468780518 -0.4040515422821045 -0.11322303116321564
-0.39671236276626587 -0.4040515422821045 -0.378195196390152
-0.7688155174255371 0.3808594346046448 0.2452053278684616
0.9950767159461975 -0.32780399918556213 -0.06786765158176422
0.1507093608379364 0.40454933047294617 -0.09479528665542603
0.191398024559021 0.16506227850914001 0.4254419505596161
0.5665313005447388 0.03772031515836716 0.09064317494630814
0.6094399094581604 0.40454933047294617 0.014947826974093914
0.9316354393959045 -0.26326388120651245 0.0397491455078125
-0.6833862662315369 -0.4040515422821045 0.3537787199020386
-0.04477753862738609 -0.4040515422821045 -0.3214062452316284
-0.18418772518634796 -0.4040515422821045 -0.4935179054737091
-0.6086077094078064 0.40454933047294617 -0.475799560546875
0.6645177006721497 0.014872686006128788 0.09064317494630814
-0.6939806938171387 0.2988984286785126 -0.47064003348350525
-0.6324647665023804 -0.21773546934127808 0.6859222054481506
-0.5582121014595032 0.40454933047294617 -0.037436146289110184
0.191398024559021 -0.04746153578162193 0.30974292755126953
-0.7688155174255371 -0.24386145174503326 0.06714065372943878
-0.7688155174255371 0.12457575649023056 0.08070594817399979
0.999998927116394 0.09812294691801071 -0.11992698907852173
0.6176746487617493 0.23608443140983582 -0.5158074498176575
0.31527578830718994 -0.011642937548458576 0.10674194991588593
-0.5158044099807739 -0.4040515422821045 0.0020570058841258287
-0.1322832554578781 -0.4040515422821045 -0.35830384492874146
0.49457597732543945 0.40454933047294617 0.011248228140175343
-0.2823115587234497 -0.4040515422821045 0.3432576060295105
-0.7626980543136597 -0.24679312109947205 0.543998122215271
-0.05470158904790878 0.40454933047294617 -0.026053059846162796
-0.37569454312324524 -0.4040515422821045 0.5242404937744141
0.21268603205680847 -0.4040515422821045 -0.13534381985664368
-0.39081522822380066 -0.4040515422821045 -0.3750789165496826
-0.27562180161476135 -0.4040515422821045 -0.454824835062027
0.516298234462738 0.02609914541244507 -0.5158074498176575
-0.15176066756248474 0.40454933047294617 -0.3910968601703644
0.02656644582748413 0.34774768352508545 -0.5158074498176575
-0.7060543298721313 -0.07924827933311462 0.6410493850708008
0.999998927116394 -0.3974303603172302 -0.1836601346731186
-0.6767207384109497 0.40454933047294617 -0.41763707995414734
-0.22093822062015533 0.40454933047294617 -0.20736415684223175
-0.7688155174255371 -0.12474960088729858 0.332715779542923
-0.6186127066612244 -0.4040515422821045 -0.05976829305291176
0.9373154044151306 0.40454933047294617 -0.19071064889431
0.6701676845550537 0.07099490612745285 -0.5158074498176575
-0.08133342862129211 -0.4040515422821045 0.09611931443214417
-0.26550036668777466 -0.1898847371339798 -0.5158074498176575
-0.5640512108802795 0.25042927265167236 -0.5158074498176575
0.996460497379303 -0.2141515463590622 -0.3508577346801758
-0.7688155174255371 0.09577406197786331 -0.09515202045440674
-0.7688155174255371 -0.31898316740989685 0.22598174214363098
0.9196977615356445 0.3363025188446045 -0.4748564660549164
0.4153578579425812 0.39002683758735657 -0.5158074498176575
0.6305148005485535 0.2271920144557953 -0.5158074498176575
-0.21208788454532623 0.22060340642929077 0.6970938444137573
0.7391991019248962 -0.25285983085632324 -0.5158074498176575
-0.05086281895637512 0.40454933047294617 -0.27527526021003723
0.5515366792678833 -0.40132272243499756 0.09064317494630814
0.9298195242881775 0.40454933047294617 0.02863796427845955
0.5745739936828613 -0.2846800684928894 0.09064317494630814
-0.06214578077197075 0.40454933047294617 0.6931653618812561
-0.7688155174255371 -0.13843919336795807 -0.03665759786963463
0.191398024559021 0.2269372195005417 0.3945307731628418
0.191398024559021 0.3403364419937134 0.4495787024497986
0.22450849413871765 0.12004532665014267 0.18230268359184265
0.35933372378349304 -0.4040515422821045 -0.08222667872905731
0.999998927116394 0.35759058594703674 -0.2835022509098053
0.1418915092945099 0.3540184199810028 -0.5158074498176575
-0.15345408022403717 -0.4040515422821045 0.6810550093650818
0.191398024559021 -0.10521785169839859 0.41134893894195557
0.9314008951187134 0.13699904084205627 -0.46498724818229675
0.7163850665092468 -0.015680532902479172 -0.5158074498176575
0.999998927116394 -0.27796870470046997 -0.12552936375141144
0.0865190252661705 -0.2898212671279907 -0.5158074498176575
0.5232783555984497 0.40454933047294617 -0.4071444571018219
-0.6918561458587646 -0.4040515422821045 -0.16440775990486145
-0.3372325897216797 -0.11122583597898483 0.6970938444137573
0.3155076205730438 -0.16905741393566132 0.1066792830824852
-0.7616775035858154 -0.4040515422821045 0.4189649820327759
0.4120330810546875 0.2132459580898285 0.09064317494630814
-0.6142533421516418 0.40454933047294617 -0.030126024037599564
-0.12244585901498795 -0.2406839281320572 -0.5158074498176575
-0.32033419609069824 -0.21338969469070435 0.6970938444137573
-0.5656572580337524 0.40454933047294617 0.18252892792224884
-0.417154461145401 0.0749589055776596 0.6970938444137573
0.24893638491630554 -0.4040515422821045 0.09015298634767532
0.22767327725887299 -0.4040515422821045 0.14161425828933716
-0.3124660849571228 0.40454933047294617 0.33751392364501953
0.1845918744802475 0.20101618766784668 0.5467405915260315
0.04374335706233978 0.40454933047294617 0.13364921510219574
-0.7535253167152405 -0.2180427759885788 -0.3904331624507904
-0.52693110704422 -0.4040515422821045 0.2674157917499542
0.856240451335907 -0.4040515422821045 -0.37617260217666626
0.33733224868774414 0.061612293124198914 0.09893501549959183
0.46921876072883606 0.40454933047294617 -0.13471557199954987
0.39298734068870544 0.40454933047294617 -0.15957970917224884
0.0405120924115181 0.40454933047294617 0.18990638852119446
0.8577312231063843 -0.07032070308923721 0.08136627823114395
-0.6995010375976562 0.385268896818161 -0.465877503156662
0.8809751272201538 0.35134708881378174 0.07252832502126694
-0.32909780740737915 0.07649114727973938 -0.5158074498176575
-0.5151640176773071 0.40454933047294617 -0.35987958312034607
-0.09778188914060593 -0.4040515422821045 0.1020214632153511
-0.11501544713973999 0.30906689167022705 -0.5158074498176575
-0.690129816532135 0.12866584956645966 0.6548210382461548
0.4613010287284851 -0.4040515422821045 0.05729122832417488
0.913611114025116 -0.19256995618343353 0.05380026251077652
0.737723708152771 -0.4040515422821045 -0.1633562445640564
-0.5314475297927856 0.40454933047294617 -0.42256802320480347
-0.6762821674346924 -0.4040515422821045 -0.0231047160923481
-0.7688155174255371 -0.37274736166000366 -0.23029281198978424
0.15303407609462738 0.3518781363964081 0.6130472421646118
0.029638687148690224 -0.4040515422821045 0.14934638142585754
0.916393518447876 0.25964856147766113 -0.47717952728271484
0.191398024559021 0.3949505686759949 0.46693405508995056
-0.08836551755666733 -0.3671673536300659 -0.5158074498176575
-0.07860158383846283 0.19109022617340088 -0.5158074498176575
0.999998927116394 -0.19813092052936554 -0.11719198524951935
0.7695906758308411 0.40454933047294617 -0.2962326407432556
-0.7464324831962585 0.3204728066921234 -0.40568435192108154
-0.7688155174255371 -0.3915305733680725 0.25278985500335693
-0.28809547424316406 0.05862114578485489 0.6970938444137573
0.023007595911622047 -0.4040515422821045 0.05127941817045212
-0.4166722595691681 0.40454933047294617 0.2780289649963379
0.191398024559021 0.04891772195696831 0.47593948245048523
-0.28732702136039734 -0.4040515422821045 0.1102214977145195
0.47763770818710327 0.2548392713069916 0.09064317494630814
-0.7688155174255371 0.10903296619653702 0.4775267541408539
-0.7024644613265991 -0.4040515422821045 -0.38522619009017944
-0.1951352059841156 0.2892399728298187 -0.5158074498176575
0.39250242710113525 -0.1503085196018219 -0.5158074498176575
0.7298091053962708 -0.08116338402032852 -0.5158074498176575
-0.6133672595024109 -0.10999680310487747 0.6913620829582214
-0.3543579578399658 0.40454933047294617 0.22426998615264893
-0.29596880078315735 0.40454933047294617 0.25557422637939453
-0.12485285103321075 -0.4040515422821045 -0.011868845671415329
-0.2931639850139618 0.40454933047294617 -0.08855732530355453
-0.7688155174255371 0.09230981767177582 0.4817586839199066
0.5700103044509888 -0.4040515422821045 -0.2170473337173462
0.4887073040008545 -0.4040515422821045 -0.18059277534484863
0.191398024559021 0.11335290968418121 0.40107157826423645
-0.46853458881378174 -0.4040515422821045 -0.46487340331077576
-0.6775071024894714 0.0017844951944425702 -0.4824097752571106
0.842506468296051 0.40454933047294617 -0.07075630873441696
-0.023895440623164177 -0.4040515422821045 0.10892197489738464
-0.4076727330684662 0.009313056245446205 0.6970938444137573
-0.009347758255898952 -0.4040515422821045 0.5723094344139099
-0.18101389706134796 0.40454933047294617 0.3964523673057556
-0.4453319013118744 0.40454933047294617 -0.038049809634685516
0.6915481090545654 0.40454933047294617 0.062111470848321915
0.9186753630638123 -0.3192156255245209 0.050295330584049225
-0.3773210048675537 0.22495947778224945 -0.5158074498176575
-0.3897274434566498 0.30141469836235046 -0.5158074498176575
-0.3401621878147125 -0.3417053818702698 0.6970938444137573
0.999998927116394 -0.21634000539779663 -0.17755071818828583
-0.7688155174255371 -0.1690891683101654 0.28520068526268005
-0.35352247953414917 -0.08497124165296555 -0.5158074498176575
-0.7688155174255371 0.3417578637599945 0.19815541803836823
-0.45766639709472656 -0.35546740889549255 0.6970938444137573
0.999998927116394 -0.026504389941692352 -0.19524168968200684
0.9634621739387512 0.28021857142448425 0.003913393244147301
-0.7274890542030334 0.40454933047294617 -0.116609588265419
-0.43097397685050964 0.05490390583872795 0.6970938444137573
0.5158095955848694 0.15904901921749115 -0.5158074498176575
-0.4879307150840759 0.40454933047294617 -0.4524800479412079
-0.43598461151123047 -0.18483023345470428 0.6970938444137573
0.30664652585983276 0.04435435310006142 0.11036965250968933
0.999998927116394 0.11138246208429337 -0.2584240138530731
0.9734700322151184 -0.09315367043018341 -0.4131444990634918
0.3796720802783966 -0.36881187558174133 -0.5158074498176575
0.8778308629989624 0.142330139875412 0.07381133735179901
0.3119978904724121 -0.4040515422821045 -0.16500435769557953
0.07443923503160477 -0.4040515422821045 0.19681502878665924
-0.2552141547203064 0.03180365264415741 -0.5158074498176575
0.5539363026618958 0.2936252951622009 0.09064317494630814
-0.3859221339225769 0.40454933047294617 0.17265327274799347
0.18820883333683014 -0.06894922256469727 -0.5158074498176575
-0.47300413250923157 0.40454933047294617 0.25338658690452576
-0.74993896484375 -0.4040515422821045 0.2601832151412964
0.7036624550819397 -0.13442069292068481 -0.5158074498176575
-0.7688155174255371 -0.09481353312730789 0.05897340923547745
-0.7400712370872498 -0.25060832500457764 -0.41684988141059875
0.4028349816799164 0.3895205557346344 0.09064317494630814
0.62932288646698 0.33725881576538086 0.09064317494630814
0.999998927116394 -0.110054612159729 -0.21507635712623596
-0.7687487006187439 0.036949872970581055 -0.3156382143497467
-0.13683506846427917 0.40454933047294617 -0.128910094499588
0.7461654543876648 0.40454933047294617 -0.4471134841442108
-0.7554430365562439 0.021879298612475395 -0.38506582379341125
-0.5058711767196655 0.2006608247756958 -0.5158074498176575
0.42791786789894104 -0.335509717464447 0.09064317494630814
0.999998927116394 0.1893233060836792 -0.20977099239826202
-0.7688155174255371 -0.3692967891693115 -0.04861339181661606
-0.17547042667865753 0.28599631786346436 -0.5158074498176575
-0.22812514007091522 -0.4040515422821045 0.5491934418678284
-0.6410840153694153 0.0027323926333338022 -0.5012391805648804
-0.7467604875564575 0.10930129140615463 0.5862054228782654
-0.39800459146499634 -0.2614782750606537 -0.5158074498176575
-0.7636688947677612 -0.2845593988895416 0.5392745733261108
-0.7688155174255371 -0.3368850350379944 -0.21176020801067352
0.20772899687290192 -0.4040515422821045 -0.0570867545902729
-0.5369144082069397 0.2768363654613495 -0.5158074498176575
0.7667989134788513 0.21159727871418 0.09064317494630814
0.8581326007843018 -0.3910539150238037 0.08122121542692184
0.04161209240555763 -0.22804053127765656 0.6900238394737244
-0.10109888762235641 -0.08138073235750198 0.6970938444137573
-0.7333575487136841 -0.120323546230793 -0.42748385667800903
-0.7353408336639404 -0.4040515422821045 -0.3133775591850281
0.12412664294242859 -0.35996347665786743 -0.5158074498176575
0.16872335970401764 0.40454933047294617 0.1365831345319748
0.999998927116394 -0.24532000720500946 -0.22818498313426971
-0.7688155174255371 -0.18797849118709564 0.4509095549583435
0.8509907126426697 0.049082573503255844 0.08317293971776962
-0.29884159564971924 0.40454933047294617 0.493164598941803
0.6238221526145935 -0.4040515422821045 -0.0955590233206749
0.763408899307251 0.40454933047294617 -0.39732104539871216
0.31697580218315125 0.40454933047294617 -0.16612601280212402
0.16583114862442017 0.40454933047294617 -0.37403836846351624
0.2852879464626312 -0.3583304286003113 -0.5158074498176575
0.9674758911132812 -0.10933417081832886 -0.42329710721969604
0.7700871229171753 0.03003682754933834 0.09064317494630814
-0.13673566281795502 -0.4040515422821045 0.5957211852073669
0.1825575828552246 -0.10427726805210114 0.5531554818153381
0.32830333709716797 0.40454933047294617 0.09582215547561646
-0.5338429808616638 0.14344368875026703 -0.5158074498176575
0.7722985744476318 0.19126708805561066 0.09064317494630814
0.7891008257865906 -0.161839097738266 0.09064317494630814
0.1948503702878952 0.28411439061164856 0.2573944628238678
0.9962204098701477 -0.21926505863666534 -0.35245653986930847
0.17523416876792908 0.40454933047294617 -0.1993853598833084
-0.7688155174255371 -0.22423279285430908 0.42189234495162964
-0.5177586674690247 -0.4040515422821045 0.32897648215293884
-0.4710488021373749 -0.4040515422821045 0.634367048740387
0.02154315449297428 0.40454933047294617 0.20881417393684387
-0.7688155174255371 0.19518619775772095 0.2841813862323761
-0.6213873624801636 0.40454933047294617 0.6363341212272644
-0.17279401421546936 -0.4040515422821045 0.007700428832322359
-0.6021755933761597 -0.4040515422821045 0.28874874114990234
-0.28799355030059814 0.40454933047294617 -0.21542711555957794
-0.74867844581604 0.40454933047294617 -0.0011254420969635248
0.4508272111415863 0.40454933047294617 -0.0509333461523056
0.022696709260344505 -0.1012326255440712 0.6941908001899719
0.06813627481460571 0.39814966917037964 -0.5158074498176575
0.24783723056316376 0.40454933047294617 0.1211819127202034
0.7851170897483826 -0.19425491988658905 -0.5158074498176575
-0.7684571743011475 0.2399338036775589 -0.3218992054462433
-0.7688155174255371 0.3589862287044525 -0.1871415376663208
-0.4188554584980011 0.05277746915817261 -0.5158074498176575
-0.6880583763122559 -0.4040515422821045 0.044754769653081894
-0.7688155174255371 -0.06971104443073273 0.21555310487747192
-0.7420960068702698 0.40454933047294617 0.10086924582719803
0.6870886087417603 -0.4040515422821045 -0.18876108527183533
0.8329212069511414 -0.40216484665870667 0.0872986689209938
0.45178478956222534 0.40454933047294617 -0.3986542820930481
-0.763727605342865 0.40454933047294617 0.4171202480792999
0.2928767204284668 0.3229463994503021 0.1175941601395607
0.8933587074279785 0.40454933047294617 -0.08215666562318802
0.9458966851234436 0.37297892570495605 -0.4510374367237091
-0.3959321677684784 -0.4040515422821045 -0.07609619200229645
-0.659543514251709 -0.21494758129119873 -0.4931598901748657
0.47961655259132385 0.40454933047294617 -0.044852983206510544
-0.1633494645357132 -0.4040515422821045 0.4525757133960724
0.18685035407543182 0.3066572844982147 0.5370751023292542
-0.20442649722099304 0.40454933047294617 0.053660061210393906
0.19587957859039307 0.15959258377552032 0.2506592571735382
-0.7582706809043884 0.1771954596042633 0.5585576295852661
0.568956196308136 -0.4040515422821045 -0.45686331391334534
-0.19087699055671692 0.40454933047294617 -0.2612139880657196
0.003930212929844856 0.3028411865234375 0.6962941288948059
-0.2563346028327942 -0.4040515422821045 -0.333895206451416
-0.7301422953605652 -0.4040515422821045 -0.06823385506868362
-0.7688155174255371 -0.24229007959365845 -0.2736413776874542
-0.7654038071632385 0.40345311164855957 -0.34902679920196533
-0.38807567954063416 0.40454933047294617 -0.3719954192638397
-0.4018624722957611 0.22216768562793732 -0.5158074498176575
-0.07014051824808121 0.40174272656440735 0.6970938444137573
0.014648781158030033 0.40454933047294617 -0.10500530153512955
0.948367714881897 0.015629103407263756 0.022922102361917496
0.22457753121852875 0.40454933047294617 -0.08905944973230362
0.25215351581573486 0.40454933047294617 -0.5157111883163452
0.07146681845188141 -0.4040515422821045 -0.3103727698326111
0.999998927116394 -0.28833436965942383 -0.2641166150569916
-0.2753719985485077 0.002632326213642955 -0.5158074498176575
0.999998927116394 -0.15493184328079224 -0.24888832867145538
-0.13175785541534424 0.34006160497665405 0.6970938444137573
-0.7688155174255371 0.2270236760377884 -0.15675225853919983
-0.7149946093559265 -0.4040515422821045 -0.010248810052871704
0.7304133772850037 -0.2628413140773773 0.09064317494630814
0.7500452399253845 -0.4040515422821045 -0.2830010652542114
-0.2930110991001129 0.2317565679550171 -0.5158074498176575
-0.26986491680145264 -0.2824728190898895 0.6970938444137573
-0.7621318697929382 -0.04998842254281044 0.5451434254646301
0.30111104249954224 0.08735541254281998 -0.5158074498176575
0.10703607648611069 -0.4040515422821045 0.18291005492210388
-0.7688155174255371 0.07462543249130249 0.1948639154434204
-0.7688155174255371 0.31335440278053284 0.041836269199848175
0.32301416993141174 -0.4040515422821045 -0.1605614870786667
-0.5778154134750366 -0.4040515422821045 0.05766046419739723
0.7437024116516113 0.18062852323055267 0.09064317494630814
0.6583207249641418 -0.4040515422821045 -0.06711822003126144
0.2558583915233612 -0.4040515422821045 -0.32325053215026855
0.9564167261123657 -0.1454373300075531 0.013770530000329018
0.794863760471344 -0.3138909637928009 0.09064317494630814
-0.12721247971057892 -0.313955157995224 -0.5158074498176575
0.3902357518672943 0.3175608813762665 0.09080056101083755
-0.12421037256717682 0.40454933047294617 0.26504698395729065
0.5589514970779419 -0.06531660258769989 0.09064317494630814
0.11058812588453293 0.2985553443431854 0.6563855409622192
-0.7688155174255371 0.15262113511562347 -0.3077443242073059
-0.3263932764530182 -0.4040515422821045 -0.013158565387129784
-0.6560036540031433 0.40454933047294617 -0.4783388078212738
0.41311120986938477 -0.2260081171989441 0.09064317494630814
0.057487718760967255 0.11905927211046219 0.6850271821022034
0.9316084384918213 0.38868260383605957 0.03986481949687004
-0.6043733954429626 0.40454933047294617 0.10675111413002014
0.0007958548958413303 -0.051260411739349365 -0.5158074498176575
-0.2532574534416199 0.10737015306949615 -0.5158074498176575
-0.5325020551681519 -0.4040515422821045 -0.27299824357032776
0.17165789008140564 -0.4040515422821045 -0.4650762975215912
-0.32136255502700806 -0.4040515422821045 0.220462366938591
-0.14723223447799683 -0.06040175259113312 0.6970938444137573
0.7956465482711792 -0.4040515422821045 -0.11527745425701141
-0.11607209593057632 -0.31592878699302673 0.6970938444137573
0.3510296940803528 0.36246541142463684 -0.5158074498176575
0.767026960849762 -0.4040515422821045 -0.027986925095319748
-0.7688155174255371 -0.09784430265426636 0.4631444811820984
0.7895281910896301 -0.4040515422821045 -0.18987853825092316
-0.7688155174255371 -0.23499897122383118 0.48287132382392883
0.3292301595211029 0.2260892242193222 -0.5158074498176575
-0.5163745880126953 0.3978191018104553 -0.5158074498176575
-0.11847241222858429 0.06313487142324448 -0.5158074498176575
0.44505956768989563 -0.4040515422821045 0.033056486397981644
-0.1580248326063156 -0.4040515422821045 0.140570729970932
-0.7688155174255371 0.3805016875267029 -0.29941871762275696
0.06149255484342575 0.3230626583099365 -0.5158074498176575
-0.24542349576950073 -0.26715201139450073 -0.5158074498176575
-0.1812204122543335 -0.4040515422821045 -0.2406545877456665
0.04499606788158417 -0.4040515422821045 -0.21205449104309082
-0.7654806971549988 0.20382098853588104 -0.3482288718223572
-0.699046790599823 0.08064377307891846 0.6472935676574707
-0.7086942195892334 -0.270733505487442 -0.45742806792259216
0.1986873745918274 0.16816477477550507 0.24020208418369293
-0.24534468352794647 0.3269668519496918 -0.5158074498176575
-0.7688155174255371 0.32799872756004333 -0.01739920862019062
-0.5808146595954895 0.40454933047294617 -0.1281927525997162
-0.38935586810112 -0.08498357236385345 0.6970938444137573
-0.7641591429710388 0.051440294831991196 -0.35628002882003784
0.42725080251693726 -0.25971120595932007 -0.5158074498176575
0.6774538159370422 -0.4040515422821045 0.0018309458391740918
0.6861469149589539 -0.13929320871829987 -0.5158074498176575
0.7236448526382446 -0.4040515422821045 0.06576109677553177
0.7406133413314819 -0.4040515422821045 -0.39130234718322754
0.35836732387542725 -0.4040515422821045 -0.3715914785861969
-0.7688155174255371 0.04343262314796448 0.020995765924453735
-0.7688155174255371 -0.24475421011447906 0.09900065511465073
0.2359505295753479 -0.4040515422821045 -0.2848024070262909
-0.11029357463121414 0.1879829615354538 -0.5158074498176575
-0.7688155174255371 -0.24477632343769073 -0.17741276323795319
0.9787760972976685 -0.224360853433609 -0.021652571856975555
-0.4072461724281311 0.19233667850494385 -0.5158074498176575
-0.4303818643093109 0.40454933047294617 -0.08922725170850754
0.1861698031425476 0.40454933047294617 -0.3119010925292969
-0.7673811912536621 -0.10966406017541885 0.5184853076934814
-0.3125193417072296 0.37658002972602844 0.6970938444137573
0.5110008120536804 -0.06816790997982025 -0.5158074498176575
0.20101726055145264 0.40454933047294617 -0.29804447293281555
-0.20071834325790405 -0.4040515422821045 0.30057859420776367
-0.37672653794288635 -0.4040515422821045 0.5196259021759033
-0.28901657462120056 0.40454933047294617 0.15882007777690887
0.3582099378108978 -0.4040515422821045 -0.07109342515468597
-0.15992815792560577 0.40454933047294617 -0.3666049838066101
0.8292886018753052 0.40454933047294617 -0.2559318244457245
-0.0032772317063063383 0.40454933047294617 0.6029760241508484
-0.6919565796852112 -0.3925953507423401 -0.472186416387558
-0.3241504728794098 -0.4040515422821045 0.01232891995459795
-0.7688155174255371 -0.3555237650871277 0.3361545503139496
0.31207388639450073 0.40454933047294617 -0.4553370475769043
-0.5893662571907043 0.16419024765491486 0.6957206726074219
0.9990951418876648 0.2447986751794815 -0.09509418159723282
0.38742783665657043 -0.10292789340019226 0.09085199236869812
0.8721479177474976 0.13896581530570984 -0.5013135075569153
-0.6995289325714111 -0.4040515422821045 0.3528021574020386
-0.056444428861141205 -0.4040515422821045 0.5335954427719116
0.3640228807926178 -0.04151509329676628 0.0929841697216034
0.49332869052886963 0.3830154240131378 -0.5158074498176575
-0.7677745819091797 -0.12342153489589691 0.514333188533783
-0.14092527329921722 0.40454933047294617 -0.22276559472084045
0.999998927116394 0.2771354913711548 -0.2506009042263031
0.010112038813531399 -0.34114208817481995 0.695927619934082
-0.38531529903411865 0.40454933047294617 0.4461498558521271
0.35364076495170593 0.40454933047294617 -0.16151162981987
-0.6224204301834106 0.40454933047294617 -0.37268054485321045
0.999998927116394 -0.15895229578018188 -0.30728426575660706
0.163049578666687 0.40454933047294617 -0.08472797274589539
0.18984845280647278 -0.015790678560733795 0.5197118520736694
0.03262865170836449 -0.3315422236919403 0.6922250390052795
0.9439306855201721 -0.3912283778190613 0.02801516093313694
-0.7688155174255371 -0.08519084006547928 -0.1631128489971161
-0.6410807371139526 -0.271236389875412 0.6825228929519653
0.7981964349746704 0.18058201670646667 0.09062927216291428
-0.01850934885442257 -0.4040515422821045 0.31483396887779236
-0.7688155174255371 -0.20427285134792328 0.0007376245339401066
0.999998927116394 0.2851003110408783 -0.14314009249210358
0.999998927116394 0.15988820791244507 -0.19878274202346802
0.3703030049800873 -0.12768521904945374 -0.5158074498176575
0.6546115875244141 0.40454933047294617 0.027869371697306633
-0.07047630101442337 0.398540198802948 0.6970938444137573
-0.16242749989032745 -0.12300451099872589 0.6970938444137573
0.377429336309433 0.40454933047294617 -0.34503036737442017
-0.5782209634780884 0.09212283045053482 -0.5152695775032043
-0.13986140489578247 0.40454933047294617 -0.34145623445510864
0.24022053182125092 -0.11634864658117294 0.16149374842643738
0.45104169845581055 0.40454933047294617 -0.4321548044681549
-0.13186004757881165 -0.4040515422821045 0.5764674544334412
-0.6665733456611633 -0.4040515422821045 0.06808454543352127
-0.4047187864780426 0.17800593376159668 0.6970938444137573
0.12521207332611084 -0.4040515422821045 0.0665205791592598
-0.21704523265361786 0.04012105613946915 -0.5158074498176575
-0.7688155174255371 0.18883934617042542 0.3928828239440918
-0.7524232268333435 0.40454933047294617 -0.2356826364994049
0.09981363266706467 -0.20540490746498108 0.6639712452888489
-0.11858765780925751 0.40454933047294617 -0.08703702688217163
-0.11062376946210861 0.08207928389310837 0.6970938444137573
-0.2310800701379776 -0.4040515422821045 0.3833732604980469
-0.5619959235191345 0.19357548654079437 -0.5158074498176575
-0.12171728163957596 0.40454933047294617 0.3646508455276489
-0.5963649153709412 0.11440642923116684 -0.5134187340736389
0.8916098475456238 0.40454933047294617 -0.026712507009506226
0.42275485396385193 0.09864425659179688 0.09064317494630814
-0.6254381537437439 0.40454933047294617 -0.02944902889430523
0.8068587183952332 -0.007008890621364117 -0.5154940485954285
0.568686842918396 -0.19028080999851227 -0.5158074498176575
0.2531282901763916 0.05884644389152527 0.14760591089725494
-0.47360527515411377 -0.0387362502515316 0.6970938444137573
-0.7688155174255371 -0.2795449197292328 0.32127198576927185
0.7789176106452942 0.40454933047294617 -0.07132931798696518
-0.1304163634777069 -0.3780016303062439 -0.5158074498176575
-0.11402419954538345 0.2855144441127777 0.6970938444137573
0.99004727602005 -0.07266367226839066 -0.3760547935962677
0.2586722671985626 0.40454933047294617 -0.33961138129234314
0.07523169368505478 0.3757965862751007 -0.5158074498176575
-0.7523263096809387 0.09706420451402664 -0.39287498593330383
-0.23756805062294006 0.40454933047294617 0.4884149134159088
-0.016265811398625374 -0.4040515422821045 0.12542495131492615
0.635767936706543 0.038661472499370575 -0.5158074498176575
0.14589421451091766 0.40454933047294617 -0.17356157302856445
-0.6983566880226135 -0.04291614145040512 -0.4666149914264679
0.023929322138428688 -0.21274052560329437 0.6939899325370789
-0.748563289642334 0.03192667290568352 -0.40152981877326965
-0.16300421953201294 0.08841020613908768 -0.5158074498176575
0.9997968077659607 -0.3384968936443329 -0.10703792423009872
-0.7602948546409607 -0.4040515422821045 -0.3478206992149353
0.8834857940673828 -0.4040515422821045 -0.30202263593673706
-0.41961240768432617 -0.4040515422821045 0.6000353693962097
0.5953377485275269 0.40454933047294617 0.051325686275959015
0.5763183832168579 -0.4040515422821045 -0.32853370904922485
0.26565223932266235 -0.01795363985002041 0.13645902276039124
0.6263081431388855 0.39542055130004883 0.09064317494630814
-0.6202577948570251 -0.351249098777771 0.6898190975189209
0.1870177537202835 0.40454933047294617 0.281568318605423
-0.7554307579994202 0.3566105365753174 0.567115843296051
-0.2906290292739868 -0.4040515422821045 0.5817290544509888
-0.637153685092926 0.40454933047294617 -0.17351208627223969
0.16233593225479126 0.2730601727962494 -0.5158074498176575
-0.33324751257896423 -0.058751024305820465 0.6970938444137573
-0.38057124614715576 0.26401087641716003 -0.5158074498176575
-0.44273853302001953 -0.08775066584348679 -0.5158074498176575
0.87195885181427 -0.4040515422821045 -0.4260302186012268
0.5503300428390503 -0.03695220872759819 0.09064317494630814
0.10367918014526367 -0.4040515422821045 -0.3511698842048645
0.1983279138803482 0.1252375990152359 0.24163319170475006
-0.5261601805686951 0.40454933047294617 0.5635696649551392
-0.32811763882637024 0.40454933047294617 -0.07692671567201614
0.3056212067604065 -0.4040515422821045 0.09732029587030411
-0.2654699385166168 -0.4040515422821045 -0.32080334424972534
-0.4694949686527252 0.08352793753147125 0.6970938444137573
0.29373905062675476 0.24180448055267334 0.1170915812253952
-0.6333194375038147 -0.4040515422821045 0.33343708515167236
0.8305032253265381 0.2622273564338684 -0.5130112171173096
-0.2651466429233551 -0.4040515422821045 -0.4259839355945587
-0.5109870433807373 -0.23948384821414948 -0.5158074498176575
0.191913902759552 0.007095021661370993 0.27964890003204346
-0.1407676488161087 -0.4040515422821045 -0.502721905708313
0.5550850033760071 -0.4040515422821045 -0.20721378922462463
0.04041505977511406 0.22575747966766357 -0.5158074498176575
-0.3168114721775055 0.40454933047294617 -0.49566999077796936
0.3172972500324249 -0.3519771993160248 0.10567133873701096
0.148378387093544 0.40454933047294617 0.3623432517051697
-0.22223708033561707 0.40454933047294617 0.5232664346694946
-0.6396264433860779 -0.4040515422821045 0.5599959492683411
-0.40986230969429016 -0.035576723515987396 -0.5158074498176575
0.191398024559021 0.3807579278945923 0.40185874700546265
0.7486365437507629 0.05121447890996933 0.09064317494630814
-0.34770795702934265 0.40454933047294617 0.01604418456554413
0.4650360345840454 0.40454933047294617 -0.2593825161457062
0.6438812017440796 -0.04128793999552727 -0.5158074498176575
0.1351650208234787 -0.4040515422821045 0.39826539158821106
0.6339881420135498 -0.4040515422821045 -0.39498603343963623
-0.7688155174255371 -0.38114359974861145 0.2550372779369354
0.978855311870575 -0.01518997736275196 -0.021985558792948723
-0.08531896024942398 0.29589328169822693 0.6970938444137573
-0.5845369696617126 0.019829701632261276 -0.5149495005607605
-0.03769274801015854 -0.27851760387420654 -0.5158074498176575
-0.49991166591644287 0.40454933047294617 0.36877140402793884
0.4029509723186493 -0.056725289672613144 0.09064317494630814
0.999998927116394 0.03138095140457153 -0.3035653829574585
0.06409791857004166 -0.4040515422821045 0.3244519531726837
-0.5357012748718262 0.40454933047294617 -0.3131536841392517
0.3980562090873718 0.20912699401378632 -0.5158074498176575
-0.6268807053565979 -0.4040515422821045 0.20267637073993683
0.4700815975666046 -0.3212476074695587 0.09064317494630814
0.2825782597064972 0.25669994950294495 0.12385613471269608
-0.19645756483078003 0.010170632973313332 0.6970938444137573
0.12473985552787781 0.12552277743816376 -0.5158074498176575
-0.7411646246910095 -0.0644834041595459 0.5965188145637512
-0.029573049396276474 -0.4040515422821045 0.5801090598106384
0.7148662209510803 -0.1919524222612381 0.09064317494630814
0.28070372343063354 0.13245424628257751 -0.5158074498176575
-0.20066344738006592 -0.4040515422821045 -0.27175837755203247
0.1284884512424469 0.022992081940174103 0.6411798596382141
-0.7688155174255371 -0.08406472951173782 -0.2521081864833832
-0.10883264988660812 -0.4040515422821045 0.6315727233886719
-0.7688155174255371 -0.13890831172466278 0.3938469886779785
0.9851658940315247 0.39122259616851807 -0.3894871771335602
-0.2586425840854645 0.40454933047294617 -0.17960602045059204
-0.18215051293373108 0.3156965672969818 0.6970938444137573
0.13084250688552856 -0.4040515422821045 0.18165570497512817
0.654442548751831 0.40454933047294617 -0.3238176107406616
-0.7688155174255371 -0.28063490986824036 0.21935386955738068
0.1950903981924057 -0.2919742166996002 0.2560902237892151
-0.4858391284942627 -0.4040515422821045 -0.015427695587277412
0.09979408234357834 -0.13881534337997437 0.6639825701713562
0.43458065390586853 -0.20990364253520966 0.09064317494630814
-0.30981263518333435 -0.4040515422821045 0.25763067603111267
-0.7071574330329895 0.19792716205120087 0.6400991678237915
0.48299306631088257 -0.4040515422821045 0.01860874705016613
-0.2704660892486572 -0.3216981589794159 0.6970938444137573
0.12557882070541382 -0.4040515422821045 0.5190898776054382
0.1266953945159912 0.40454933047294617 0.02430523931980133
0.3117075264453888 -0.4040515422821045 -0.2386508733034134
0.7488808631896973 0.40454933047294617 -0.3295435905456543
0.8373432159423828 0.40454933047294617 -0.019125623628497124
-0.31831029057502747 -0.1468123346567154 0.6970938444137573
0.43574902415275574 -0.30200833082199097 -0.5158074498176575
-0.7437785863876343 -0.3616950809955597 0.5920625925064087
0.9502663016319275 0.19498686492443085 0.02094913274049759
0.07646327465772629 0.40454933047294617 0.24976739287376404
0.5575807094573975 0.40454933047294617 -0.1880652904510498
-0.7332847118377686 -0.007458338513970375 -0.42754411697387695
0.9917043447494507 0.3783654272556305 -0.055095478892326355
-0.19457495212554932 0.1166270449757576 0.6970938444137573
-0.3135290741920471 -0.053676821291446686 0.6970938444137573
-0.48336973786354065 -0.4040515422821045 -0.09683471918106079
0.5089726448059082 -0.4040515422821045 -0.012287933379411697
0.11273809522390366 -0.3832024931907654 0.6546817421913147
0.06590554863214493 -0.4040515422821045 0.5090286731719971
0.191398024559021 0.4027906358242035 0.31023404002189636
-0.06458871811628342 -0.3232320547103882 -0.5158074498176575
0.950389564037323 0.15979841351509094 0.020721858367323875
0.07646910101175308 0.3064471185207367 0.6771551370620728
0.1489223837852478 -0.3340444266796112 0.6188216805458069
-0.16818641126155853 -0.19625522196292877 -0.5158074498176575
0.14402829110622406 0.40454933047294617 -0.47383245825767517
-0.6192842721939087 0.23840323090553284 -0.5087682008743286
-0.1752631813287735 -0.4040515422821045 -0.44922342896461487
-0.7611211538314819 -0.31754228472709656 0.5494880080223083
-0.04693855717778206 0.07283829897642136 -0.5158074498176575
-0.7688155174255371 0.3777404725551605 0.3265051245689392
0.6820500493049622 -0.4040515422821045 -0.07346808165311813
0.191398024559021 -0.11080814152956009 0.42054617404937744
0.9727094769477844 -0.05780263990163803 -0.4145635962486267
0.3848995566368103 -0.10880444943904877 0.09101235121488571
0.8073873519897461 0.40454933047294617 -0.05861729010939598
-0.5742112994194031 0.40454933047294617 0.35219642519950867
-0.6580365896224976 0.40454933047294617 -0.3019809424877167
-0.035056352615356445 0.40454933047294617 0.3507542610168457
-0.057000987231731415 -0.4040515422821045 0.05167871341109276
0.01952221617102623 0.40454933047294617 -0.08720088005065918
-0.5114511847496033 -0.2892829179763794 0.6970938444137573
-0.5295301675796509 -0.4040515422821045 0.5923364162445068
-0.7688155174255371 -0.2739565074443817 -0.13893567025661469
0.4822603166103363 0.40454933047294617 -0.45088088512420654
-0.2179054468870163 -0.26081687211990356 0.6970938444137573
0.16242574155330658 -0.06290371716022491 0.5989634990692139
0.9995648860931396 -0.08991657197475433 -0.32217633724212646
-0.12333983182907104 0.40454933047294617 0.0024258180055767298
-0.35807278752326965 0.40454933047294617 0.47619062662124634
-0.6532156467437744 0.01742352545261383 0.6775531768798828
0.6642031669616699 0.40454933047294617 0.005323490127921104
0.5334457755088806 -0.4040515422821045 -0.24997909367084503
0.1180921271443367 -0.4040515422821045 0.2110033631324768
0.9993271231651306 0.2561047077178955 -0.09889919310808182
-0.3986656367778778 -0.1743970513343811 0.6970938444137573
0.9539240598678589 0.10000938922166824 0.016701718792319298
-0.44843634963035583 -0.4040515422821045 -0.3829806447029114
0.570920467376709 0.29969197511672974 0.09064317494630814
-0.6143613457679749 0.11816783994436264 -0.5098093152046204
-0.20757003128528595 -0.1900671422481537 0.6970938444137573
0.08546759933233261 0.40454933047294617 0.5808278322219849
0.33196961879730225 -0.32353776693344116 0.10027285665273666
0.1623760163784027 -0.4040515422821045 -0.3598969578742981
-0.7688155174255371 0.06292025744915009 0.398566335439682
-0.45839521288871765 -0.4040515422821045 -0.46280062198638916
0.8217443823814392 0.08616515249013901 0.08914406597614288
0.999998927116394 0.2710089087486267 -0.2974404990673065
0.7270177006721497 0.40454933047294617 -0.2392451912164688
-0.16031032800674438 0.2249976545572281 0.6970938444137573
0.1862287074327469 0.40454933047294617 -0.16233763098716736
0.999998927116394 -0.19913825392723083 -0.30643430352211
-0.7518714070320129 0.40454933047294617 0.5541731715202332
-0.02555357851088047 0.37456822395324707 -0.5158074498176575
-0.04193463549017906 0.40454933047294617 -0.4761779308319092
0.23819710314273834 -0.3825278878211975 -0.5158074498176575
-0.34835371375083923 -0.4040515422821045 0.49059125781059265
-0.3812779188156128 0.40454933047294617 -0.4169664978981018
0.9730445146560669 0.012848802842199802 -0.011214650236070156
0.7099640369415283 0.40454933047294617 -0.1674809455871582
-0.14676524698734283 -0.4040515422821045 -0.34484580159187317
0.7012319564819336 0.40454933047294617 -0.44657301902770996
-0.7688155174255371 0.3579299747943878 0.01149383932352066
0.1503627747297287 0.3555335998535156 -0.5158074498176575
-0.7688155174255371 0.13186201453208923 0.23817500472068787
-0.6938812136650085 -0.4040515422821045 0.6158844232559204
0.19993522763252258 -0.11792135238647461 0.23575769364833832
-0.2984899580478668 -0.06382620334625244 0.6970938444137573
0.999998927116394 -0.12759554386138916 -0.23013676702976227
-0.21511033177375793 -0.4040515422821045 -0.08476562052965164
-0.6964021325111389 -0.038316674530506134 0.6496407985687256
-0.5580350756645203 -0.4040515422821045 0.5228402614593506
-0.08424318581819534 0.16943392157554626 -0.5158074498176575
-0.7688155174255371 -0.24561333656311035 0.47019273042678833
0.9270192384719849 0.40454933047294617 -0.34223467111587524
0.7991786003112793 0.40454933047294617 -0.0034147619735449553
0.9182494878768921 -0.4040515422821045 0.008538969792425632
-0.16347795724868774 0.40454933047294617 0.6964589357376099
0.2624545097351074 -0.3759561777114868 0.13903950154781342
-0.678529679775238 0.40454933047294617 0.49715542793273926
0.191398024559021 0.19966337084770203 0.3129502832889557
-0.5324443578720093 -0.20540139079093933 -0.5158074498176575
-0.703113853931427 0.40454933047294617 0.23341117799282074
0.35648778080940247 -0.27979108691215515 0.09420117735862732
-0.21771582961082458 0.019861428067088127 0.6970938444137573
-0.7146216630935669 -0.4040515422821045 -0.06950529664754868
-0.7688155174255371 0.22304388880729675 -0.0738772451877594
-0.570583164691925 -0.14272533357143402 -0.515670120716095
0.6349143385887146 -0.03399032726883888 0.09064317494630814
-0.7688155174255371 -0.37552493810653687 -0.27659010887145996
0.9633136987686157 -0.20859239995479584 0.004192704800516367
-0.09760567545890808 0.12126312404870987 0.6970938444137573
0.2707320749759674 -0.26121118664741516 -0.5158074498176575
-0.7688155174255371 0.08022420108318329 0.289558082818985
0.7277448773384094 0.1947888284921646 -0.5158074498176575
0.14115284383296967 0.08636686205863953 0.6278248429298401
-0.33116087317466736 0.40454933047294617 0.028820911422371864
0.03182290121912956 0.40454933047294617 -0.4379180073738098
-0.6119629740715027 -0.4040515422821045 0.2249918282032013
-0.7174415588378906 0.05188819393515587 -0.4477996826171875
-0.11055946350097656 0.40116816759109497 -0.5158074498176575
-0.6643845438957214 0.21875473856925964 -0.4903215765953064
0.11679618060588837 -0.4040515422821045 -0.20347589254379272
0.07292628288269043 0.2218465954065323 0.6788403391838074
-0.4548536539077759 0.40454933047294617 0.05376000702381134
-0.166474848985672 -0.4040515422821045 -0.19922183454036713
-0.2344236820936203 -0.4040515422821045 0.6370058059692383
0.5631817579269409 -0.4040515422821045 -0.15608610212802887
-0.7646124958992004 0.26590362191200256 0.5355722308158875
-0.7688155174255371 0.00272683659568429 -0.09318466484546661
0.46145913004875183 -0.4040515422821045 -0.24817942082881927
0.18786905705928802 -0.38030287623405457 0.531902015209198
-0.10934816300868988 0.18649934232234955 0.6970938444137573
-0.39136531949043274 -0.2582927346229553 -0.5158074498176575
-0.6938536763191223 -0.1405540555715561 0.651972770690918
-0.08272494375705719 0.001926306402310729 0.6970938444137573
0.19186660647392273 -0.24220210313796997 0.28380700945854187
0.6763831973075867 0.40454933047294617 -0.07106069475412369
0.6196343302726746 0.26326411962509155 -0.5158074498176575
0.03417561203241348 -0.4040515422821045 -0.4239290952682495
0.3790890574455261 0.40454933047294617 -0.380043089389801
0.14900198578834534 0.06323988735675812 0.618622899055481
-0.14815901219844818 -0.005453764460980892 0.6970938444137573
0.7668153047561646 -0.4040515422821045 0.009821494109928608
0.8417719006538391 -0.19305285811424255 -0.5108882188796997
-0.15127496421337128 -0.4040515422821045 0.3660278916358948
0.8084284067153931 -0.2384597510099411 0.0900915339589119
-0.3664482533931732 0.030890457332134247 0.6970938444137573
0.4029732048511505 -0.4040515422821045 -0.021346118301153183
0.999998927116394 -0.3984057605266571 -0.28830257058143616
0.191398024559021 -0.14337114989757538 0.47623252868652344
0.191398024559021 -0.21683134138584137 0.393902987241745
-0.33112117648124695 -0.4040515422821045 0.07194001227617264
0.9019297957420349 0.04187251999974251 -0.48680567741394043
0.9507755041122437 0.34658119082450867 -0.4457552134990692
0.8906568288803101 0.02027854323387146 -0.49289044737815857
0.21092583239078522 0.40454933047294617 -0.028729043900966644
0.1404777616262436 -0.4040515422821045 -0.08872094005346298
