0.9139237999916077 -0.48993825912475586 -0.11769252270460129
0.3997718095779419 0.4816320240497589 -0.26983171701431274
0.18133936822414398 -0.48993825912475586 0.2763480842113495
0.15338942408561707 0.4816320240497589 0.0266746636480093
0.16118696331977844 -0.48993825912475586 -0.03516938537359238
0.6395727396011353 -0.052721939980983734 0.3301486670970917
-0.9999989867210388 -0.4544031322002411 0.1565900593996048
-0.6920868754386902 -0.20203770697116852 0.3301486670970917
0.9386250972747803 0.42028820514678955 -0.31756484508514404
-0.0023959765676409006 -0.2802504003047943 -0.31756484508514404
-0.48843738436698914 -0.48993825912475586 -0.20209012925624847
0.8627600073814392 0.4816320240497589 -0.2751513421535492
-0.9999989867210388 0.42745134234428406 0.24926942586898804
-0.9999989867210388 0.39929476380348206 -0.12619458138942719
0.3866056501865387 0.3677043914794922 0.006291912868618965
-0.5162819027900696 0.4816320240497589 -0.045152246952056885
-0.16863110661506653 -0.2046961933374405 0.3301486670970917
-0.3389810025691986 0.4816320240497589 0.07133619487285614
0.18414947390556335 0.4816320240497589 -0.07910275459289551
0.3607322573661804 0.4816320240497589 -0.1721707433462143
-0.9384722113609314 -0.20100511610507965 -0.31756484508514404
-0.9999989867210388 -0.48828697204589844 0.16148780286312103
0.4171619713306427 0.4816320240497589 -0.17056617140769958
0.28159764409065247 -0.36491692066192627 0.3301486670970917
-0.06998258829116821 -0.030285188928246498 0.3301486670970917
-0.7251539826393127 -0.14836007356643677 -0.31756484508514404
-0.9800970554351807 0.19458076357841492 -0.31756484508514404
0.12961739301681519 -0.45315924286842346 0.3301486670970917
-0.6891756653785706 0.28814011812210083 0.3301486670970917
0.3570137619972229 0.25824376940727234 0.006291912868618965
0.29542800784111023 -0.07978502660989761 0.1733674854040146
-0.8932380080223083 0.39939072728157043 0.3301486670970917
-0.35750094056129456 -0.29678764939308167 0.3301486670970917
-0.12843063473701477 0.0999596044421196 0.3301486670970917
0.05029318109154701 0.4114800691604614 0.3301486670970917
-0.0802428126335144 -0.48993825912475586 0.3211652636528015
-0.34031689167022705 0.3054675757884979 0.3301486670970917
0.13682574033737183 0.2540450692176819 -0.31756484508514404
-0.9392864108085632 0.0855025202035904 -0.31756484508514404
-0.15594825148582458 0.13184432685375214 0.3301486670970917
-0.9765242338180542 -0.14377133548259735 -0.31756484508514404
-0.9999989867210388 0.1084384024143219 -0.17997728288173676
-0.2948024272918701 -0.48993825912475586 0.11614450067281723
0.4396998882293701 -0.10742375254631042 -0.31756484508514404
0.6192848086357117 0.07786303758621216 0.030714739114046097
-0.08838828653097153 0.4334033131599426 -0.31756484508514404
-0.7825042009353638 -0.036795780062675476 -0.31756484508514404
0.5860322713851929 -0.48993825912475586 -0.28100723028182983
-0.31284892559051514 0.4027220904827118 0.3301486670970917
0.9431414604187012 0.11173438280820847 -0.21456784009933472
0.24915415048599243 -0.24339057505130768 0.3301486670970917
0.29542800784111023 0.4142143726348877 0.1998991072177887
-0.8495663404464722 -0.42473167181015015 -0.31756484508514404
-0.9999989867210388 0.18835130333900452 -0.18534153699874878
-0.025628840550780296 0.17391537129878998 -0.31756484508514404
0.29542800784111023 0.1544504314661026 0.30163195729255676
0.11456861346960068 0.4816320240497589 0.06564678996801376
-0.6447330117225647 -0.0820685550570488 -0.31756484508514404
-0.45368942618370056 -0.09885843098163605 -0.31756484508514404
-0.27569615840911865 -0.48993825912475586 0.058252979069948196
0.05160999298095703 0.4816320240497589 -0.07656589895486832
0.9431414604187012 0.2955252230167389 -0.13571904599666595
0.268511027097702 0.23103368282318115 -0.31756484508514404
-0.9746909737586975 -0.00498782005161047 -0.31756484508514404
0.9431414604187012 -0.3328157663345337 0.19127187132835388
-0.0053343200124800205 -0.48993825912475586 -0.16664209961891174
-0.8420782685279846 -0.48993825912475586 -0.019377930089831352
0.640550971031189 0.25446459650993347 0.3301486670970917
0.9431414604187012 -0.1537664234638214 -0.10976739972829819
0.29114633798599243 -0.058199692517519 0.3301486670970917
0.38189899921417236 0.4106869399547577 0.006291912868618965
0.29542800784111023 -0.24204152822494507 0.20703664422035217
0.6192848086357117 -0.42225897312164307 0.08183299750089645
-0.7361955642700195 -0.04743611440062523 -0.31756484508514404
0.2406722456216812 -0.008934875018894672 -0.31756484508514404
-0.03918212652206421 -0.48993825912475586 -0.30316752195358276
0.9431414604187012 0.2800252139568329 0.10179898887872696
-0.9999989867210388 0.18342189490795135 -0.125777930021286
-0.9999989867210388 -0.2591860890388489 -0.2756664454936981
-0.9999989867210388 0.2548132538795471 -0.07531397044658661
0.29542800784111023 0.2673206031322479 0.03256886079907417
0.29542800784111023 0.16769860684871674 0.3209216594696045
0.9431414604187012 -0.12921035289764404 0.1465204954147339
0.9431414604187012 0.052929092198610306 0.3050179183483124
0.5072326064109802 -0.06715071946382523 0.006291912868618965
0.9431414604187012 0.029100989922881126 -0.16682326793670654
-0.4977637827396393 0.04241011291742325 0.3301486670970917
0.9431414604187012 0.12907032668590546 0.2125316709280014
-0.8499037027359009 -0.48993825912475586 0.10414297133684158
0.5592977404594421 0.06340716779232025 -0.31756484508514404
0.27421918511390686 0.4816320240497589 -0.002405606908723712
0.2855851948261261 -0.3155728876590729 0.3301486670970917
0.5673857927322388 0.4816320240497589 -0.21106098592281342
-0.9999989867210388 0.4331534504890442 -0.01920005865395069
0.9233458638191223 0.4816320240497589 0.13491278886795044
-0.8664460182189941 0.11917153745889664 -0.31756484508514404
-0.9999989867210388 -0.3050304055213928 0.11081421375274658
-0.3205045163631439 -0.48993825912475586 -0.19093826413154602
0.7172633409500122 0.4816320240497589 0.22514638304710388
-0.14577557146549225 0.28884658217430115 -0.31756484508514404
0.29542800784111023 0.22982536256313324 0.03992456570267677
-0.5360113978385925 -0.4200151860713959 0.3301486670970917
0.29542800784111023 0.2558535635471344 0.22320210933685303
-0.23023144900798798 0.377314031124115 0.3301486670970917
-0.9068793058395386 -0.4802970588207245 -0.31756484508514404
0.6192848086357117 -0.12334363907575607 0.17981649935245514
-0.10266560316085815 -0.48993825912475586 -0.19919271767139435
-0.25818273425102234 0.2987682521343231 -0.31756484508514404
0.29542800784111023 -0.41067633032798767 0.2612663209438324
0.9431414604187012 -0.0997893214225769 -0.25585514307022095
-0.7009369134902954 -0.25262826681137085 0.3301486670970917
0.07747258991003036 0.4816320240497589 0.08762194216251373
0.6747305393218994 -0.1243726834654808 0.3301486670970917
0.5788674354553223 -0.2266359031200409 -0.31756484508514404
0.6395499110221863 0.3002077639102936 0.3301486670970917
0.00841196347028017 -0.2117740511894226 0.3301486670970917
0.38915231823921204 -0.48993825912475586 -0.1564464569091797
0.09634742885828018 -0.19465576112270355 -0.31756484508514404
0.003886549035087228 -0.26670539379119873 0.3301486670970917
-0.3198341429233551 0.08815307170152664 -0.31756484508514404
-0.7502965331077576 0.072095587849617 0.3301486670970917
0.9431414604187012 -0.05801131948828697 0.07763852179050446
0.29542800784111023 0.4741871953010559 0.09597648680210114
0.6734987497329712 -0.23871438205242157 0.3301486670970917
0.0825168788433075 -0.36672160029411316 -0.31756484508514404
-0.3928116261959076 0.20323625206947327 -0.31756484508514404
0.25382936000823975 -0.25685882568359375 0.3301486670970917
-0.4781703054904938 -0.48993825912475586 -0.16951251029968262
-0.27648359537124634 0.4816320240497589 -0.2799527943134308
0.7560853958129883 -0.041512683033943176 0.3301486670970917
0.33534058928489685 -0.3349194824695587 -0.31756484508514404
0.29542800784111023 -0.23406414687633514 0.12963490188121796
0.15448561310768127 -0.461036741733551 -0.31756484508514404
-0.9999989867210388 0.16738338768482208 0.29036760330200195
0.29542800784111023 -0.027861488983035088 0.19205129146575928
-0.4639362692832947 -0.48993825912475586 0.12640802562236786
0.9431414604187012 -0.3477703332901001 -0.14242182672023773
0.9431414604187012 0.30328938364982605 -0.2218473106622696
-0.29905280470848083 -0.05268093943595886 0.3301486670970917
0.1853940188884735 0.4816320240497589 0.030293969437479973
-0.9961284399032593 0.47364965081214905 -0.31756484508514404
-0.3609282076358795 -0.48993825912475586 0.21234475076198578
0.8085262179374695 -0.48993825912475586 0.187097430229187
0.7039583921432495 -0.48993825912475586 -0.28465646505355835
-0.7846665382385254 0.0432247556746006 -0.31756484508514404
0.6192848086357117 0.13546963036060333 0.3154195547103882
0.9431414604187012 0.2972712516784668 -0.012640878558158875
-0.3520391285419464 -0.2613108158111572 0.3301486670970917
-0.6887243986129761 -0.3391771912574768 -0.31756484508514404
-0.9921838045120239 -0.2534022927284241 0.3301486670970917
0.7106850743293762 -0.053049664944410324 0.3301486670970917
0.19491755962371826 -0.48993825912475586 0.07550570368766785
-0.26916852593421936 -0.13067378103733063 -0.31756484508514404
-0.7625908851623535 0.20375172793865204 -0.31756484508514404
-0.9999989867210388 0.1138000562787056 0.0033641725312918425
-0.3903861343860626 0.3492695093154907 0.3301486670970917
0.36917224526405334 -0.2274835705757141 -0.31756484508514404
0.29542800784111023 0.3595387041568756 0.15920865535736084
-0.9100127220153809 -0.48993825912475586 -0.2982100248336792
0.13969261944293976 0.05795801058411598 -0.31756484508514404
-0.9999989867210388 -0.1822918802499771 0.057784054428339005
0.3908511698246002 -0.09797462821006775 0.006291912868618965
0.6364683508872986 -0.29842978715896606 0.3301486670970917
-0.9609293937683105 0.4816320240497589 -0.16858716309070587
-0.4452577531337738 0.1283094733953476 0.3301486670970917
0.9431414604187012 0.3765164911746979 0.2850565016269684
0.6192848086357117 -0.41938668489456177 0.04215989261865616
0.17044149339199066 0.4816320240497589 0.07768557965755463
0.8493286967277527 -0.48993825912475586 0.01586514338850975
-0.15136776864528656 0.21201203763484955 0.3301486670970917
0.31800124049186707 -0.386309951543808 0.006291912868618965
-0.9999989867210388 -0.4818040728569031 0.3089597821235657
0.6451050639152527 0.4816320240497589 -0.2727760076522827
0.28865158557891846 0.22767403721809387 0.3301486670970917
-0.9999989867210388 -0.42572495341300964 0.11166820675134659
-0.27579158544540405 0.403588205575943 -0.31756484508514404
0.5811702609062195 -0.402195543050766 -0.31756484508514404
-0.9999989867210388 0.04027751088142395 0.1565459966659546
0.6192848086357117 -0.3258192539215088 0.11756761372089386
0.9431414604187012 -0.4279363453388214 -0.0020957072265446186
-0.9999989867210388 -0.3494960367679596 0.055176038295030594
-0.3109913766384125 -0.06911206245422363 0.3301486670970917
-0.7577124238014221 -0.20682840049266815 0.3301486670970917
-0.2760179042816162 -0.3308943808078766 0.3301486670970917
-0.6229474544525146 0.3171374797821045 -0.31756484508514404
0.6530894637107849 0.3255051076412201 0.3301486670970917
0.29542800784111023 -0.19718174636363983 0.046104513108730316
0.2618873119354248 -0.47328612208366394 -0.31756484508514404
-0.9999989867210388 -0.265819787979126 0.1257929503917694
0.701495349407196 -0.23901252448558807 0.3301486670970917
-0.9969086050987244 -0.20211680233478546 0.3301486670970917
-0.5511003732681274 -0.48993825912475586 0.05322559177875519
-0.7001139521598816 -0.48993825912475586 -0.09859073162078857
-0.08596935123205185 0.40870627760887146 -0.31756484508514404
-0.913070797920227 -0.48993825912475586 0.20325826108455658
0.13637912273406982 0.07588053494691849 -0.31756484508514404
-0.4398944079875946 0.04710182175040245 -0.31756484508514404
-0.35122472047805786 -0.34747976064682007 -0.31756484508514404
0.36677178740501404 0.4816320240497589 -0.050999678671360016
-0.8392638564109802 -0.02797321230173111 0.3301486670970917
-0.2502661347389221 0.23723027110099792 -0.31756484508514404
-0.14051425457000732 0.3794242739677429 0.3301486670970917
0.14183534681797028 0.19346942007541656 -0.31756484508514404
0.29542800784111023 -0.263367623090744 0.2830568552017212
-0.45423057675361633 0.4816320240497589 -0.1342959702014923
-0.6388912200927734 -0.48993825912475586 0.12152507156133652
-0.7706946134567261 -0.2839997410774231 0.3301486670970917
-0.11398400366306305 0.4816320240497589 -0.1675862818956375
0.6192848086357117 -0.18051443994045258 0.2411322146654129
0.6789267659187317 -0.23271657526493073 0.3301486670970917
-0.9999989867210388 0.3842804729938507 0.14635080099105835
-0.25931817293167114 -0.25031036138534546 0.3301486670970917
-0.6278000473976135 0.3821218013763428 0.3301486670970917
0.8638185858726501 0.4816320240497589 0.2532683312892914
0.9431414604187012 0.4098781645298004 -0.03619616478681564
0.3294917941093445 0.3757353127002716 -0.31756484508514404
-0.9999989867210388 -0.2624773383140564 0.15568052232265472
0.8031545281410217 0.4816320240497589 -0.12150013446807861
-0.696795642375946 0.4816320240497589 0.027343781664967537
-0.5022422075271606 0.16357377171516418 -0.31756484508514404
-0.9658406376838684 -0.44171959161758423 -0.31756484508514404
0.30210402607917786 -0.276601642370224 -0.31756484508514404
-0.08784577250480652 -0.48993825912475586 0.09976182132959366
0.09418532997369766 0.3645436465740204 0.3301486670970917
-0.9623467326164246 -0.12120753526687622 0.3301486670970917
-0.07905914634466171 0.4816320240497589 0.20336750149726868
0.05842902511358261 -0.0400683656334877 -0.31756484508514404
0.684961199760437 0.4816320240497589 0.2543478012084961
0.6192848086357117 -0.14539740979671478 0.15857727825641632
-0.19034406542778015 0.24744604527950287 0.3301486670970917
0.9431414604187012 0.019125156104564667 0.3207918107509613
0.9431414604187012 0.45309144258499146 0.10937874764204025
0.9431414604187012 -0.44287291169166565 0.15557298064231873
-0.1698921024799347 -0.32255423069000244 -0.31756484508514404
0.9431414604187012 0.30853453278541565 0.2666959762573242
0.9431414604187012 0.031228190287947655 0.24036207795143127
-0.2924371361732483 -0.17370855808258057 -0.31756484508514404
0.699638843536377 -0.44493409991264343 -0.31756484508514404
0.29588204622268677 -0.35497212409973145 0.006291912868618965
0.45843368768692017 -0.3122052550315857 -0.31756484508514404
0.9431414604187012 0.08550193905830383 0.031002266332507133
0.46496134996414185 0.18206240236759186 -0.31756484508514404
-0.5195960998535156 -0.1761130541563034 -0.31756484508514404
0.9365725517272949 -0.11960159242153168 0.3301486670970917
0.7627550363540649 -0.48993825912475586 0.23965121805667877
-0.06264752894639969 -0.48993825912475586 -0.30017077922821045
0.6192848086357117 0.2982717454433441 0.11795447766780853
0.37196409702301025 -0.10142084956169128 -0.31756484508514404
0.11023186892271042 -0.48993825912475586 -0.001947384444065392
-0.4357595443725586 -0.08378388732671738 -0.31756484508514404
0.9431414604187012 -0.28678712248802185 -0.29542529582977295
0.1913650631904602 0.4816320240497589 -0.02373855747282505
-0.6453555822372437 -0.1822991818189621 0.3301486670970917
0.4698253870010376 -0.43416762351989746 0.006291912868618965
0.6719875335693359 0.023503147065639496 -0.31756484508514404
0.605627715587616 0.4746234714984894 -0.31756484508514404
-0.16814865171909332 0.4816320240497589 0.11862510442733765
0.03424245864152908 0.04599315673112869 0.3301486670970917
0.2462100088596344 -0.48993825912475586 -0.15778528153896332
0.6709320545196533 -0.10191316902637482 -0.31756484508514404
0.19332623481750488 0.4816320240497589 0.2159157246351242
-0.8428510427474976 -0.48993825912475586 0.1809636354446411
0.7123522758483887 -0.38578787446022034 0.3301486670970917
-0.6570916175842285 0.06571642309427261 -0.31756484508514404
-0.5330378413200378 -0.24920421838760376 0.3301486670970917
-0.3113459050655365 0.4816320240497589 -0.09983774274587631
-0.49893248081207275 -0.3242015242576599 -0.31756484508514404
-0.9999989867210388 0.1935845911502838 0.08885432034730911
0.12546208500862122 0.18850786983966827 -0.31756484508514404
0.6957157254219055 -0.48993825912475586 -0.2343686819076538
-0.08029933273792267 0.4311889410018921 -0.31756484508514404
0.8739537596702576 -0.055622395128011703 0.3301486670970917
0.29277580976486206 0.4254800081253052 -0.31756484508514404
0.07746641337871552 -0.48993825912475586 0.2662995159626007
0.9431414604187012 0.3890109956264496 -0.16835655272006989
0.5533735752105713 0.007524556014686823 0.006291912868618965
0.6192848086357117 0.40445271134376526 0.11147511750459671
-0.9426442980766296 0.17364397644996643 0.3301486670970917
-0.7389209866523743 0.4816320240497589 0.0450412780046463
-0.21571609377861023 0.007986669428646564 0.3301486670970917
-0.9549251198768616 0.39177167415618896 -0.31756484508514404
0.9431414604187012 0.3999710977077484 0.14979910850524902
-0.9999989867210388 0.35298952460289 -0.2803424894809723
0.06896626949310303 0.4816320240497589 -0.26420858502388
-0.046856001019477844 0.0682101622223854 0.3301486670970917
0.29561254382133484 -0.48993825912475586 -0.31411388516426086
0.2700349688529968 -0.09223349392414093 -0.31756484508514404
0.9039527177810669 -0.4140074849128723 -0.31756484508514404
0.7886523008346558 -0.33856502175331116 -0.31756484508514404
-0.9254674315452576 -0.04633236303925514 0.3301486670970917
0.5256772637367249 0.16792073845863342 0.006291912868618965
0.29542800784111023 0.11669369786977768 0.06259240210056305
-0.31798213720321655 0.4816320240497589 -0.013563159853219986
0.13561376929283142 0.4816320240497589 -0.24364091455936432
-0.9999989867210388 -0.3956807255744934 0.05590403452515602
-0.6701900362968445 -0.48993825912475586 0.044961780309677124
0.2910299301147461 -0.3942113518714905 -0.31756484508514404
-0.6472058892250061 0.05403658747673035 0.3301486670970917
0.692629873752594 0.4816320240497589 -0.09911249577999115
0.020323120057582855 -0.48993825912475586 -0.21539153158664703
-0.7036818861961365 0.4816320240497589 -0.007265483494848013
0.9431414604187012 -0.4187178313732147 0.09494180232286453
-0.9999989867210388 -0.15673521161079407 0.010697166435420513
-0.9623496532440186 -0.411525160074234 0.3301486670970917
0.8451986908912659 -0.48993825912475586 -0.0008247371297329664
-0.19089707732200623 0.12061809003353119 0.3301486670970917
0.29542800784111023 -0.014875277876853943 0.10570815950632095
0.08148598670959473 0.2770632207393646 0.3301486670970917
-0.576665997505188 -0.3243286609649658 0.3301486670970917
-0.09613215178251266 -0.46333256363868713 -0.31756484508514404
0.9431414604187012 0.20339807868003845 0.092694953083992
0.27206099033355713 0.4816320240497589 -0.26597896218299866
0.6192848086357117 -0.44884803891181946 0.19276316463947296
0.9431414604187012 -0.22834807634353638 -0.015561103820800781
0.15272440016269684 0.32378318905830383 0.3301486670970917
0.8717636466026306 0.4816320240497589 0.2929939925670624
0.8531884551048279 -0.48993825912475586 -0.2546120584011078
0.758196234703064 -0.48993825912475586 -0.1018308475613594
0.14076465368270874 -0.48993825912475586 0.25309497117996216
-0.7684858441352844 -0.48993825912475586 0.1217939481139183
0.8462494015693665 -0.02948066219687462 0.3301486670970917
-0.3267222046852112 -0.21381987631320953 -0.31756484508514404
0.042752865701913834 -0.12251751869916916 -0.31756484508514404
-0.2972318232059479 -0.2945474684238434 0.3301486670970917
-0.6019352674484253 0.4816320240497589 0.2611076235771179
0.30260169506073 -0.48993825912475586 -0.017666466534137726
-0.221208393573761 -0.13547050952911377 0.3301486670970917
-0.9999989867210388 -0.27758580446243286 0.3077755272388458
-0.01860623247921467 -0.48993825912475586 -0.310671329498291
-0.17175796627998352 0.4816320240497589 0.30278488993644714
0.18966485559940338 0.3664804995059967 -0.31756484508514404
-0.6296505928039551 -0.48993825912475586 -0.03808443248271942
-0.39170414209365845 -0.4053255319595337 0.3301486670970917
0.9431414604187012 -0.3969354033470154 0.05028274655342102
-0.2746344208717346 -0.2392369508743286 0.3301486670970917
0.4858926236629486 0.18207690119743347 -0.31756484508514404
-0.9999989867210388 0.13011881709098816 0.24899257719516754
-0.33063891530036926 -0.48993825912475586 0.15509681403636932
0.29542800784111023 -0.09476740658283234 0.31101056933403015
-0.5790074467658997 -0.48993825912475586 -0.19217561185359955
0.45726680755615234 0.27949145436286926 0.006291912868618965
-0.6162486672401428 -0.48993825912475586 -0.021789226680994034
0.29542800784111023 0.07874460518360138 0.27943938970565796
-0.907950222492218 0.3130783140659332 -0.31756484508514404
-0.91731196641922 -0.48993825912475586 -0.008154326118528843
-0.3503751754760742 -0.48993825912475586 0.17247219383716583
-0.6214478611946106 -0.48993825912475586 0.07221446186304092
0.44354864954948425 0.4816320240497589 -0.07883509993553162
-0.4376615881919861 -0.48993825912475586 0.3125672936439514
-0.1128900796175003 0.4816320240497589 -0.1261211633682251
0.5315612554550171 -0.031257618218660355 -0.31756484508514404
0.8992993831634521 0.4816320240497589 0.048801880329847336
0.11942043900489807 0.19031104445457458 -0.31756484508514404
0.6697433590888977 -0.48993825912475586 0.22514423727989197
-0.9999989867210388 -0.26630130410194397 0.07026985287666321
-0.3782745897769928 -0.3881886601448059 0.3301486670970917
0.18258923292160034 -0.3429566025733948 -0.31756484508514404
0.01973153091967106 -0.48993825912475586 -0.217402845621109
-0.8250190019607544 0.4816320240497589 0.19552938640117645
-0.3726506233215332 -0.16141782701015472 0.3301486670970917
-0.04958223178982735 0.05851701274514198 -0.31756484508514404
-0.039123956114053726 0.4816320240497589 0.07720702141523361
-0.9999989867210388 0.43327781558036804 -0.23260043561458588
-0.5788202881813049 -0.48993825912475586 0.197306826710701
-0.20616336166858673 -0.4345801770687103 0.3301486670970917
-0.6694090366363525 -0.48993825912475586 -0.18538396060466766
-0.45815178751945496 -0.021021908149123192 -0.31756484508514404
-0.6181431412696838 -0.48993825912475586 -0.03259512409567833
-0.3051556944847107 -0.48993825912475586 0.14290767908096313
0.4106673002243042 0.19002076983451843 -0.31756484508514404
0.6786119341850281 -0.35329535603523254 -0.31756484508514404
0.8236055970191956 -0.1124279648065567 -0.31756484508514404
-0.8697808384895325 0.4383090138435364 -0.31756484508514404
-0.6284509301185608 0.00688768457621336 0.3301486670970917
-0.9333605170249939 -0.48993825912475586 -0.298888623714447
-0.868776261806488 0.2783431112766266 0.3301486670970917
0.6192848086357117 0.2798466682434082 0.18953514099121094
-0.002245440613478422 0.3206345736980438 -0.31756484508514404
-0.9999989867210388 0.05632619187235832 0.11277662962675095
0.5455477833747864 0.04771782457828522 0.006291912868618965
0.9431414604187012 -0.21830414235591888 -0.08926601707935333
0.9431414604187012 -0.3928358554840088 0.29757386445999146
0.15497800707817078 0.2872467041015625 0.3301486670970917
0.9431414604187012 -0.25406116247177124 0.018423959612846375
0.8431328535079956 -0.4181060492992401 0.3301486670970917
0.6192848086357117 -0.25114819407463074 0.03822837769985199
-0.5848368406295776 0.4816320240497589 0.15317462384700775
0.635841429233551 -0.48993825912475586 -0.2767755091190338
-0.8516529202461243 -0.48993825912475586 0.17169739305973053
0.6036825180053711 0.39075756072998047 0.006291912868618965
0.29542800784111023 -0.2621157765388489 0.06616586446762085
0.8974496126174927 0.4816320240497589 0.18707889318466187
-0.002829247387126088 -0.01418363954871893 0.3301486670970917
-0.6380172967910767 -0.48993825912475586 0.19206374883651733
0.29542800784111023 0.381186306476593 0.3065004348754883
0.11271777749061584 0.4816320240497589 0.2819066047668457
-0.136275514960289 -0.007065263576805592 -0.31756484508514404
0.9431414604187012 0.2943492829799652 0.20096325874328613
-0.9725067019462585 0.4816320240497589 -0.042870279401540756
-0.4295870363712311 0.4816320240497589 -0.2628474831581116
-0.13133808970451355 -0.46250221133232117 -0.31756484508514404
-0.9999989867210388 0.33808091282844543 -0.06909355521202087
0.6935461759567261 -0.13308274745941162 -0.31756484508514404
-0.9999989867210388 0.4780874252319336 -0.08224204927682877
0.9431414604187012 0.41471773386001587 -0.150806725025177
-0.9999989867210388 -0.0427841879427433 -0.24352659285068512
-0.3492405414581299 0.23030751943588257 -0.31756484508514404
0.32799285650253296 0.4816320240497589 -0.2511492967605591
-0.15910454094409943 -0.1645050048828125 -0.31756484508514404
0.9431414604187012 -0.44206735491752625 0.09225866198539734
-0.280080646276474 -0.48993825912475586 0.1859826296567917
0.6192848086357117 -0.3951786756515503 0.1130775585770607
0.7920132875442505 -0.48993825912475586 -0.24537448585033417
0.9431414604187012 0.11396051198244095 -0.024558916687965393
0.5809932947158813 0.09590000659227371 -0.31756484508514404
0.9431414604187012 -0.16089487075805664 -0.29570138454437256
0.007748827338218689 0.2840980589389801 -0.31756484508514404
-0.15472061932086945 -0.48993825912475586 0.31562766432762146
-0.5071381330490112 0.19983458518981934 -0.31756484508514404
-0.8390694260597229 -0.41076233983039856 0.3301486670970917
0.9309159517288208 -0.03984886035323143 0.3301486670970917
0.8836995363235474 0.4816320240497589 -0.1219327375292778
-0.06816322356462479 -0.48993825912475586 -0.25725772976875305
-0.6597275137901306 -0.16617631912231445 -0.31756484508514404
0.6192848086357117 0.39093178510665894 0.1423826366662979
0.9431414604187012 -0.14073055982589722 -0.2755706012248993
-0.6078594326972961 0.4816320240497589 -0.05005081743001938
0.44807156920433044 0.39101171493530273 -0.31756484508514404
0.29542800784111023 -0.14416909217834473 0.18767952919006348
-0.9985568523406982 -0.2616439759731293 -0.31756484508514404
-0.9999989867210388 0.07173912227153778 -0.03929297253489494
0.7845304012298584 -0.24626772105693817 -0.31756484508514404
0.9431414604187012 0.3391864597797394 -0.2510392963886261
0.09605255722999573 0.4816320240497589 -0.021075336262583733
-0.35875368118286133 -0.4529188871383667 -0.31756484508514404
-0.2486356794834137 -0.3401874005794525 0.3301486670970917
0.11090455949306488 -0.04614826664328575 0.3301486670970917
0.37923869490623474 -0.27389511466026306 -0.31756484508514404
-0.6530982255935669 0.31280645728111267 0.3301486670970917
0.3358200192451477 -0.1640021800994873 0.006291912868618965
-0.3616783022880554 -0.48993825912475586 -0.1409493088722229
0.8455073833465576 0.27746230363845825 0.3301486670970917
-0.3987068235874176 -0.48993825912475586 0.04879361018538475
-0.9999989867210388 -0.21988187730312347 0.24633565545082092
0.20092880725860596 -0.48993825912475586 -0.10254128277301788
0.10701850056648254 0.4816320240497589 0.30023521184921265
0.38187429308891296 0.4816320240497589 -0.2229800969362259
0.9431414604187012 -0.3241656422615051 -0.06113424524664879
-0.5152966380119324 0.4816320240497589 0.24100331962108612
0.8984114527702332 0.18480731546878815 -0.31756484508514404
-0.026182005181908607 0.05749619007110596 -0.31756484508514404
-0.5914812088012695 -0.3525877892971039 -0.31756484508514404
0.5197520852088928 0.3882502317428589 -0.31756484508514404
0.04956720396876335 -0.48993825912475586 -0.25391489267349243
-0.7312051653862 -0.48993825912475586 -0.11215496063232422
-0.6080964803695679 -0.05216318368911743 -0.31756484508514404
0.8717225790023804 0.4816320240497589 0.1454945206642151
0.08971630781888962 0.4816320240497589 0.09349650889635086
-0.6745349168777466 -0.2997010052204132 0.3301486670970917
-0.19502079486846924 0.2065628319978714 -0.31756484508514404
-0.21985983848571777 0.4816320240497589 0.2635734975337982
0.367475301027298 -0.3769977390766144 -0.31756484508514404
-0.20744138956069946 -0.16237999498844147 -0.31756484508514404
0.45016244053840637 0.11393424868583679 0.006291912868618965
0.5583950281143188 0.4156284034252167 0.006291912868618965
0.9429000616073608 -0.48993825912475586 0.31648939847946167
0.229666605591774 0.128510981798172 0.3301486670970917
-0.8891554474830627 0.4753354489803314 0.3301486670970917
-0.05170617625117302 0.4816320240497589 -0.027099957689642906
0.29542800784111023 -0.23672010004520416 0.21242140233516693
-0.280216246843338 -0.052227530628442764 0.3301486670970917
-0.39416438341140747 -0.48993825912475586 -0.2719044089317322
0.1415225863456726 -0.3858024477958679 0.3301486670970917
-0.39260968565940857 -0.48993825912475586 -0.01815187744796276
0.6192848086357117 -0.33247074484825134 0.02553720586001873
0.29542800784111023 -0.4352487325668335 0.10226304829120636
-0.16656440496444702 -0.45178017020225525 -0.31756484508514404
-0.6832674741744995 0.3919259011745453 0.3301486670970917
-0.1633761078119278 0.4816320240497589 0.051977675408124924
0.4635588228702545 -0.4349428117275238 0.006291912868618965
-0.9999989867210388 -0.2310069352388382 -0.19335274398326874
-0.9467645287513733 -0.08514367043972015 0.3301486670970917
-0.8209880590438843 0.01849183440208435 0.3301486670970917
0.03450627252459526 0.4816320240497589 0.23739323019981384
0.4414084255695343 0.09303340315818787 -0.31756484508514404
0.893609881401062 0.4816320240497589 -0.27268967032432556
-0.1574593037366867 -0.39208167791366577 0.3301486670970917
0.27445659041404724 0.4816320240497589 0.17670203745365143
-0.9999989867210388 -0.23274624347686768 0.20517423748970032
0.0899127870798111 -0.01635938137769699 -0.31756484508514404
0.8205203413963318 0.209562748670578 -0.31756484508514404
0.0039843120612204075 0.4816320240497589 0.18581648170948029
-0.9999989867210388 0.4762215316295624 -0.28274208307266235
-0.9999989867210388 -0.16441094875335693 -0.22277101874351501
-0.10377392917871475 0.4816320240497589 -0.18097785115242004
0.6192848086357117 0.17336347699165344 0.28879180550575256
0.9431414604187012 0.08192511647939682 -0.15319260954856873
-0.7398967742919922 0.35972586274147034 -0.31756484508514404
-0.9999989867210388 -0.06339491158723831 0.15071433782577515
0.18223947286605835 0.4816320240497589 -0.02577558159828186
0.5358157753944397 0.4816320240497589 -0.28067293763160706
-0.10118242353200912 0.4816320240497589 -0.16414467990398407
-0.9999989867210388 -0.23764821887016296 0.22664687037467957
-0.3955889940261841 0.4816320240497589 0.06225280463695526
-0.14371870458126068 -0.1336352825164795 0.3301486670970917
0.4823806881904602 -0.17147061228752136 0.006291912868618965
-0.34949544072151184 0.15701605379581451 -0.31756484508514404
-0.6292293071746826 -0.48993825912475586 0.2644854187965393
0.9134018421173096 0.4816320240497589 0.17254437506198883
0.26618635654449463 -0.4312376379966736 -0.31756484508514404
-0.936955451965332 0.4816320240497589 0.01734319142997265
0.9431414604187012 -0.3994293808937073 0.05083632469177246
-0.6277931332588196 0.46506261825561523 0.3301486670970917
-0.6247447729110718 0.4816320240497589 0.0031030087266117334
-0.9999989867210388 -0.25922510027885437 -0.20018869638442993
-0.1528293639421463 -0.48993825912475586 -0.07202436029911041
-0.013249247334897518 -0.48993825912475586 0.2753986120223999
0.8986609578132629 -0.21628710627555847 0.3301486670970917
0.7387623190879822 0.1204177513718605 -0.31756484508514404
0.9431414604187012 0.17665283381938934 0.26235324144363403
0.9431414604187012 -0.2812545895576477 0.2701858878135681
-0.020962471142411232 0.4816320240497589 0.14821438491344452
-0.27790477871894836 0.4816320240497589 0.32385095953941345
0.8439801335334778 0.22924666106700897 0.3301486670970917
0.5726937651634216 -0.21043989062309265 0.006291912868618965
-0.9999989867210388 0.4425521790981293 -0.05147309973835945
-0.9999989867210388 0.3631269037723541 0.20462699234485626
0.20412057638168335 0.4816320240497589 -0.09900160133838654
0.6192848086357117 -0.26412415504455566 0.11865711212158203
0.052030593156814575 -0.38045457005500793 0.3301486670970917
-0.13743938505649567 -0.48993825912475586 0.12272678315639496
0.45307832956314087 -0.4792036712169647 0.006291912868618965
-0.6706443428993225 0.22367717325687408 -0.31756484508514404
0.03625224530696869 0.19825392961502075 0.3301486670970917
-0.6387939453125 0.4816320240497589 0.12463170289993286
0.22638161480426788 -0.44113340973854065 -0.31756484508514404
0.8942376971244812 0.11709482222795486 -0.31756484508514404
-0.5956815481185913 -0.247623473405838 -0.31756484508514404
-0.1732734888792038 0.4799806475639343 -0.31756484508514404
-0.4823455214500427 -0.2017587274312973 -0.31756484508514404
-0.44601261615753174 0.2823573350906372 0.3301486670970917
-0.3318263292312622 0.2844555675983429 0.3301486670970917
-0.8066060543060303 -0.48993825912475586 0.12412465363740921
0.9413109421730042 -0.48993825912475586 0.11607922613620758
-0.9374074935913086 0.4816320240497589 -0.23069176077842712
-0.38882386684417725 -0.48993825912475586 -0.11799660325050354
-0.810501754283905 0.4816320240497589 -0.1281270831823349
-0.34960055351257324 0.061719704419374466 -0.31756484508514404
0.19408713281154633 -0.34206923842430115 0.3301486670970917
0.1314721703529358 0.10800430178642273 0.3301486670970917
-0.9999989867210388 0.06632921099662781 -0.08086025714874268
0.16896018385887146 -0.48993825912475586 -0.022032298147678375
-0.28611937165260315 -0.3361191153526306 -0.31756484508514404
-0.3705368936061859 0.4816320240497589 0.2572117745876312
0.6192848086357117 -0.09340733289718628 0.17172472178936005
0.6708681583404541 -0.3927072584629059 0.3301486670970917
0.05878595635294914 0.4816320240497589 -0.1776580661535263
-0.5291120409965515 0.3008687496185303 0.3301486670970917
0.2232023924589157 -0.4801861643791199 0.3301486670970917
0.9431414604187012 0.23443259298801422 0.09518363326787949
0.9132601618766785 0.4816320240497589 0.030893413349986076
0.6891221404075623 0.39620867371559143 -0.31756484508514404
-0.8851096630096436 0.4816320240497589 0.20253117382526398
-0.7854506969451904 -0.14183290302753448 -0.31756484508514404
-0.9885700345039368 0.4816320240497589 -0.20057319104671478
-0.3319275379180908 0.35626038908958435 -0.31756484508514404
0.6192848086357117 0.36831116676330566 0.053138382732868195
0.602634608745575 0.4816320240497589 -0.20343035459518433
0.7301014065742493 0.308119535446167 -0.31756484508514404
-0.0937398225069046 0.4816320240497589 0.3117973506450653
0.6192848086357117 -0.083040252327919 0.2660808563232422
0.6672496795654297 0.06154300272464752 0.3301486670970917
0.2244531512260437 0.1322188377380371 0.3301486670970917
-0.13026085495948792 -0.48993825912475586 -0.06650475412607193
-0.8250206708908081 0.2566765248775482 0.3301486670970917
-0.16213320195674896 -0.3263373374938965 0.3301486670970917
-0.3322918117046356 -0.48993825912475586 0.32568973302841187
-0.058535054326057434 0.2890600264072418 0.3301486670970917
-0.5937330722808838 0.4816320240497589 -0.03757545351982117
-0.6158849596977234 0.18999288976192474 -0.31756484508514404
-0.9178439378738403 0.2613525390625 -0.31756484508514404
-0.11094201356172562 -0.48993825912475586 0.16449573636054993
-0.9999989867210388 -0.017654573544859886 -0.2748684287071228
0.6192848086357117 0.33936986327171326 0.2821069657802582
0.3877941071987152 0.014930433593690395 0.006291912868618965
0.9431414604187012 -0.3093949258327484 -0.15653489530086517
-0.8839201331138611 0.07712144404649734 0.3301486670970917
-0.8247911930084229 0.43192237615585327 0.3301486670970917
-0.690737247467041 0.11050543189048767 0.3301486670970917
0.13593925535678864 0.4816320240497589 0.168895423412323
0.03176584094762802 -0.28967174887657166 -0.31756484508514404
0.1754717081785202 -0.3859376609325409 0.3301486670970917
0.8832335472106934 0.4816320240497589 0.191655233502388
-0.9999989867210388 0.13018988072872162 -0.30956655740737915
-0.9999989867210388 -0.413899689912796 -0.15084819495677948
-0.9862927794456482 0.23012663424015045 0.3301486670970917
-0.4281403422355652 -0.3905307948589325 -0.31756484508514404
0.9431414604187012 0.09888076037168503 -0.19075970351696014
-0.566735565662384 0.4816320240497589 0.13794685900211334
-0.9999989867210388 0.4247111976146698 0.28966906666755676
-0.9999989867210388 -0.25380590558052063 -0.13184098899364471
0.5160098671913147 -0.48993825912475586 -0.23550747334957123
-0.6912020444869995 -0.42794424295425415 -0.31756484508514404
-0.02328524738550186 -0.48993825912475586 -0.23997800052165985
0.12997925281524658 -0.48993825912475586 -0.09380938112735748
0.16774851083755493 -0.3243120312690735 0.3301486670970917
-0.01936236582696438 0.34705695509910583 -0.31756484508514404
0.3086787164211273 0.02894948236644268 -0.31756484508514404
0.8052914142608643 -0.0603160485625267 -0.31756484508514404
-0.8642140626907349 0.4003569781780243 0.3301486670970917
-0.2623535692691803 -0.18562380969524384 -0.31756484508514404
-0.8481743931770325 -0.41171497106552124 0.3301486670970917
0.9431414604187012 0.035934928804636 -0.013116683810949326
0.04892926290631294 0.4816320240497589 0.20102693140506744
-0.8932455778121948 -0.09704135358333588 -0.31756484508514404
0.9431414604187012 -0.4023566246032715 0.12551099061965942
0.6496282815933228 0.39542171359062195 -0.31756484508514404
0.4456205368041992 -0.22760653495788574 -0.31756484508514404
0.46963027119636536 -0.48993825912475586 -0.30617985129356384
-0.3398456275463104 -0.13313110172748566 0.3301486670970917
0.20562173426151276 0.39110833406448364 0.3301486670970917
-0.31636467576026917 -0.39319083094596863 0.3301486670970917
0.5211060643196106 -0.3172481954097748 -0.31756484508514404
-0.2579289376735687 0.0352197028696537 0.3301486670970917
0.8157133460044861 0.08971358835697174 -0.31756484508514404
-0.7735635042190552 0.4816320240497589 0.1246291771531105
0.6192848086357117 -0.2545746862888336 0.10860437899827957
0.13444693386554718 0.4816320240497589 -0.135863795876503
-0.373121440410614 -0.11476436257362366 -0.31756484508514404
-0.7585145831108093 -0.07215108722448349 -0.31756484508514404
0.6298262476921082 0.4816320240497589 0.03273209184408188
0.4480593800544739 0.4816320240497589 0.0015959963202476501
0.6192848086357117 0.30796217918395996 0.23965413868427277
-0.9999989867210388 -0.028293203562498093 0.042531780898571014
0.39223936200141907 0.4198550879955292 -0.31756484508514404
-0.6837530732154846 0.4816320240497589 -0.3069390654563904
-0.4049690067768097 0.4810357689857483 0.3301486670970917
-0.9363099932670593 -0.48993825912475586 0.06903582066297531
-0.050892844796180725 -0.48993825912475586 0.26646047830581665
-0.06276912987232208 0.4816320240497589 0.18047024309635162
-0.8162814378738403 -0.48993825912475586 0.17051289975643158
-0.5515139102935791 0.11936881393194199 -0.31756484508514404
-0.9693443775177002 -0.48993825912475586 -0.03856245055794716
0.7487173080444336 0.4816320240497589 -0.28523820638656616
0.1801666021347046 0.14509716629981995 -0.31756484508514404
0.21834349632263184 0.4607279896736145 -0.31756484508514404
-0.9999989867210388 0.06700854748487473 0.1536841094493866
0.3025031089782715 0.4816320240497589 -0.03542181849479675
-0.8760877251625061 -0.0536600761115551 0.3301486670970917
0.6192848086357117 0.11854380369186401 0.01657959260046482
0.9431414604187012 0.03672671318054199 0.3134841322898865
-0.9999989867210388 -0.4004669487476349 -0.08875115215778351
0.7977667450904846 -0.1233476772904396 0.3301486670970917
0.08754156529903412 -0.013911411166191101 -0.31756484508514404
-0.8529178500175476 0.30999675393104553 -0.31756484508514404
0.4819202721118927 -0.25115966796875 0.006291912868618965
0.29542800784111023 0.02369128167629242 0.30069655179977417
-0.4471752643585205 -0.3687928318977356 -0.31756484508514404
0.3173852562904358 0.18009892106056213 0.006291912868618965
0.19386093318462372 0.4816320240497589 0.004907980095595121
-0.5681754946708679 -0.48993825912475586 0.327457457780838
-0.45526647567749023 -0.09565510600805283 -0.31756484508514404
0.9431414604187012 -0.28538691997528076 0.2631281912326813
-0.0013833248522132635 0.4816320240497589 -0.15773726999759674
0.740946352481842 0.39925917983055115 -0.31756484508514404
-0.6184834241867065 0.4816320240497589 0.06766630709171295
0.34611669182777405 0.05742498114705086 0.006291912868618965
0.9431414604187012 -0.12874789535999298 0.2933560907840729
-0.2437172681093216 0.4816320240497589 -0.12933103740215302
-0.35509032011032104 -0.459280788898468 -0.31756484508514404
-0.10280364006757736 -0.39498451352119446 -0.31756484508514404
-0.9999989867210388 -0.019074328243732452 0.061827123165130615
-0.36180299520492554 0.2740180194377899 -0.31756484508514404
0.36782127618789673 -0.48993825912475586 -0.11619027704000473
-0.24325968325138092 0.4816320240497589 -0.0914059579372406
-0.40975239872932434 0.3738163113594055 -0.31756484508514404
-0.638225257396698 -0.27215999364852905 0.3301486670970917
-0.5874720811843872 0.4816320240497589 0.26392075419425964
0.12635765969753265 0.017892317846417427 0.3301486670970917
-0.9999989867210388 0.4684869050979614 0.10231105238199234
-0.8297927975654602 0.4816320240497589 0.1897912621498108
-0.163398876786232 -0.48993825912475586 0.12370709329843521
-0.9999989867210388 -0.28928011655807495 0.19359497725963593
0.9431414604187012 -0.46681302785873413 -0.1147255003452301
0.9431414604187012 -0.40306606888771057 -0.1696530282497406
-0.16120892763137817 -0.16031374037265778 0.3301486670970917
0.7746877670288086 0.4816320240497589 -0.09003239125013351
0.11950614303350449 0.44320714473724365 0.3301486670970917
0.3410418927669525 0.2662001848220825 -0.31756484508514404
0.40029963850975037 0.4816320240497589 -0.2600434422492981
-0.007335498463362455 -0.48993825912475586 -0.024837760254740715
-0.5573936104774475 0.38290509581565857 -0.31756484508514404
0.6192848086357117 -0.4525400996208191 0.15058496594429016
-0.7124133110046387 0.35821518301963806 0.3301486670970917
0.9431414604187012 -0.2798478603363037 0.27221545577049255
0.9431414604187012 -0.033812202513217926 0.32634374499320984
-0.4871708154678345 -0.17324386537075043 0.3301486670970917
0.01426977850496769 0.3622646927833557 -0.31756484508514404
0.9431414604187012 -0.2744207978248596 -0.04711378738284111
0.6192848086357117 0.3808237314224243 0.06141984835267067
-0.7494354248046875 0.4816320240497589 0.019972387701272964
0.674228310585022 -0.004990884102880955 -0.31756484508514404
-0.588945746421814 -0.48993825912475586 -0.050172802060842514
0.8234462738037109 -0.09944053739309311 -0.31756484508514404
-0.18111050128936768 -0.42360928654670715 0.3301486670970917
0.46515896916389465 -0.23595589399337769 0.006291912868618965
-0.8722886443138123 0.4816320240497589 -0.03847682103514671
-0.41643327474594116 0.21019165217876434 -0.31756484508514404
0.9290152192115784 0.47730159759521484 -0.31756484508514404
0.9431414604187012 -0.10398808121681213 -0.017465882003307343
-0.9113683700561523 -0.2776097357273102 -0.31756484508514404
0.09751453250646591 0.2227938026189804 0.3301486670970917
0.7374382615089417 -0.36261701583862305 0.3301486670970917
0.6192848086357117 -0.1566149890422821 0.26718488335609436
0.045680705457925797 -0.27194374799728394 0.3301486670970917
0.1830606758594513 -0.41329190135002136 -0.31756484508514404
-0.6170700788497925 -0.48993825912475586 0.08395937085151672
-0.1927880495786667 0.26152321696281433 -0.31756484508514404
0.6192848086357117 0.11233092844486237 0.1537511795759201
0.29542800784111023 -0.36703726649284363 0.06419391930103302
-0.5194764733314514 0.037689950317144394 0.3301486670970917
-0.6743152737617493 0.3441241979598999 0.3301486670970917
0.9431414604187012 0.004312183707952499 -0.004782176576554775
0.9431414604187012 0.16540934145450592 -0.08729536086320877
0.8953062891960144 0.0032340162433683872 -0.31756484508514404
-0.7764745950698853 -0.48993825912475586 0.24034437537193298
0.9431414604187012 -0.1422809511423111 0.1822522133588791
-0.798968493938446 0.3481263816356659 0.3301486670970917
-0.6002877354621887 -0.48993825912475586 0.31225863099098206
-0.4252564609050751 0.10855362564325333 -0.31756484508514404
-0.028173018246889114 0.13939693570137024 -0.31756484508514404
0.5137217044830322 0.1436910331249237 0.006291912868618965
-0.16187351942062378 -0.16698722541332245 0.3301486670970917
0.29542800784111023 0.33166128396987915 0.011515483260154724
0.6192848086357117 -0.05210530385375023 0.09394622594118118
0.3312320113182068 0.40515369176864624 0.006291912868618965
-0.8975163102149963 -0.48993825912475586 -0.2360887974500656
-0.9999989867210388 -0.214644193649292 0.2096250355243683
-0.9999989867210388 0.3961153030395508 -0.3100689947605133
-0.9674522876739502 0.057146526873111725 0.3301486670970917
-0.5276449918746948 0.3243328928947449 -0.31756484508514404
0.8157644867897034 0.01765734702348709 0.3301486670970917
0.9431414604187012 0.009191636927425861 0.3070480525493622
-0.023717643693089485 -0.48993825912475586 -0.30361005663871765
-0.5289952754974365 -0.22124072909355164 0.3301486670970917
-0.21072842180728912 0.4816320240497589 0.019743885844945908
-0.4304317831993103 0.3428993821144104 0.3301486670970917
0.46515780687332153 -0.32695260643959045 0.006291912868618965
0.13884416222572327 0.08201874792575836 0.3301486670970917
0.13518273830413818 0.4816320240497589 0.20331989228725433
0.8995328545570374 0.4816320240497589 -0.22928959131240845
-0.45791199803352356 -0.03117201291024685 -0.31756484508514404
0.34635448455810547 -0.16402260959148407 0.006291912868618965
-0.5933005809783936 -0.217713862657547 -0.31756484508514404
-0.8364695906639099 -0.3036651313304901 -0.31756484508514404
0.29542800784111023 -0.04565711319446564 0.2041553556919098
-0.19638067483901978 0.0430697463452816 -0.31756484508514404
-0.7213233113288879 0.021729206666350365 -0.31756484508514404
0.2125825583934784 -0.41760167479515076 -0.31756484508514404
0.5339162945747375 0.1569274365901947 -0.31756484508514404
0.09116768091917038 -0.16863849759101868 -0.31756484508514404
0.11123817414045334 -0.26247870922088623 -0.31756484508514404
0.8329832553863525 -0.3857177197933197 -0.31756484508514404
0.29542800784111023 -0.1854369342327118 0.11127793788909912
-0.8716603517532349 0.3692246377468109 -0.31756484508514404
0.4084841012954712 0.10241317003965378 0.006291912868618965
0.7340924739837646 0.4816320240497589 0.2542693018913269
0.6076454520225525 0.3105424642562866 0.006291912868618965
0.852226197719574 -0.16259293258190155 0.3301486670970917
0.4363670349121094 0.28620514273643494 -0.31756484508514404
0.9416881799697876 0.08803585171699524 -0.31756484508514404
-0.5649769306182861 0.4816320240497589 0.10087821632623672
0.5858981609344482 -0.22702383995056152 0.006291912868618965
-0.9999989867210388 -0.4156619608402252 0.18342308700084686
-0.5110388398170471 -0.2772807478904724 0.3301486670970917
-0.5074950456619263 -0.12027611583471298 -0.31756484508514404
0.3049418032169342 0.4816320240497589 -0.07109531760215759
-0.5608253479003906 -0.4019758999347687 -0.31756484508514404
0.29542800784111023 -0.20696118474006653 0.21242135763168335
-0.9068974852561951 0.4816320240497589 0.13904190063476562
0.32240432500839233 -0.23418575525283813 0.006291912868618965
-0.39542508125305176 0.4816320240497589 0.18068839609622955
0.9431414604187012 0.340916246175766 0.04729851335287094
0.6192848086357117 -0.3646923303604126 0.25307127833366394
0.6680892705917358 0.4816320240497589 0.21194955706596375
-0.1147146001458168 0.4816320240497589 0.21404680609703064
0.0951622799038887 0.2621394693851471 -0.31756484508514404
0.1635553389787674 -0.4095993936061859 0.3301486670970917
-0.49508994817733765 -0.34497159719467163 -0.31756484508514404
0.28834962844848633 -0.45160001516342163 0.3301486670970917
-0.4398556649684906 -0.2516854703426361 -0.31756484508514404
0.29542800784111023 0.04118301346898079 0.30169937014579773
-0.3883741497993469 -0.48993825912475586 -0.11614933609962463
-0.041859328746795654 -0.48993825912475586 -0.13720813393592834
0.4848659038543701 -0.2683306038379669 -0.31756484508514404
0.8399779796600342 0.017470914870500565 -0.31756484508514404
0.8682087659835815 -0.28042006492614746 0.3301486670970917
0.5915153622627258 0.4816320240497589 -0.28203731775283813
