0.8913598656654358 -0.6815447807312012 -0.02725077047944069
0.4782211482524872 -0.6090271472930908 0.24601830542087555
0.813745379447937 0.3623054325580597 -0.24685664474964142
-0.9715008735656738 0.6359075307846069 -0.031228022649884224
-0.24929586052894592 0.7321264147758484 -0.24685664474964142
0.7044472098350525 -0.3617607355117798 -0.24685664474964142
0.8794571161270142 -0.6936169862747192 0.13350634276866913
-0.7220276594161987 -0.5685230493545532 -0.24050560593605042
-0.039531394839286804 0.7730370759963989 -0.22643809020519257
0.9564357399940491 0.4865031838417053 -0.24685664474964142
-0.006634020246565342 0.7451218366622925 -0.24685664474964142
0.3295273184776306 0.6822539567947388 -0.045512642711400986
0.999998927116394 0.2699280083179474 -0.18963749706745148
0.2806955873966217 -0.37495023012161255 -0.24685664474964142
0.999998927116394 -0.15514804422855377 -0.10549188405275345
-0.7581226825714111 0.7730370759963989 -0.1467961221933365
-0.7627460956573486 0.012506600469350815 0.24601830542087555
-0.9715008735656738 0.5865527987480164 0.20278897881507874
-0.7384254336357117 -0.8041627407073975 0.16482502222061157
-0.7525321841239929 0.17947497963905334 -0.04550553485751152
-0.7372991442680359 0.6307310461997986 -0.24685664474964142
0.028501449152827263 0.21370092034339905 -0.010770170949399471
-0.9194568991661072 -0.5123204588890076 -0.24685664474964142
-0.7525321841239929 -0.04269203171133995 0.21718253195285797
-0.4605614244937897 -0.5964229702949524 -0.08224786818027496
0.8298197388648987 0.35407865047454834 0.24601830542087555
-0.16108226776123047 -0.030097289010882378 -0.04346438869833946
-0.9715008735656738 0.6369591355323792 -0.1882675141096115
0.05851423367857933 -0.35237520933151245 -0.20190663635730743
-0.9715008735656738 -0.6246609091758728 -0.08527035266160965
-0.05312829837203026 -0.24576015770435333 0.24601830542087555
-0.5258814692497253 0.5864769220352173 0.22697976231575012
-0.9715008735656738 -0.6697997450828552 -0.1976742446422577
0.6007954478263855 -0.8041627407073975 -0.19575853645801544
0.4410814046859741 -0.0029859805945307016 0.0010336227715015411
-0.16177132725715637 -0.41099217534065247 0.16790105402469635
-0.16108226776123047 0.2274622917175293 0.14394034445285797
0.16332191228866577 0.7110992074012756 0.24601830542087555
0.8473657965660095 0.7676357626914978 -0.14235535264015198
-0.9715008735656738 -0.5673074722290039 0.027522437274456024
-0.0954379066824913 -0.4282624125480652 -0.24685664474964142
-0.664874792098999 -0.5950303673744202 0.11991363018751144
0.47424715757369995 -0.8041627407073975 -0.07157225161790848
0.7998319864273071 -0.7529407739639282 0.21731504797935486
0.028501449152827263 0.36346158385276794 -0.04388699308037758
0.4855425953865051 -0.30623215436935425 -0.24685664474964142
0.9995514154434204 -0.42796725034713745 0.16364014148712158
-0.9209338426589966 0.6055707335472107 -0.24685664474964142
0.7696462273597717 0.6729869842529297 0.22920595109462738
-0.7322142124176025 -0.557181715965271 0.14272966980934143
-0.626319944858551 0.7730370759963989 -0.2302127629518509
-0.30461347103118896 -0.8041627407073975 0.035912707448005676
0.923147439956665 0.19220446050167084 0.24601830542087555
-0.9715008735656738 -0.4446858763694763 -0.017733676359057426
0.028501449152827263 -0.26688817143440247 0.1312214881181717
-0.9557992815971375 -0.7588565349578857 -0.1410512775182724
0.7609903812408447 0.22227539122104645 -0.24685664474964142
0.1919272541999817 0.7730370759963989 -0.21121424436569214
0.02527911216020584 -0.8041627407073975 -0.20772123336791992
0.2993462383747101 -0.31894341111183167 -0.24685664474964142
0.984535813331604 -0.5189045667648315 0.20067285001277924
-0.34739619493484497 -0.5957880616188049 -0.07071955502033234
-0.9131423830986023 0.7635658383369446 0.06612198054790497
-0.9715008735656738 -0.7032163739204407 0.013264214619994164
0.8324471116065979 0.7705501317977905 0.1932699829339981
0.27478376030921936 0.7730370759963989 0.06210958957672119
-0.7525321841239929 0.3475046753883362 0.06673333793878555
0.2736755311489105 -0.24377530813217163 0.0668768510222435
0.7176096439361572 0.3947600722312927 0.10601895302534103
-0.2035551369190216 0.5112664103507996 -0.08328534662723541
0.3769952952861786 -0.09516462683677673 0.20520412921905518
0.5274678468704224 -0.258233904838562 0.24601830542087555
0.8776074051856995 0.1709088236093521 0.24601830542087555
-0.16108226776123047 0.37375882267951965 -0.05705561861395836
0.040606945753097534 0.5522893071174622 -0.03708910942077637
-0.9715008735656738 0.016055334359407425 0.04347999393939972
0.03343699499964714 -0.31166455149650574 0.09739086031913757
-0.16240446269512177 0.4120948910713196 -0.0614662691950798
-0.9715008735656738 0.583252489566803 -0.0019727859180420637
0.6455546617507935 0.2911193370819092 -0.05055937170982361
-0.7464890480041504 -0.8041627407073975 -0.2306465357542038
-0.16108226776123047 0.02373533509671688 -0.036555103957653046
-0.9715008735656738 0.08870979398488998 -0.16723130643367767
0.028501449152827263 -0.22701627016067505 0.1210474818944931
0.6293038725852966 0.7730370759963989 -0.1615845263004303
-0.3300015330314636 0.5841690897941589 -0.12488919496536255
0.999998927116394 -0.04747670516371727 0.04432971403002739
0.011356557719409466 0.7730370759963989 -0.24413518607616425
-0.3552466034889221 0.5863186120986938 0.18289506435394287
-0.9715008735656738 0.21965447068214417 0.03976959362626076
-0.971441924571991 0.6750121712684631 -0.19258850812911987
-0.9715008735656738 -0.5753340125083923 -0.1632581651210785
0.32471364736557007 0.7481210827827454 0.24601830542087555
-0.4280945956707001 -0.8041627407073975 0.11048883199691772
-0.558464765548706 -0.7970605492591858 -0.24685664474964142
-0.5142614841461182 -0.8041627407073975 0.06744296848773956
-0.041171129792928696 0.06674114614725113 -0.24685664474964142
-0.9715008735656738 0.49869707226753235 -0.02729320526123047
0.7837193012237549 0.4898492991924286 0.16722513735294342
0.999998927116394 0.2580070495605469 -0.020461443811655045
0.66050785779953 0.19575412571430206 -0.24685664474964142
-0.9497040510177612 0.6151626110076904 0.24601830542087555
0.8348183631896973 -0.7307243943214417 0.12378929555416107
0.028501449152827263 0.128584623336792 -0.0924907848238945
-0.37865912914276123 -0.5964229702949524 0.170612633228302
0.9153144359588623 -0.6538993716239929 -0.07291203737258911
0.14853538572788239 -0.37756556272506714 0.04295036941766739
-0.8770102858543396 -0.8037494421005249 -0.04157007858157158
0.6625972390174866 -0.5025542974472046 0.24601830542087555
0.7601621747016907 0.67681485414505 0.22820043563842773
0.8729265928268433 0.0988314151763916 -0.24685664474964142
-0.9715008735656738 0.14703693985939026 -0.187290221452713
0.4334631562232971 0.6822539567947388 -0.17205117642879486
0.6453306078910828 0.6822539567947388 -0.16985653340816498
-0.7522270083427429 -0.7563028335571289 0.24601830542087555
0.07532532513141632 0.612526535987854 -0.0992126613855362
0.7729259133338928 -0.354148805141449 -0.24685664474964142
-0.7525321841239929 0.16682125627994537 0.07525702565908432
-0.4680832624435425 0.5864769220352173 0.11913610249757767
-0.8227310180664062 0.3190266489982605 0.24601830542087555
0.7836798429489136 0.6648477911949158 0.17784319818019867
0.01369132287800312 0.7730370759963989 -0.0016066229436546564
-0.23893499374389648 -0.6151353716850281 -0.24685664474964142
0.028501449152827263 -0.20729172229766846 -0.0769614577293396
-0.9715008735656738 -0.6355481743812561 0.10438636690378189
-0.16108226776123047 -0.33908241987228394 0.1086244136095047
0.2911716103553772 -0.7552356719970703 -0.24685664474964142
0.6480590105056763 0.29472145438194275 -0.035141538828611374
0.8677788376808167 -0.6742599606513977 -0.24685664474964142
0.028501449152827263 0.32664215564727783 -0.026004595682024956
0.8308838605880737 -0.5372924208641052 0.24601830542087555
0.8225108981132507 -0.012237191200256348 -0.24685664474964142
-0.7525321841239929 0.25668302178382874 0.05424944683909416
0.36871734261512756 -0.8041627407073975 -0.07828785479068756
-0.4466796815395355 0.5864769220352173 0.03383587300777435
0.1541762351989746 0.7730370759963989 -0.226080983877182
-0.20210391283035278 0.5096378922462463 -0.06269287317991257
-0.17852099239826202 0.740807294845581 0.24601830542087555
-0.07305017858743668 -0.8041627407073975 -0.10623449832201004
0.07249828428030014 -0.8041627407073975 -0.20669525861740112
-0.24940238893032074 -0.7080373764038086 -0.24685664474964142
-0.9635136127471924 -0.0599212609231472 0.24601830542087555
0.760215163230896 0.6765680313110352 0.11852948367595673
-0.7882104516029358 0.7730370759963989 -0.13258755207061768
-0.7157530188560486 0.564487636089325 -0.1674915999174118
0.7428927421569824 -0.7794910073280334 0.11793737858533859
-0.7525321841239929 0.12604045867919922 0.027405019849538803
0.16501940786838531 0.672490656375885 -0.15257877111434937
0.1258632093667984 0.7730370759963989 -0.18458744883537292
0.1691146343946457 0.6736389398574829 -0.0449993759393692
0.999998927116394 -0.3904208838939667 0.10042014718055725
-0.19111208617687225 -0.7177360653877258 -0.24685664474964142
-0.7277848720550537 0.5526571869850159 -0.13875512778759003
-0.16108226776123047 -0.2573058307170868 -0.11635781079530716
-0.8945019841194153 -0.801663339138031 0.03461727127432823
-0.8340876698493958 -0.11059758067131042 -0.24685664474964142
-0.9715008735656738 0.5516582131385803 -0.181228369474411
-0.4003860354423523 -0.8041627407073975 -0.10347498953342438
-0.7525321841239929 0.44843176007270813 -0.0065960269421339035
0.43129080533981323 -0.3510081470012665 0.24601830542087555
0.28504449129104614 -0.4882848560810089 -0.24685664474964142
0.4688437879085541 -0.8041627407073975 0.17944788932800293
-0.9715008735656738 0.48610520362854004 0.0732804387807846
0.999998927116394 -0.03813358396291733 0.19543109834194183
-0.582237958908081 0.5864769220352173 -0.09950582683086395
0.5983886122703552 0.06926543265581131 -0.24685664474964142
0.45439571142196655 0.6822539567947388 0.19300425052642822
-0.16108226776123047 -0.1671474575996399 0.16075927019119263
-0.6957845091819763 0.7730370759963989 0.13877896964550018
0.6779704093933105 0.33774471282958984 0.14526130259037018
0.42196395993232727 0.720724880695343 -0.24685664474964142
-0.9715008735656738 -0.28048643469810486 -0.05623253807425499
-0.4132917821407318 -0.5964229702949524 0.19804412126541138
0.483670711517334 -0.07017257809638977 -0.24685664474964142
0.4596153199672699 -0.06808266043663025 -0.24685664474964142
0.02029719203710556 0.255694180727005 0.24601830542087555
-0.9137124419212341 0.694463312625885 0.24601830542087555
0.9894689321517944 -0.29547202587127686 0.24601830542087555
0.3362690508365631 0.7730370759963989 -0.055884573608636856
-0.9715008735656738 -0.5895307064056396 0.11050198972225189
0.46329784393310547 0.6842676401138306 0.24601830542087555
0.8340135216712952 0.74174565076828 0.24601830542087555
-0.16108226776123047 -0.20458902418613434 -0.021339012309908867
0.9062225818634033 -0.3673918545246124 -0.24685664474964142
-0.20758070051670074 -0.8041627407073975 0.011903103440999985
-0.3135126531124115 -0.5911504030227661 -0.1382414996623993
0.028501449152827263 -0.08591968566179276 0.19459983706474304
0.5595878958702087 -0.4738338887691498 0.24601830542087555
-0.5219831466674805 -0.8041627407073975 -0.05556893348693848
-0.738217294216156 0.5385810732841492 0.14625640213489532
-0.8348283767700195 0.7057638764381409 0.24601830542087555
-0.29926642775535583 -0.5870816111564636 -0.0811230018734932
-0.2875520884990692 0.7730370759963989 -0.08311601728200912
0.8279304504394531 -0.7353894710540771 -0.09629131108522415
-0.03237030655145645 -0.21087051928043365 0.24601830542087555
0.7416192293167114 0.31485870480537415 0.24601830542087555
-0.12178760766983032 0.7730370759963989 0.09721378237009048
0.5570041537284851 0.07361435145139694 0.24601830542087555
0.22607190907001495 0.7730370759963989 0.049434542655944824
-0.9715008735656738 0.45051124691963196 0.0449073426425457
0.4933616518974304 0.7730370759963989 0.12024513632059097
-0.23854084312915802 -0.5558077692985535 -0.1877858191728592
0.2086680382490158 -0.5661659836769104 0.24601830542087555
-0.27099841833114624 0.7312537431716919 -0.24685664474964142
-0.5077309012413025 -0.5964229702949524 -0.2246895432472229
0.999998927116394 0.4780077040195465 -0.13653825223445892
0.26892849802970886 -0.5373815298080444 -0.24685664474964142
0.5027499198913574 0.08571528643369675 0.06575068831443787
0.9574419260025024 0.5880699753761292 -0.24685664474964142
-0.6129852533340454 -0.8041627407073975 0.16319119930267334
0.743383526802063 -0.7793177366256714 -0.07245170325040817
-0.7525321841239929 -0.0706973522901535 -0.06411264091730118
0.999998927116394 0.10624828934669495 0.03688054531812668
-0.16108226776123047 0.13810743391513824 0.04785849153995514
0.8967176675796509 -0.45742443203926086 0.24601830542087555
-0.18366639316082 0.4802725911140442 0.07731787860393524
0.42811983823776245 0.7715413570404053 -0.24685664474964142
-0.7525321841239929 -0.11343706399202347 0.14281591773033142
-0.31834256649017334 0.7730370759963989 -0.020388850942254066
-0.9715008735656738 -0.454207181930542 0.1271355003118515
-0.06968940049409866 -0.32826298475265503 -0.24685664474964142
0.9050212502479553 -0.6664286851882935 -0.20729488134384155
0.9526407122612 -0.568013072013855 0.24601830542087555
0.41585221886634827 -0.8041627407073975 -0.2293926179409027
-0.2507185935974121 0.554363489151001 -0.19689619541168213
-0.003366324584931135 -0.630969762802124 -0.24685664474964142
0.8885071277618408 0.3437149226665497 0.24601830542087555
-0.8975606560707092 0.015633443370461464 0.24601830542087555
0.37709829211235046 -0.22527535259723663 0.24601830542087555
0.5645124912261963 -0.3778812289237976 0.24601830542087555
-0.27074846625328064 -0.721127450466156 -0.24685664474964142
0.05525776371359825 0.5840767621994019 -0.13156121969223022
-0.9662889838218689 -0.7354579567909241 0.19102784991264343
0.728945255279541 0.7730370759963989 0.09208344668149948
0.7077999711036682 0.0062478757463395596 -0.24685664474964142
0.7937696576118469 0.17564167082309723 0.24601830542087555
-0.9251672029495239 0.2177070677280426 -0.24685664474964142
-0.5904374122619629 -0.8041627407073975 0.017366046085953712
0.1621074378490448 -0.37362274527549744 -0.14082494378089905
0.18904927372932434 -0.4771849513053894 0.24601830542087555
0.13381025195121765 -0.8041627407073975 0.2206476479768753
-0.5482328534126282 0.7730370759963989 -0.24021661281585693
-0.3862156569957733 -0.7591244578361511 0.24601830542087555
-0.19384704530239105 0.7730370759963989 0.10132582485675812
0.7799144983291626 0.32595813274383545 0.24601830542087555
-0.5302680134773254 0.5864769220352173 -0.009594595059752464
0.825641930103302 0.5654613375663757 0.02708554081618786
0.4251136779785156 -0.3654673993587494 0.24601830542087555
-0.697523295879364 -0.5858885049819946 -0.120611771941185
0.999998927116394 -0.014399178326129913 0.21589119732379913
0.5463710427284241 0.7730370759963989 0.1454738825559616
-0.7525321841239929 0.4750792980194092 -0.023668354377150536
0.8074244260787964 -0.7450040578842163 0.24601830542087555
-0.7959409356117249 -0.8041627407073975 0.1490909904241562
0.44494539499282837 0.6822539567947388 -0.18962933123111725
-0.8204317092895508 -0.08032570034265518 -0.24685664474964142
-0.35164403915405273 -0.8041627407073975 0.06809006631374359
0.028501449152827263 0.29526257514953613 -0.23826810717582703
-0.5393598079681396 0.5864769220352173 0.046591971069574356
0.27712398767471313 -0.2541651427745819 0.24601830542087555
-0.13958804309368134 0.14393708109855652 -0.24685664474964142
0.24584992229938507 -0.2837984561920166 -0.05252788960933685
0.0964488685131073 0.7490706443786621 0.24601830542087555
-0.44395875930786133 0.6144273281097412 -0.24685664474964142
0.028501449152827263 -0.269216924905777 0.06618699431419373
-0.9701729416847229 -0.7154895067214966 0.0913829654455185
0.45461589097976685 0.7730370759963989 -0.10269887000322342
0.748578667640686 0.1684122383594513 -0.24685664474964142
0.5276376008987427 0.12151264399290085 0.06898384541273117
0.46960219740867615 0.03803706541657448 -0.03581288829445839
-0.3087020516395569 0.6467987895011902 -0.24685664474964142
-0.9616110324859619 -0.7475913166999817 -0.2034609615802765
0.028501449152827263 0.421853244304657 0.23365703225135803
0.03828967362642288 0.7730370759963989 -0.19337253272533417
-0.49964573979377747 0.7730370759963989 -0.04634224995970726
0.5998216867446899 0.6822539567947388 0.08357759565114975
0.0328088141977787 -0.6684376001358032 -0.24685664474964142
0.3732456862926483 -0.10055790841579437 0.17779593169689178
-0.9332639575004578 0.28119945526123047 0.24601830542087555
-0.786581814289093 -0.8041627407073975 0.09583524614572525
0.999998927116394 0.28316912055015564 -0.10465555638074875
0.5119408965110779 0.09893522411584854 -0.16248151659965515
0.4556311368942261 -0.8041627407073975 0.15083158016204834
-0.7525321841239929 -0.22246697545051575 -0.013158285990357399
-0.13168242573738098 -0.08593092858791351 -0.24685664474964142
0.8040049076080322 0.7729710340499878 -0.1737264096736908
0.999998927116394 -0.07112888991832733 -0.23937425017356873
-0.7525321841239929 -0.2063194066286087 0.008901377208530903
0.20681720972061157 -0.42808786034584045 -0.24685664474964142
-0.16108226776123047 -0.3946332037448883 -0.10497689247131348
0.7191202640533447 -0.7103286385536194 -0.24685664474964142
-0.16108226776123047 0.20358289778232574 0.24488656222820282
0.7837016582489014 0.1280946582555771 -0.24685664474964142
-0.7971020936965942 0.04726270213723183 -0.24685664474964142
0.7132195830345154 -0.7742230892181396 -0.24685664474964142
-0.10686145722866058 -0.6743879318237305 0.24601830542087555
-0.8059227466583252 0.20692835748195648 -0.24685664474964142
-0.9715008735656738 0.2227887511253357 -0.11020281165838242
0.6759819388389587 0.3348846137523651 0.003176996251568198
-0.22528760135173798 -0.5446615815162659 0.1602788120508194
-0.9715008735656738 -0.08190372586250305 -0.05628044530749321
-0.8023039698600769 0.1260697841644287 0.24601830542087555
-0.3662852346897125 0.6541009545326233 0.24601830542087555
0.7367693781852722 -0.015688898041844368 0.24601830542087555
0.719348669052124 -0.6698096394538879 -0.24685664474964142
0.028501449152827263 0.3635101616382599 0.22598977386951447
0.4402347803115845 -0.3504704535007477 -0.24685664474964142
-0.7525321841239929 -0.29428040981292725 0.1130710169672966
0.7412333488464355 0.4287393093109131 0.04959839954972267
0.028501449152827263 -0.06641940772533417 0.022632097825407982
0.5291121006011963 0.12363343685865402 0.09692183136940002
-0.8992334008216858 0.48419591784477234 0.24601830542087555
0.8878345489501953 0.6969674229621887 -0.24685664474964142
0.7789880633354187 -0.7521389126777649 -0.24685664474964142
-0.5291258692741394 0.5864769220352173 0.008749139495193958
0.6491429805755615 0.2962806522846222 -0.05319604650139809
-0.7585670948028564 0.07701949775218964 -0.24685664474964142
0.7119633555412292 -0.7894670367240906 -0.23567023873329163
0.028501449152827263 -0.07476489245891571 -0.12955473363399506
-0.12140550464391708 0.07562512159347534 -0.24685664474964142
-0.9715008735656738 0.12345599383115768 0.12221419811248779
-0.0856444463133812 -0.4512239098548889 -0.24685664474964142
-0.7525321841239929 -0.27564728260040283 -0.05301304906606674
0.10642816126346588 -0.4176635146141052 -0.24685664474964142
-0.16108226776123047 -0.19036990404129028 0.10217735916376114
0.9540640115737915 0.7022148370742798 0.04937746003270149
0.028501449152827263 0.1530499905347824 0.05088204890489578
0.7311396598815918 0.681952714920044 0.12891703844070435
-0.030890515074133873 0.42317917943000793 0.24601830542087555
0.6498299837112427 -0.1272151917219162 0.24601830542087555
0.999998927116394 0.15864381194114685 -0.1770235151052475
0.999998927116394 0.1523364931344986 -0.2093105912208557
-0.8697845339775085 -0.6436007022857666 -0.24685664474964142
0.4353901445865631 -0.25225502252578735 -0.24685664474964142
0.18565703928470612 0.6778252124786377 0.17958179116249084
-0.35098907351493835 0.5861738324165344 0.10894723981618881
0.999998927116394 0.3128480911254883 -0.022551514208316803
0.15841767191886902 0.6919286251068115 0.24601830542087555
0.7818153500556946 0.6666339635848999 -0.1627674102783203
0.999998927116394 0.4304453730583191 -0.11920595914125443
-0.5343109369277954 -0.6172659993171692 -0.24685664474964142
-0.887484610080719 -0.6962917447090149 -0.24685664474964142
0.028501449152827263 -0.1411009132862091 0.20128436386585236
-0.030503232032060623 0.638768196105957 0.24601830542087555
0.7343483567237854 -0.21785232424736023 0.24601830542087555
0.999998927116394 -0.19862335920333862 -0.18175600469112396
-0.9715008735656738 -0.06270315498113632 -0.058998264372348785
0.2788238823413849 0.6822539567947388 0.1929609328508377
0.3336946368217468 0.6822539567947388 0.1407923400402069
0.4093014597892761 -0.8041627407073975 0.12893542647361755
0.8056210279464722 0.7287018895149231 0.24601830542087555
-0.8947859406471252 0.28055718541145325 -0.24685664474964142
-0.7525321841239929 -0.2965870201587677 -0.13131491839885712
-0.7272095084190369 0.5532869696617126 -0.23076948523521423
0.8360422253608704 0.770078182220459 -0.07922055572271347
0.6859540939331055 0.34922805428504944 0.05892832204699516
0.8250303268432617 0.5633552670478821 0.09099689871072769
0.5104146599769592 0.09673988074064255 0.06055812910199165
-0.9715008735656738 0.08449652791023254 -0.02768232673406601
0.424945205450058 0.7730370759963989 -0.18086324632167816
0.4892531931400299 -0.16338813304901123 0.24601830542087555
0.5127509832382202 0.6822539567947388 -0.1661684513092041
0.3944716155529022 -0.07002750784158707 -0.1518401950597763
0.8664180040359497 -0.5073103308677673 -0.24685664474964142
-0.16108226776123047 -0.047780200839042664 -0.09817607700824738
0.5752730369567871 0.1900293380022049 -0.20827621221542358
-0.788006067276001 0.7730370759963989 -0.014281516894698143
-0.4452308118343353 -0.5964229702949524 0.23288345336914062
0.4874454736709595 -0.8041627407073975 0.13385902345180511
-0.43798863887786865 0.6269333958625793 -0.24685664474964142
-0.7194907665252686 -0.5711196660995483 0.16437649726867676
0.028501449152827263 0.41968852281570435 -0.053670357912778854
0.36474037170410156 -0.11279160529375076 0.22378234565258026
-0.062070902436971664 -0.8041627407073975 0.09155508130788803
-0.9715008735656738 0.11707068979740143 0.058740079402923584
0.3368585407733917 0.6822539567947388 -0.1591990441083908
0.677680492401123 0.6822539567947388 0.03195198252797127
-0.8572972416877747 0.46236562728881836 0.24601830542087555
-0.9715008735656738 0.0028739976696670055 -0.2226349413394928
-0.008011164143681526 0.7610921263694763 0.24601830542087555
0.028501449152827263 -0.12466444075107574 0.07544305175542831
-0.9046428799629211 0.7353718876838684 0.24601830542087555
0.029876820743083954 0.7730370759963989 0.08273152261972427
0.2847742438316345 -0.5590609312057495 -0.24685664474964142
-0.9715008735656738 -0.20209647715091705 -0.18550658226013184
-0.7764844298362732 -0.12384554743766785 0.24601830542087555
0.4516322910785675 -0.6121953725814819 0.24601830542087555
0.5442000031471252 0.6836803555488586 0.24601830542087555
-0.4734557569026947 0.5864769220352173 0.025017261505126953
-0.9715008735656738 -0.4405604898929596 -0.18752829730510712
-0.6893263459205627 0.5796484351158142 -0.08742286264896393
-0.8384860754013062 0.18621082603931427 -0.24685664474964142
0.7549986243247986 0.4485386908054352 0.004535042215138674
-0.19248683750629425 -0.5052953362464905 0.12689344584941864
-0.7525321841239929 -0.04429686814546585 0.08041413873434067
-0.7842148542404175 -0.7393689751625061 -0.24685664474964142
-0.6636107563972473 -0.5952243208885193 0.23002901673316956
-0.16108226776123047 -0.24334026873111725 0.10819073766469955
0.028501449152827263 -0.11577200889587402 -0.16340938210487366
0.5137649774551392 0.7730370759963989 0.17136767506599426
0.006252811290323734 0.7730370759963989 -0.12321729212999344
-0.008300639688968658 -0.8041627407073975 -0.1601579189300537
-0.20763812959194183 0.5163962841033936 -0.2066335380077362
-0.6879444122314453 -0.6441405415534973 0.24601830542087555
-0.1550895869731903 0.2168712466955185 -0.24685664474964142
0.4853455126285553 0.6822539567947388 0.1335023194551468
-0.7525321841239929 -0.4419935941696167 -0.16204474866390228
0.714354932308197 -0.7888270616531372 0.14070776104927063
0.7383013963699341 0.05678509175777435 0.24601830542087555
0.3838857412338257 -0.0852537527680397 -0.15266287326812744
-0.9715008735656738 0.2472877949476242 0.11963382363319397
0.2141755074262619 0.7730370759963989 -0.06469889730215073
-0.16399165987968445 -0.4957016408443451 0.24601830542087555
0.4244271218776703 -0.8041627407073975 0.13094183802604675
-0.2749166786670685 -0.5777685642242432 -0.16271552443504333
0.06480631232261658 0.5989894270896912 0.2379511147737503
-0.5385537147521973 0.7730370759963989 0.13344372808933258
0.6265357136726379 0.2637633681297302 0.12732070684432983
0.6010282635688782 0.07630360126495361 -0.24685664474964142
-0.216293066740036 -0.8041627407073975 0.053925514221191406
0.473453551530838 -0.5554075241088867 -0.24685664474964142
-0.16108226776123047 -0.35425639152526855 -0.18338091671466827
0.6359107494354248 -0.09467563033103943 0.24601830542087555
0.028501449152827263 0.33500146865844727 0.12693443894386292
-0.7525321841239929 -0.18271152675151825 -0.12773661315441132
-0.6046066880226135 -0.5964229702949524 -0.1304975152015686
0.113368920981884 -0.7826632261276245 0.24601830542087555
0.999998927116394 0.20610538125038147 0.002980311866849661
-0.029235128313302994 0.7401636242866516 -0.24685664474964142
-0.129891499876976 -0.6845757365226746 0.24601830542087555
-0.8097147941589355 0.40457358956336975 -0.24685664474964142
0.6729329824447632 -0.5829744935035706 -0.24685664474964142
-0.16108226776123047 0.3546960949897766 -0.20057891309261322
-0.901253342628479 -0.10830365866422653 -0.24685664474964142
-0.1281030774116516 -0.7437968850135803 0.24601830542087555
0.8362017273902893 -0.3723171651363373 0.24601830542087555
0.7717540860176086 0.7730370759963989 -0.1780012845993042
0.35933831334114075 -0.6796085238456726 0.24601830542087555
0.20771148800849915 -0.3385608494281769 -0.16668301820755005
0.8006817102432251 0.5142472982406616 0.20634299516677856
-0.16108226776123047 0.3597559332847595 0.13535432517528534
0.604446530342102 -0.5574331879615784 -0.24685664474964142
-0.43098577857017517 0.5864769220352173 -0.04161180183291435
0.7882148623466492 0.6621692776679993 -0.08078067749738693
-0.7161087989807129 0.563247799873352 0.012203836813569069
0.13566575944423676 -0.7698134183883667 0.24601830542087555
-0.7764319777488708 -0.8041627407073975 -0.16824667155742645
-0.6262932419776917 -0.5964229702949524 -0.060000207275152206
0.8515766859054565 0.019636087119579315 -0.24685664474964142
0.931654155254364 -0.6316396594047546 -0.01212291419506073
0.42872676253318787 -0.020756395533680916 0.1739414781332016
0.999998927116394 0.4783709943294525 -0.24151964485645294
0.767562210559845 0.1668430119752884 -0.24685664474964142
0.11479290574789047 -0.40328559279441833 -0.24685664474964142
-0.045647282153367996 0.5331836342811584 0.24601830542087555
0.31882596015930176 -0.2542882561683655 0.24601830542087555
0.06635286659002304 -0.3591673672199249 -0.15051031112670898
-0.8416430950164795 0.3963106870651245 0.24601830542087555
0.999998927116394 -0.3287740647792816 -0.07192777097225189
0.5232040882110596 0.7730370759963989 -0.08797658979892731
-0.20799194276332855 -0.8041627407073975 -0.21380071341991425
0.3862437307834625 -0.08186211436986923 -0.20283256471157074
0.999998927116394 -0.09161857515573502 -0.17893242835998535
0.5820385217666626 0.7730370759963989 0.00021163179189898074
-0.16591928899288177 -0.4717992842197418 -0.24685664474964142
-0.010803468525409698 -0.5760889053344727 -0.24685664474964142
0.19820179045200348 -0.8041627407073975 0.08180681616067886
0.9588331580162048 -0.5850247740745544 0.030703701078891754
-0.3045332729816437 0.7730370759963989 0.12070965021848679
-0.30251771211624146 -0.8041627407073975 -0.08879657089710236
0.999998927116394 -0.2625264823436737 -0.20348596572875977
0.33927077054977417 -0.1494259387254715 0.11102648079395294
-0.7525321841239929 0.1830555945634842 -0.010805574245750904
0.8374549746513367 0.5466992855072021 -0.24685664474964142
0.38511183857917786 0.7730370759963989 -0.09618629515171051
0.4949321448802948 -0.05932692065834999 -0.24685664474964142
0.03177331015467644 0.5204256772994995 0.15336614847183228
0.7127188444137573 0.6822539567947388 0.1335044652223587
0.6261454820632935 0.18943819403648376 0.24601830542087555
0.4993393123149872 0.737419605255127 0.24601830542087555
-0.9715008735656738 0.04850207269191742 -0.05265886336565018
0.7538860440254211 0.28791385889053345 -0.24685664474964142
0.6068297028541565 0.7730370759963989 0.1339450180530548
-0.2672143876552582 0.7730370759963989 -0.12249933183193207
0.766637921333313 -0.11370145529508591 -0.24685664474964142
0.15934765338897705 -0.37472158670425415 -0.1690896898508072
0.08246888965368271 0.7730370759963989 0.14889909327030182
0.6602790355682373 -0.3348998725414276 0.24601830542087555
0.8561171293258667 -0.714329183101654 0.177591934800148
-0.1372252255678177 -0.8041627407073975 0.23763783276081085
-0.5137269496917725 -0.8041627407073975 0.2381078451871872
0.7714003920555115 0.47213026881217957 0.1832752376794815
-0.6204730272293091 -0.8041627407073975 0.12897183001041412
0.9991003274917603 0.12958432734012604 0.24601830542087555
-0.8305937051773071 0.09840273857116699 0.24601830542087555
-0.713578999042511 0.6685464382171631 0.24601830542087555
-0.16108226776123047 0.2496803104877472 0.1796785145998001
-0.6633068919181824 0.6277477741241455 0.24601830542087555
-0.5987736582756042 0.7730370759963989 0.16573385894298553
0.6752670407295227 0.33385634422302246 -0.227739617228508
-0.3875453770160675 0.7730370759963989 0.021223777905106544
0.8877635598182678 0.5434883236885071 0.24601830542087555
-0.7458184361457825 0.5217152833938599 0.08687736839056015
0.31431323289871216 -0.1853237897157669 -0.07364295423030853
-0.8273720145225525 0.7003147006034851 -0.24685664474964142
-0.33845826983451843 0.5852708220481873 -0.0796142965555191
0.7749758958816528 -0.76593017578125 -0.22606317698955536
0.8249101638793945 0.6055431962013245 -0.2237887680530548
-0.6888464689254761 -0.8041627407073975 -0.23691333830356598
0.3704903721809387 -0.20567308366298676 -0.24685664474964142
0.5006417632102966 0.6822539567947388 -0.043234989047050476
-0.9715008735656738 -0.20642752945423126 0.0199404489248991
0.028501449152827263 0.47940173745155334 -0.12387501448392868
-0.7525321841239929 0.039991967380046844 -0.05352577194571495
-0.9298962354660034 -0.7858864665031433 -0.20022264122962952
0.5569303631782532 0.16364602744579315 -0.21214593946933746
0.11837512999773026 0.6501954197883606 0.1508001685142517
-0.16108226776123047 0.1713259220123291 0.2120036482810974
-0.9715008735656738 0.1333937644958496 0.0919938012957573
0.6099773049354553 0.14670808613300323 -0.24685664474964142
0.08058013767004013 0.7730370759963989 -0.2278946489095688
-0.9715008735656738 0.04855257645249367 -0.13975687325000763
0.830852746963501 0.7707258462905884 0.08530028164386749
0.9525234699249268 -0.0626416951417923 -0.24685664474964142
0.8124234080314636 0.7726029753684998 -0.10190913826227188
0.028501449152827263 -0.2781098484992981 -0.07072538882493973
-0.7525321841239929 -0.4313400983810425 0.19216783344745636
0.26624903082847595 0.7730370759963989 -0.0372593030333519
-0.7525321841239929 0.4445401132106781 0.07740741223096848
-0.9715008735656738 0.26250529289245605 -0.1393783837556839
-0.06810774654150009 0.7730370759963989 -0.1479230672121048
-0.8918690085411072 0.7708232998847961 0.19884179532527924
0.1615198403596878 0.6711691617965698 0.18787631392478943
-0.386027067899704 0.7730370759963989 0.04411625862121582
-0.7525321841239929 -0.06349498778581619 0.08953818678855896
0.8913460373878479 0.10099292546510696 0.24601830542087555
0.028501449152827263 0.45065903663635254 -0.18322914838790894
0.9088776111602783 0.2579463720321655 -0.24685664474964142
-0.9715008735656738 -0.5358872413635254 0.10323885828256607
-0.8973788022994995 0.7697081565856934 0.22293134033679962
0.028501449152827263 0.4804658889770508 0.06129790097475052
0.028501449152827263 -0.2787456214427948 0.039044223725795746
0.007593479938805103 0.5110712647438049 0.24601830542087555
0.8764278888702393 -0.5782878398895264 0.24601830542087555
0.8948574066162109 -0.5539556741714478 0.24601830542087555
0.5903858542442322 -0.33845824003219604 0.24601830542087555
0.6160829663276672 -0.8038819432258606 0.007662552408874035
0.8202610611915588 0.4345811903476715 0.24601830542087555
0.028501449152827263 0.12873676419258118 0.196181058883667
-0.4186150133609772 0.7730370759963989 0.22724922001361847
0.028501449152827263 0.25471511483192444 0.21807223558425903
-0.9715008735656738 0.10974343866109848 -0.1499478816986084
0.030517874285578728 0.513027548789978 0.02154073677957058
-0.16108226776123047 -0.11484548449516296 0.1893840879201889
0.028501449152827263 0.14274965226650238 -0.05799596756696701
-0.48463913798332214 -0.5964229702949524 0.19725531339645386
0.5954025387763977 0.20433320105075836 -0.24685664474964142
-0.4252442419528961 0.5864769220352173 -0.005024750716984272
-0.1615365743637085 -0.4079362750053406 0.07495126873254776
-0.6318289041519165 0.7703182101249695 -0.24685664474964142
-0.7525321841239929 -0.003928631544113159 0.10573343187570572
0.5506000518798828 -0.1323457658290863 -0.24685664474964142
-0.03800949454307556 -0.8041627407073975 -0.024168891832232475
0.9159031510353088 0.5031145811080933 0.24601830542087555
-0.9534042477607727 -0.3029993176460266 0.24601830542087555
0.03151422366499901 0.7615984678268433 -0.24685664474964142
0.23717279732227325 -0.675071120262146 -0.24685664474964142
-0.8473560214042664 0.7730370759963989 -0.003577772993594408
-0.9715008735656738 0.4766964018344879 0.14079271256923676
0.999998927116394 -0.14444375038146973 -0.21124184131622314
0.8911067843437195 0.7519595623016357 -0.13023926317691803
-0.4085083603858948 -0.6471611261367798 0.24601830542087555
0.6935864090919495 0.6822539567947388 0.0216479804366827
0.8793883323669434 -0.07217499613761902 0.24601830542087555
0.028501449152827263 -0.18003369867801666 -0.14503195881843567
0.4767284393310547 0.0032342381309717894 -0.24685664474964142
0.47200778126716614 -0.17877930402755737 -0.24685664474964142
0.626778781414032 0.26411303877830505 -0.08826367557048798
0.05956025794148445 -0.7760065793991089 0.24601830542087555
0.7834128141403198 0.4894084930419922 -0.03009672649204731
-0.9414705634117126 0.22606955468654633 0.24601830542087555
0.8135627508163452 0.7724069952964783 0.15695343911647797
0.5610532164573669 -0.8041627407073975 0.1080002412199974
0.8812811374664307 -0.5249033570289612 0.24601830542087555
-0.9715008735656738 -0.18972741067409515 -0.04913918673992157
0.9580441117286682 0.2367943525314331 -0.24685664474964142
0.08229183405637741 -0.41506171226501465 0.24601830542087555
-0.7937976717948914 -0.09899649024009705 0.24601830542087555
0.5271230936050415 -0.4142923653125763 0.24601830542087555
-0.8169354200363159 -0.7438610792160034 0.24601830542087555
0.31420695781707764 0.6822539567947388 -0.0173079501837492
0.999998927116394 0.08031042665243149 -0.010458569973707199
-0.19139482080936432 0.49407920241355896 -0.042813077569007874
-0.03845299780368805 0.0996578186750412 -0.24685664474964142
0.8097754120826721 0.5273271799087524 -0.12994448840618134
-0.22316771745681763 -0.8041627407073975 0.05011734366416931
-0.4907004237174988 0.5864769220352173 0.19278663396835327
-0.21723225712776184 -0.774895429611206 -0.24685664474964142
0.8870314359664917 -0.6859258413314819 -0.008763485588133335
-0.9715008735656738 0.42397060990333557 -0.23877643048763275
0.8899091482162476 0.28287720680236816 -0.24685664474964142
0.923660397529602 -0.23708310723304749 -0.24685664474964142
-0.8350774645805359 0.3956373929977417 -0.24685664474964142
0.12425220012664795 0.7198922634124756 0.24601830542087555
-0.1606416404247284 -0.6355795860290527 -0.24685664474964142
0.9166412949562073 -0.48876455426216125 0.24601830542087555
0.09332417696714401 -0.3740936517715454 -0.11218484491109848
0.4593049883842468 -0.8041627407073975 -0.05468403175473213
0.4594251215457916 0.6822539567947388 -0.2035428136587143
-0.38116565346717834 -0.8041627407073975 -0.01712803542613983
0.028501449152827263 -0.1873389184474945 -0.20639890432357788
-0.07467550039291382 -0.6209583282470703 0.24601830542087555
-0.9715008735656738 -0.6074695587158203 -0.17168380320072174
0.7989372611045837 0.511738121509552 0.13840632140636444
0.5057229399681091 0.6822539567947388 0.13748106360435486
0.490033894777298 -0.8041627407073975 -0.11481510102748871
-0.6607994437217712 0.5856216549873352 0.035990528762340546
0.9930576086044312 -0.34355852007865906 -0.24685664474964142
0.728360116481781 0.6822539567947388 0.13753938674926758
-0.16108226776123047 -0.17151865363121033 0.05717209726572037
-0.9715008735656738 0.4782179594039917 -0.03724798560142517
0.18482516705989838 0.7730370759963989 0.011396736837923527
-0.13011841475963593 0.14016564190387726 0.24601830542087555
-0.03445823863148689 0.037553172558546066 -0.24685664474964142
-0.9339256286621094 0.6959254145622253 -0.24685664474964142
-0.9715008735656738 0.36083924770355225 0.19835016131401062
-0.2888806164264679 -0.8041627407073975 0.17986318469047546
0.7533667683601379 -0.7753933072090149 0.2330756038427353
-0.9715008735656738 -0.7019614577293396 -0.14654682576656342
-0.9558145999908447 -0.31016993522644043 -0.24685664474964142
0.9101192951202393 -0.12693220376968384 -0.24685664474964142
0.9208535552024841 -0.04033796861767769 0.24601830542087555
0.4293653666973114 -0.6609599590301514 -0.24685664474964142
-0.2867802679538727 0.5727698802947998 0.11706490814685822
0.4312598705291748 -0.44638898968696594 -0.24685664474964142
0.8503336906433105 0.5063384771347046 -0.24685664474964142
0.999998927116394 -0.3639738857746124 -0.20828674733638763
-0.20396459102630615 0.6564398407936096 0.24601830542087555
0.6984251737594604 0.3671658933162689 0.19979745149612427
0.8000121116638184 0.367465078830719 0.24601830542087555
-0.43040281534194946 -0.7809674739837646 -0.24685664474964142
-0.7525321841239929 0.3427158296108246 0.006095488090068102
0.3350191116333008 0.6822539567947388 -0.17434661090373993
-0.2997303307056427 0.6646701097488403 -0.24685664474964142
0.3120371997356415 -0.18859754502773285 -0.08982739597558975
-0.16108226776123047 0.336225688457489 0.04091060906648636
0.5731866955757141 0.7730370759963989 -0.22255243360996246
-0.6300678849220276 0.7153258323669434 -0.24685664474964142
0.6381586790084839 0.2804812788963318 -0.20630019903182983
-0.11078476905822754 0.20206664502620697 0.24601830542087555
0.9886389970779419 -0.27789193391799927 0.24601830542087555
0.028501449152827263 0.10354039072990417 0.014561887830495834
0.7078994512557983 -0.0786726325750351 0.24601830542087555
0.999998927116394 0.3453034460544586 0.17299173772335052
-0.05383521318435669 0.7725181579589844 -0.24685664474964142
-0.7311424016952515 -0.5576931238174438 -0.0014085095608606935
-0.8952242136001587 -0.7100321650505066 -0.24685664474964142
0.8181703090667725 0.6236795783042908 -0.19272443652153015
0.3145592212677002 -0.18496999144554138 -0.17629453539848328
0.999998927116394 -0.005949211306869984 -0.031769588589668274
-0.09361183643341064 0.35024192929267883 -0.24685664474964142
0.385623574256897 0.7465853691101074 -0.24685664474964142
-0.01694417931139469 -0.19519077241420746 0.24601830542087555
0.2769225835800171 -0.4361201524734497 0.24601830542087555
0.815207302570343 -0.48309168219566345 -0.24685664474964142
0.7929498553276062 0.6584210991859436 -0.01463072095066309
0.6427565813064575 -0.1877998262643814 -0.24685664474964142
-0.06782756000757217 -0.8041627407073975 -0.20446056127548218
-0.9715008735656738 0.2483905553817749 -0.10074225813150406
0.6611336469650269 -0.20395882427692413 -0.24685664474964142
-0.34145647287368774 0.5854304432868958 0.054856084287166595
-0.16108226776123047 0.143483504652977 0.0986509844660759
0.16185443103313446 -0.37391167879104614 -0.004904100671410561
-0.9681568741798401 -0.4421154260635376 0.24601830542087555
0.9435654878616333 -0.03822324797511101 0.24601830542087555
-0.16377273201942444 -0.4307851493358612 -0.15927208960056305
0.42039141058921814 0.7730370759963989 0.08727822452783585
0.9901014566421509 -0.1892358958721161 0.24601830542087555
0.4175461530685425 0.7110328674316406 0.24601830542087555
-0.9715008735656738 -0.36562758684158325 0.08006920665502548
0.09803490340709686 0.6547164916992188 -0.24685664474964142
0.8547637462615967 -0.5983307361602783 0.24601830542087555
-0.052032552659511566 0.1371062844991684 -0.24685664474964142
0.7895135283470154 0.25231724977493286 -0.24685664474964142
0.999998927116394 0.15770746767520905 0.13508255779743195
0.9479632377624512 0.708897590637207 0.1424074023962021
-0.16108226776123047 -0.08723247796297073 -0.21816827356815338
-0.5945532917976379 -0.5996418595314026 0.24601830542087555
0.5953465104103088 0.21890220046043396 0.10238315910100937
0.8415737748146057 -0.0615900419652462 0.24601830542087555
0.7229659557342529 -0.131958469748497 -0.24685664474964142
0.755698561668396 0.44954541325569153 0.16641569137573242
0.999998927116394 -0.2815580368041992 0.10422388464212418
-0.9715008735656738 0.03278566896915436 -0.12312581390142441
0.43016761541366577 -0.6618869304656982 -0.24685664474964142
0.999998927116394 -0.08671039342880249 -0.22592554986476898
-0.2361123412847519 0.7730370759963989 0.08215002715587616
-0.2358195185661316 -0.5535434484481812 0.12135925143957138
0.011928829364478588 -0.8041627407073975 -0.19554777443408966
0.6068115830421448 -0.25872427225112915 -0.24685664474964142
-0.7574280500411987 0.3992368280887604 0.24601830542087555
-0.17479819059371948 -0.4763680398464203 0.24601830542087555
0.6010298132896423 0.22707673907279968 0.22345496714115143
0.9088790416717529 -0.1547873467206955 0.24601830542087555
-0.1118132621049881 0.34343165159225464 0.24601830542087555
-0.16108226776123047 -0.2515696883201599 0.18192876875400543
-0.9715008735656738 0.4292218089103699 0.1643364131450653
0.028501449152827263 -0.21159358322620392 -0.011790613643825054
0.999998927116394 0.3462224006652832 -0.07751606404781342
-0.9715008735656738 -0.3724645972251892 0.19812826812267303
-0.16108226776123047 -0.04776258394122124 0.08503834158182144
0.028501449152827263 0.25680357217788696 -0.20702411234378815
0.999998927116394 0.027227072045207024 0.07768488675355911
0.02912374772131443 -0.2880606949329376 0.10818298906087875
0.028501449152827263 0.051623038947582245 -0.21902316808700562
0.37426692247390747 -0.6683002710342407 -0.24685664474964142
-0.1299365609884262 -0.3995630443096161 -0.24685664474964142
-0.7453405261039734 -0.5337528586387634 -0.17052337527275085
0.31143972277641296 -0.6776638031005859 -0.24685664474964142
0.9926760792732239 0.22982260584831238 -0.24685664474964142
-0.9715008735656738 0.32138311862945557 -0.13863421976566315
0.2318013459444046 0.7730370759963989 -0.09141064435243607
0.8394595980644226 0.019367946311831474 0.24601830542087555
-0.9443463087081909 -0.14170005917549133 0.24601830542087555
0.1970554143190384 -0.5996116399765015 -0.24685664474964142
-0.4669205844402313 -0.7197179198265076 0.24601830542087555
-0.9715008735656738 -0.04948839172720909 0.21676769852638245
-0.9715008735656738 -0.1672523319721222 -0.2159724086523056
-0.9715008735656738 -0.2408992201089859 0.10595698654651642
0.5730445384979248 0.17992572486400604 -0.24685664474964142
-0.8691977262496948 -0.6901944279670715 -0.24685664474964142
0.18017931282520294 -0.3646296560764313 0.16486544907093048
-0.9411301016807556 -0.2358250468969345 -0.24685664474964142
0.10006687790155411 -0.8041627407073975 -0.018857641145586967
-0.9715008735656738 -0.18860164284706116 -0.1553472876548767
0.36110591888427734 0.7495008111000061 0.24601830542087555
0.999998927116394 0.4199642539024353 -0.07018562406301498
0.5696994066238403 -0.8041627407073975 -0.15470260381698608
-0.8394005298614502 -0.004087129607796669 -0.24685664474964142
0.999998927116394 0.5138723850250244 -0.21932333707809448
-0.8394228219985962 0.171053946018219 -0.24685664474964142
0.21362408995628357 -0.7428733110427856 -0.24685664474964142
0.5084143877029419 -0.6160656213760376 -0.24685664474964142
0.7999534606933594 0.6514483690261841 -0.017757290974259377
0.8418141603469849 0.1405857652425766 -0.24685664474964142
-0.8353130221366882 -0.2529527246952057 0.24601830542087555
-0.6551948189735413 0.7730370759963989 -0.24637015163898468
0.3801157474517822 -0.09067636728286743 -0.18204361200332642
-0.8659213185310364 0.7730370759963989 -0.24618659913539886
0.9652445316314697 -0.5602166652679443 0.24601830542087555
-0.6571673154830933 -0.5960788726806641 -0.19467030465602875
-0.4065987765789032 -0.5964229702949524 0.1770409792661667
-0.9715008735656738 -0.4587635099887848 0.107181616127491
-0.6693339943885803 0.7164377570152283 0.24601830542087555
-0.9715008735656738 -0.602993905544281 -0.22103343904018402
-0.07665759325027466 -0.8041627407073975 -0.018473710864782333
0.7248131632804871 -0.20982608199119568 0.24601830542087555
0.5994214415550232 0.7031029462814331 -0.24685664474964142
0.4010854959487915 -0.8041627407073975 -0.19688530266284943
0.23419544100761414 0.6822539567947388 0.17362801730632782
0.4058382213115692 -0.05367827042937279 0.22055819630622864
-0.11840151250362396 0.07257664948701859 -0.24685664474964142
-0.18970835208892822 0.7730370759963989 0.12387216836214066
-0.4080093204975128 0.5864769220352173 0.05028759315609932
-0.624258279800415 -0.8041627407073975 0.0802520290017128
0.6143749356269836 0.06985402852296829 0.24601830542087555
0.25091108679771423 -0.8041627407073975 0.004042456857860088
0.5887429118156433 0.20940381288528442 -0.004142462741583586
0.999998927116394 0.1797165721654892 0.2426282912492752
-0.7716177105903625 0.6772202253341675 0.24601830542087555
0.7046381831169128 -0.2361806333065033 0.24601830542087555
0.5111608505249023 0.0978132039308548 -0.08732456713914871
0.22123576700687408 -0.38738834857940674 -0.24685664474964142
-0.9715008735656738 0.37296944856643677 0.14913038909435272
-0.14611174166202545 0.2055346667766571 -0.24685664474964142
-0.08126285672187805 0.7095777988433838 0.24601830542087555
0.5137949585914612 -0.16337965428829193 -0.24685664474964142
0.8990390300750732 -0.08519180119037628 -0.24685664474964142
0.8971115350723267 0.27506223320961 -0.24685664474964142
0.999998927116394 0.18099112808704376 -0.13431638479232788
-0.4474138617515564 0.6190381646156311 -0.24685664474964142
0.999998927116394 -0.2665471136569977 -0.1350610852241516
-0.6454198360443115 -0.5964229702949524 -0.13218608498573303
-0.6593990325927734 0.7730370759963989 -0.045219261199235916
0.028501449152827263 0.4700556695461273 0.15877674520015717
0.533439576625824 -0.3261188268661499 -0.24685664474964142
-0.7525321841239929 0.07476154714822769 0.10815761238336563
0.33174046874046326 0.6822539567947388 -0.15399888157844543
0.30057042837142944 -0.8041627407073975 -0.0920364186167717
0.34232062101364136 0.7730370759963989 -0.22134485840797424
-0.2271610051393509 0.7458194494247437 0.24601830542087555
0.999998927116394 0.19213959574699402 0.17439880967140198
0.09376156330108643 -0.8041627407073975 0.07184556871652603
-0.21160554885864258 -0.5309647917747498 0.15162014961242676
-0.48762673139572144 0.7730370759963989 -0.04169067367911339
-0.1855485737323761 -0.8041627407073975 0.211612269282341
0.4475354850292206 0.006297220941632986 0.06752432137727737
-0.971164882183075 0.6785703301429749 -0.15251293778419495
0.999998927116394 0.30668678879737854 -0.11175477504730225
0.11457143723964691 0.6574192047119141 -0.24685664474964142
