0.11892787367105484 -0.004127957858145237 0.7753710746765137
0.1427655667066574 -0.3221847712993622 0.5743699073791504
0.051925912499427795 0.03618856891989708 -0.7246414422988892
-0.1353246122598648 -0.4117923080921173 -0.9013029932975769
-0.01717984676361084 0.4289059340953827 0.3830319941043854
0.1427655667066574 -0.2807164490222931 0.22880041599273682
-0.14173778891563416 -0.13939277827739716 -0.8690791130065918
0.1427655667066574 -0.30043458938598633 -0.8289312124252319
0.020925171673297882 0.07971121370792389 -0.9984402656555176
-0.01593925803899765 0.25777682662010193 -0.4678174555301666
-0.09377376735210419 -0.2556106448173523 -0.37234464287757874
-0.013258128426969051 -0.2556106448173523 -0.2235383838415146
-0.12069310247898102 -0.2556106448173523 0.7106260657310486
-0.14244961738586426 -0.3350698947906494 0.6588770747184753
-0.12111596763134003 -0.3114717900753021 0.9287688136100769
0.1427655667066574 -0.32125240564346313 -0.40584248304367065
0.13707321882247925 -0.16713011264801025 0.8143646717071533
-0.1367151141166687 -0.4211583435535431 -0.8971508145332336
0.06411119550466537 0.4289059340953827 -0.2068658024072647
0.1427655667066574 -0.2979199290275574 0.11072307825088501
0.1427655667066574 0.34509533643722534 0.4982955753803253
-0.02968347817659378 0.4289059340953827 -0.7603744268417358
0.1427655667066574 -0.2850891947746277 -0.0633002445101738
0.12626199424266815 -0.01188327930867672 -0.9238688349723816
0.09474475681781769 0.4289059340953827 0.1302756369113922
0.0706600695848465 0.020625462755560875 -0.9811005592346191
-0.016829969361424446 0.25777682662010193 -0.5070235729217529
0.11519805341959 0.25777682662010193 0.13237927854061127
-0.14244961738586426 0.3415960371494293 0.15269729495048523
-0.12922438979148865 0.09484323114156723 -0.9168732762336731
0.04136647656559944 0.25777682662010193 0.20313511788845062
0.004336276091635227 0.25777682662010193 -0.5705188512802124
-0.1260509043931961 -0.42673978209495544 0.34706443548202515
-0.14244961738586426 0.37600186467170715 0.33456361293792725
-0.08144927024841309 -0.2556106448173523 -0.037181492894887924
0.13331837952136993 0.25777682662010193 0.3821799159049988
0.1427655667066574 -0.362395316362381 0.29589781165122986
0.012526334263384342 0.25777682662010193 0.2657073438167572
-0.00316345295868814 -0.42673978209495544 0.8939307332038879
-0.0672760158777237 0.22307993471622467 0.979206919670105
0.1427655667066574 0.3348405063152313 -0.0798444151878357
-0.14230184257030487 0.20136624574661255 0.855255126953125
-0.14244961738586426 -0.39940977096557617 -0.07281801104545593
-0.0771576315164566 0.4289059340953827 0.5521851181983948
-0.018719594925642014 -0.42673978209495544 -0.8920260071754456
-0.14244961738586426 -0.29259374737739563 -0.6095360517501831
-0.05962645262479782 0.4289059340953827 0.4119267761707306
-0.04918704181909561 -0.42673978209495544 -0.015883315354585648
-0.09607589244842529 -0.2556106448173523 0.38810279965400696
0.11426451057195663 -0.37585732340812683 -0.9427115321159363
0.08212195336818695 0.1350712776184082 0.7371795177459717
0.1427655667066574 -0.2638840973377228 -0.537480354309082
-0.10126553475856781 -0.2556106448173523 -0.644366443157196
-0.007435133680701256 -0.04300259053707123 0.711628794670105
0.1427655667066574 0.3100520074367523 -0.423082560300827
-0.14244961738586426 0.3277151584625244 -0.04748811572790146
0.08181902766227722 -0.2556106448173523 -0.2245027720928192
0.13025543093681335 -0.030611200258135796 0.9120607376098633
0.06647320091724396 -0.42673978209495544 -0.7939261794090271
0.02835053764283657 0.111802838742733 0.7141716480255127
-0.14244961738586426 -0.35045748949050903 -0.5437524318695068
-0.11605577915906906 0.4289059340953827 0.006669071968644857
0.00028048380045220256 0.07286756485700607 -0.7148571014404297
0.09937521815299988 -0.42673978209495544 0.30658411979675293
0.1427655667066574 -0.2854687571525574 -0.1942119002342224
0.0377725325524807 0.25777682662010193 0.3822462260723114
0.1427655667066574 -0.27455583214759827 -0.8219473958015442
-0.029194816946983337 0.11646119505167007 0.9932637810707092
0.1427655667066574 -0.3656526803970337 -0.64607834815979
0.04051011800765991 -0.2403232604265213 -0.7206900119781494
0.05282844603061676 -0.42673978209495544 0.8101041316986084
-0.08934994041919708 0.25777682662010193 -0.37235039472579956
0.1427655667066574 -0.29343026876449585 -0.46036216616630554
0.11381251364946365 -0.42673978209495544 0.8980507850646973
-0.03788476064801216 0.4289059340953827 0.11549755930900574
0.1427655667066574 0.40686893463134766 0.7858901619911194
0.1427655667066574 -0.3766384720802307 0.2091171145439148
-0.08260933309793472 0.25777682662010193 -0.4084213376045227
0.014127593487501144 -0.42673978209495544 0.0038186574820429087
0.1427655667066574 0.3656700551509857 -0.03682399168610573
-0.14244961738586426 -0.2605137526988983 0.16750434041023254
0.1427655667066574 0.2598292827606201 0.14457303285598755
-0.14244961738586426 0.32313060760498047 0.735746443271637
-0.14244961738586426 0.29003435373306274 -0.035701628774404526
-0.07488352060317993 0.4289059340953827 -0.2124066799879074
0.1427655667066574 0.27673155069351196 -0.7230669260025024
0.07552947103977203 -0.2556106448173523 0.647871732711792
-0.0076171825639903545 0.25777682662010193 0.2302084118127823
-0.14065611362457275 -0.24480395019054413 -0.8788533806800842
-0.14244961738586426 -0.27363109588623047 -0.17294302582740784
0.009928560815751553 0.16249074041843414 0.9959748983383179
-0.14244961738586426 -0.34214600920677185 -0.2668526768684387
0.13777562975883484 0.3286121189594269 0.8907414078712463
0.07067737728357315 0.16873322427272797 -0.7336133122444153
0.11630123108625412 -0.42673978209495544 -0.2870546877384186
0.05871440842747688 -0.42673978209495544 0.7424828410148621
0.0987381786108017 -0.42673978209495544 0.37835609912872314
0.08359444886445999 0.4289059340953827 0.30332162976264954
-0.13956141471862793 0.1272028237581253 -0.8847935795783997
-0.14244961738586426 0.3928101360797882 -0.03397417813539505
0.14133967459201813 0.25529226660728455 0.873150110244751
0.1427655667066574 0.33083319664001465 -0.500048041343689
-0.05727797746658325 0.34115299582481384 0.9841794967651367
0.142653688788414 0.023618370294570923 -0.8623794913291931
0.1427655667066574 0.32796329259872437 -0.5023730397224426
0.1427655667066574 -0.2710035443305969 0.6969471573829651
0.1392584890127182 0.23647040128707886 0.8230469822883606
-0.010664723813533783 0.00999066885560751 0.9960518479347229
-0.14244961738586426 -0.3317428231239319 0.17968396842479706
-0.13017763197422028 -0.2556106448173523 0.3223830461502075
0.03239544853568077 0.4289059340953827 -0.5263941287994385
0.06486920267343521 -0.15467235445976257 0.7268682718276978
0.11648602038621902 -0.40536150336265564 -0.9397932887077332
-0.14244961738586426 0.3013005554676056 -0.804327130317688
0.1427655667066574 -0.33981409668922424 -0.3729887902736664
-0.1409006118774414 -0.005835667718201876 -0.8369351029396057
-0.09694202244281769 -0.08405004441738129 0.7497498989105225
0.0919431746006012 -0.42673978209495544 -0.5561234354972839
0.09580303728580475 -0.42673978209495544 0.6427527666091919
0.13280445337295532 -0.291874498128891 -0.9090369343757629
0.13630159199237823 -0.17490354180335999 0.8118317127227783
-0.14244961738586426 0.40479424595832825 -0.7865890264511108
-0.028817353770136833 0.4289059340953827 0.07540867477655411
-0.1413261443376541 0.4289059340953827 0.3748449981212616
-0.14244961738586426 -0.34624773263931274 -0.6247981190681458
0.001104544149711728 -0.2556106448173523 -0.5781415700912476
-0.10181502252817154 -0.42673978209495544 -0.7932450175285339
0.04492872580885887 -0.2556106448173523 -0.2572879493236542
0.14275939762592316 0.26520439982414246 0.8539856672286987
0.07660557329654694 -0.1898004412651062 -0.7372128367424011
-0.0635007917881012 -0.2556106448173523 -0.06279727071523666
0.08794357627630234 0.4289059340953827 0.4635145664215088
0.018743839114904404 0.14766083657741547 0.7125648260116577
-0.05796805024147034 -0.42673978209495544 -0.48686474561691284
0.029877007007598877 0.25777682662010193 0.672605037689209
0.09036684036254883 -0.21403710544109344 -0.7469780445098877
0.14228101074695587 -0.09035510569810867 0.8629239797592163
0.1427655667066574 0.38312408328056335 0.03964682295918465
-0.14221376180648804 -0.41397789120674133 -0.8631370663642883
-0.12228836864233017 -0.03916735202074051 0.9267010688781738
0.1427655667066574 0.32714152336120605 0.839168906211853
-0.13943994045257568 -0.31998419761657715 -0.8862614035606384
0.016597289592027664 0.25777682662010193 -0.532371461391449
0.1427655667066574 -0.33010420203208923 0.5764498114585876
-0.12568192183971405 -0.2556106448173523 -0.41578176617622375
-0.05171079561114311 0.18729162216186523 0.9865517020225525
-0.14244961738586426 0.4090941548347473 0.6927292943000793
-0.0368390716612339 -0.42673978209495544 -0.6924027800559998
-0.14244961738586426 -0.41912132501602173 0.5977427363395691
0.06216263025999069 -0.19531427323818207 -0.9854584336280823
-0.05514805018901825 -0.2556106448173523 0.011023938655853271
0.09013664722442627 0.24846602976322174 0.7432813048362732
-0.14244961738586426 -0.31964656710624695 0.8231948614120483
0.02040155604481697 0.4289059340953827 -0.35490530729293823
0.13159865140914917 -0.1333799511194229 -0.9125146269798279
0.13377003371715546 0.14604945480823517 -0.807957649230957
0.07039304077625275 0.17909131944179535 0.7299407720565796
-0.027623027563095093 0.25777682662010193 0.16920815408229828
-0.14244961738586426 -0.4136357307434082 0.5615742206573486
-0.14244961738586426 0.38792356848716736 -0.6857176423072815
-0.11045510321855545 0.4289059340953827 0.45825937390327454
0.1412869095802307 0.25777682662010193 -0.38029396533966064
-0.08575213700532913 0.04445125162601471 -0.9709018468856812
0.11511204391717911 -0.42673978209495544 -0.22240275144577026
0.05103040486574173 0.12473690509796143 0.720743715763092
-0.14244961738586426 -0.2657981812953949 0.42739999294281006
0.06456498801708221 0.4289059340953827 0.13451716303825378
-0.038337696343660355 0.3113166391849518 0.9910593628883362
0.016016105189919472 -0.42673978209495544 -0.8421933054924011
0.08685830980539322 0.25777682662010193 0.36055901646614075
0.09464365988969803 0.34315940737724304 0.960497260093689
-0.026893889531493187 -0.2556106448173523 -0.06068284809589386
0.018925288692116737 -0.42673978209495544 -0.14762923121452332
-0.13253621757030487 -0.2556106448173523 0.07192713022232056
0.06772441416978836 -0.42673978209495544 -0.17379894852638245
0.0896788239479065 0.25777682662010193 0.7270175218582153
0.1427655667066574 0.3801868259906769 0.6610560417175293
0.12960347533226013 0.25777682662010193 -0.7234480977058411
-0.05955585837364197 0.4289059340953827 -0.470479279756546
0.033439427614212036 -0.0942625179886818 0.992329478263855
-0.10332067310810089 0.4289059340953827 0.3235642611980438
-0.11437305063009262 -0.42673978209495544 -0.2957598865032196
-0.14244961738586426 -0.2969619333744049 0.7232869267463684
0.02030123583972454 -0.10556679964065552 -0.7163586616516113
0.09761598706245422 0.07495000213384628 -0.9613493084907532
-0.1326383352279663 0.03693144768476486 -0.908705472946167
-0.14244961738586426 -0.4140343964099884 0.3830367922782898
-0.11929796636104584 -0.2556106448173523 0.42404139041900635
-0.023316822946071625 0.4289059340953827 0.12677961587905884
0.06245116516947746 -0.011390532366931438 0.9818782806396484
0.03843870386481285 0.25777682662010193 0.5049811005592346
-0.14103417098522186 0.25777682662010193 -0.7802869081497192
-0.14244961738586426 -0.3893425166606903 0.5473505854606628
0.10295306146144867 -0.005157089792191982 -0.9560582637786865
0.1427655667066574 -0.407452791929245 -0.05363520234823227
-0.023734720423817635 0.4289059340953827 -0.2072659581899643
0.0897626131772995 -0.045115068554878235 -0.7467559576034546
0.10556702315807343 0.2556326985359192 -0.9533199071884155
-0.14244961738586426 -0.424706369638443 0.5696277022361755
0.0298094991594553 0.4289059340953827 0.6613486409187317
-0.02911488711833954 0.25777682662010193 -0.3966696262359619
-0.13683736324310303 -0.42673978209495544 -0.8331298232078552
-0.03033517114818096 -0.21928952634334564 -0.9963447451591492
-0.13173280656337738 -0.42673978209495544 0.5225611329078674
0.11677146703004837 0.25777682662010193 0.5010784864425659
0.1427655667066574 -0.2627032399177551 -0.6123169660568237
-0.05963330715894699 0.04898325353860855 0.9832383394241333
-0.05818608030676842 -0.42673978209495544 0.6353945732116699
-0.14244961738586426 0.3431176543235779 0.19495953619480133
0.10216652601957321 -0.2556106448173523 -0.18209712207317352
-0.00343117187730968 0.21822096407413483 0.7113674879074097
0.10609972476959229 -0.017269974574446678 -0.762394368648529
-0.11995317041873932 0.006347052752971649 0.9305282831192017
0.1427655667066574 0.3915403485298157 0.527357280254364
0.1427655667066574 0.4147226810455322 -0.1971876472234726
0.13562950491905212 0.12407364696264267 0.8976237773895264
-0.11162364482879639 0.0798395574092865 -0.9456361532211304
0.035123784095048904 -0.1799630969762802 0.7156274914741516
0.09286172688007355 0.25777682662010193 0.5915895700454712
0.13849765062332153 0.2314363718032837 -0.891929566860199
-0.13921916484832764 0.25777682662010193 -0.6647145748138428
0.1427655667066574 0.41433513164520264 0.5318864583969116
-0.14244961738586426 -0.37288418412208557 0.5086106061935425
0.03293534368276596 -0.42673978209495544 -0.6220659613609314
-0.07797501236200333 -0.072950579226017 -0.9765260219573975
0.1427655667066574 -0.27357175946235657 0.2830077111721039
-0.11773842573165894 0.1286475956439972 0.7737993597984314
-0.04322628676891327 -0.17832008004188538 -0.7217815518379211
0.14169597625732422 -0.2556106448173523 -0.39231356978416443
-0.14244961738586426 -0.3919212222099304 -0.7427926063537598
-0.14150767028331757 0.07833529263734818 -0.8730639815330505
0.12371597439050674 0.25777682662010193 -0.36018770933151245
-0.13685116171836853 0.4289059340953827 -0.8263272047042847
-0.09340984374284744 0.08079136908054352 -0.7498674392700195
-0.11734237521886826 -0.42673978209495544 -0.5731458067893982
0.003511444665491581 -0.2556106448173523 -0.13585489988327026
0.1427655667066574 -0.3178212642669678 0.03816070407629013
0.10409444570541382 0.41440945863723755 -0.9549990296363831
0.04005409777164459 -0.2556106448173523 0.18086792528629303
0.09774655103683472 0.18826042115688324 -0.7535788416862488
-0.06371531635522842 -0.42673978209495544 0.1486445963382721
-0.1092267632484436 0.2751366198062897 -0.9488149285316467
-0.14244961738586426 -0.326401948928833 -0.47272974252700806
-0.14244961738586426 -0.3462260067462921 0.2734687030315399
-0.14014989137649536 -0.38179636001586914 -0.8828269243240356
0.01944522000849247 0.25777682662010193 0.015169342048466206
-0.02663722261786461 0.4289059340953827 0.3816898763179779
0.03880622610449791 -0.2556106448173523 0.3171902596950531
-0.14244961738586426 0.33328166604042053 0.441224068403244
-0.10827111452817917 -0.10642758011817932 -0.9495843052864075
-0.1413245052099228 -0.3283099830150604 -0.8751975297927856
-0.14244961738586426 0.2897782623767853 0.32826465368270874
-0.08145175874233246 0.04145374521613121 0.7371509075164795
0.052307143807411194 0.4289059340953827 -0.5761760473251343
-0.14244961738586426 0.26469412446022034 0.09951100498437881
-0.0992456004023552 -0.21453547477722168 0.9558379650115967
0.05310036242008209 0.4289059340953827 -0.11209268867969513
0.07718341797590256 -0.42673978209495544 0.3330501914024353
0.1427655667066574 -0.2731580436229706 -0.40795108675956726
-0.14244961738586426 -0.40806272625923157 -0.6554010510444641
0.011046641506254673 -0.42673978209495544 0.9042341113090515
0.12111596763134003 -0.17405863106250763 0.9289284944534302
-0.14244961738586426 -0.3409593403339386 -0.1163831278681755
0.04929772764444351 -0.2556106448173523 -0.3798578083515167
0.12104640901088715 -0.14593037962913513 -0.7820853590965271
0.13114510476589203 0.2012106329202652 -0.8017447590827942
0.1427655667066574 -0.38460296392440796 0.6603699922561646
0.08785884827375412 0.4289059340953827 0.559972882270813
-0.08898438513278961 -0.2556106448173523 0.3078974485397339
0.09551527351140976 0.4289059340953827 0.1942700743675232
-0.008900091983377934 -0.1994735151529312 0.9961515665054321
-0.12305194139480591 0.4289059340953827 -0.712611973285675
0.04156120494008064 0.016692006960511208 -0.9937117695808411
0.011262786574661732 0.25777682662010193 -0.235996276140213
-0.06312479078769684 -0.42673978209495544 -0.31104815006256104
0.08568385988473892 -0.2556106448173523 0.29755091667175293
-0.06940372288227081 0.4289059340953827 -0.24163953959941864
-0.0859285295009613 0.25777682662010193 -0.1635463833808899
0.021106448024511337 0.08333639055490494 0.9948985576629639
0.1427655667066574 0.32308825850486755 -0.7381910085678101
-0.13662490248680115 0.25777682662010193 0.4396727383136749
0.1427655667066574 -0.3122401833534241 -0.7281635403633118
0.1427655667066574 -0.41534438729286194 0.38171711564064026
-0.12634055316448212 -0.22595326602458954 0.7882165908813477
-0.02386382594704628 0.4289059340953827 0.2509973645210266
-0.06296055763959885 0.25777682662010193 0.39690589904785156
0.1427655667066574 0.364246129989624 0.43273141980171204
-0.07347501814365387 0.25777682662010193 0.07294206321239471
0.1427655667066574 0.2907913625240326 0.41551071405410767
0.12768788635730743 0.25777682662010193 -0.2635539472103119
0.08933186531066895 -0.42673978209495544 0.6908657550811768
0.05624077096581459 -0.42673978209495544 -0.33217430114746094
-0.08687133342027664 0.4289059340953827 -0.6121715903282166
-0.13732415437698364 0.19857685267925262 0.8166961073875427
0.1076153963804245 -0.219276562333107 -0.763791024684906
0.1427655667066574 -0.2853233814239502 -0.256253719329834
-0.01862235926091671 0.42246612906455994 -0.9985761046409607
-0.14244961738586426 -0.28062817454338074 0.8325616717338562
0.06185421720147133 -0.42673978209495544 -0.49929144978523254
-0.14244961738586426 -0.31305646896362305 0.45809659361839294
0.1427655667066574 0.32703879475593567 0.7792630791664124
-0.009366651065647602 -0.42673978209495544 -0.6977214217185974
-0.03343437239527702 0.4289059340953827 -0.6818647384643555
-0.14244961738586426 0.39540889859199524 0.41964393854141235
-0.0978369265794754 -0.42673978209495544 0.7465434670448303
-0.14244961738586426 0.3653191328048706 -0.10788226127624512
-0.06625431776046753 0.4289059340953827 0.47872304916381836
0.1427655667066574 -0.28402087092399597 0.4343295097351074
-0.14244961738586426 -0.4150141179561615 -0.043452370911836624
-0.11639940738677979 -0.2556106448173523 -0.678479790687561
-0.05419043079018593 0.4289059340953827 -0.4570005536079407
-0.05097060650587082 0.25777682662010193 -0.45688891410827637
-0.061865780502557755 -0.42673978209495544 -0.18696661293506622
-0.09567178785800934 0.01949078030884266 -0.7522851228713989
0.013494148850440979 0.2525689899921417 0.9957866072654724
0.03355327993631363 0.4289059340953827 -0.5719316601753235
0.03766852989792824 -0.2556106448173523 0.38398703932762146
-0.14244961738586426 -0.3373795747756958 -0.3051607310771942
-0.04166794940829277 -0.42673978209495544 0.16026394069194794
-0.11368049681186676 0.25777682662010193 0.3127844035625458
0.0005540283164009452 0.20052355527877808 0.7116217613220215
-0.1262960135936737 -0.22457431256771088 0.919459879398346
-0.14244961738586426 0.3246755301952362 0.0041962056420743465
0.1299225091934204 0.4289059340953827 0.5922682881355286
-0.1233772337436676 0.0976349413394928 0.9249696731567383
-0.07546993345022202 -0.42673978209495544 -0.4471404254436493
-0.14217066764831543 0.2981753647327423 0.8590272068977356
-0.0404588021337986 0.00340992771089077 0.9904440641403198
0.0653332769870758 -0.2556106448173523 0.6434754729270935
-0.019843071699142456 0.22848087549209595 -0.7166042923927307
0.138999342918396 -0.1820233017206192 0.8861121535301208
-0.016331885010004044 -0.42673978209495544 0.7052076458930969
0.03838849812746048 -0.11304090172052383 -0.9945473074913025
0.09155097603797913 0.25777682662010193 0.4634940028190613
-0.10935226827859879 0.059408508241176605 0.9450951218605042
-0.005539854988455772 -0.22864066064357758 -0.9998181462287903
0.14171910285949707 0.35972675681114197 -0.8738818168640137
-0.06388973444700241 -0.0702337771654129 -0.7300873398780823
-0.014437890611588955 0.25777682662010193 0.27093133330345154
-0.05593432858586311 0.16683712601661682 -0.7264619469642639
-0.12921136617660522 -0.42673978209495544 0.10339837521314621
-0.11957605183124542 0.4289059340953827 -0.5297335386276245
-0.008132916875183582 -0.42673978209495544 -0.6539674997329712
0.12956535816192627 -0.2368554174900055 0.9134708642959595
0.08409827947616577 -0.2556106448173523 -0.030212663114070892
-0.13520483672618866 -0.40034517645835876 0.8982276320457458
-0.14244961738586426 0.2750074863433838 -0.6037418246269226
0.11562400311231613 -0.2556106448173523 -0.26914647221565247
-0.14238090813159943 -0.2556106448173523 0.04739036783576012
0.1427655667066574 -0.3720681071281433 -0.2084849625825882
-0.12498842924833298 0.22643069922924042 -0.9254854917526245
-0.14244961738586426 -0.3453384339809418 -0.472403347492218
0.13701874017715454 -0.3990474343299866 0.8938153982162476
0.007206137757748365 -0.42673978209495544 -0.7275598049163818
0.1427655667066574 0.33277180790901184 -0.5382264852523804
-0.10787154734134674 -0.42673978209495544 0.1341109275817871
-0.1420973390340805 -0.07821670919656754 0.8635387420654297
0.03446481004357338 0.4289059340953827 0.10408690571784973
0.11840125918388367 0.21095193922519684 0.9333540201187134
-0.003259660443291068 -0.18230506777763367 0.9963104128837585
-0.1284622699022293 -0.12935246527194977 -0.795892596244812
0.07447753101587296 0.25777682662010193 -0.04179234430193901
-0.09472890198230743 -0.03166733682155609 0.9600781202316284
-0.14032825827598572 -0.15957097709178925 0.877228319644928
0.13832202553749084 0.25777682662010193 -0.8197518587112427
-0.10762456059455872 0.4289059340953827 0.5946871042251587
0.11366549879312515 -0.42673978209495544 -0.5924476385116577
-0.14244961738586426 0.3630758821964264 0.7281731963157654
0.04776131734251976 0.25777682662010193 0.7002679109573364
-0.14244961738586426 0.37451842427253723 -0.6395184993743896
-0.11824542284011841 0.4289059340953827 0.9078074097633362
-0.14244961738586426 -0.3894161880016327 -0.12519532442092896
0.13302770256996155 -0.42673978209495544 -0.8210296034812927
0.09663206338882446 0.0250961035490036 -0.9621109962463379
-0.12226386368274689 0.02949095331132412 0.9269039630889893
-0.13832922279834747 -0.08264487236738205 0.8870431780815125
-0.13972342014312744 -0.14415429532527924 -0.8308545351028442
-0.06936568021774292 -0.07389048486948013 -0.7329310774803162
-0.0480663888156414 -0.23759157955646515 -0.7233319282531738
-0.14244961738586426 -0.4245905876159668 -0.3413674533367157
-0.14244961738586426 -0.3243717849254608 -0.4231877624988556
-0.0596148855984211 -0.2556106448173523 0.321242094039917
-0.11184424161911011 -0.1661379635334015 0.9418327808380127
-0.06672944128513336 -0.42673978209495544 -0.7896763682365417
0.12146533280611038 0.25777682662010193 -0.3346473276615143
-0.03411536291241646 -0.2556106448173523 -0.6324301958084106
-0.14244961738586426 0.42340585589408875 0.14722940325737
-0.14244961738586426 -0.2760336101055145 -0.7914879322052002
0.10301259905099869 0.05173087492585182 0.9525851011276245
0.03430674970149994 -0.42673978209495544 -0.25509265065193176
-0.14244961738586426 0.3493994474411011 0.08896733820438385
-0.03225066885352135 -0.42673978209495544 -0.5020141005516052
0.12367501854896545 0.1421610563993454 0.78265780210495
0.014586185105144978 0.1818377822637558 0.7120992541313171
0.1427655667066574 0.3661578595638275 -0.3584582805633545
0.03582336753606796 -0.2556106448173523 0.5662237405776978
-0.14244961738586426 -0.2988719642162323 0.1344314068555832
0.1427655667066574 -0.4242258667945862 0.15675172209739685
-0.10934969782829285 -0.10623820871114731 -0.9483165144920349
-0.06042575463652611 -0.2556106448173523 0.5035994052886963
-0.050318311899900436 0.26909321546554565 -0.9907477498054504
0.14241842925548553 -0.22260643541812897 -0.8672472238540649
-0.014458537101745605 -0.42673978209495544 -0.44783255457878113
0.04038812592625618 0.2585335373878479 -0.9941862225532532
0.0706433653831482 0.4289059340953827 0.16939911246299744
0.14219552278518677 0.08069365471601486 -0.8680398464202881
-0.11841291189193726 -0.42673978209495544 -0.14609941840171814
-0.10595579445362091 -0.13870327174663544 0.7588487267494202
-0.12674346566200256 -0.42673978209495544 0.6141862869262695
0.1427655667066574 0.2734890580177307 -0.08909318596124649
-0.14244961738586426 0.2913955748081207 -0.8234405517578125
-0.14244961738586426 0.3441299498081207 0.6579688191413879
0.007834527641534805 0.4289059340953827 -0.9227402806282043
0.05941450595855713 0.05255795270204544 0.7242128252983093
-0.03825785219669342 -0.3673149049282074 -0.9945171475410461
0.1427655667066574 0.4108635187149048 0.34775716066360474
0.1427655667066574 0.31935739517211914 -0.3244510591030121
0.1427655667066574 0.346041738986969 0.025695279240608215
-0.020045340061187744 -0.2556106448173523 -0.28790977597236633
-0.14244961738586426 0.2581828832626343 -0.8224475383758545
0.11815623939037323 -0.2556106448173523 0.03719563037157059
0.0016351845115423203 0.25777682662010193 0.5424240827560425
-0.14244961738586426 -0.391096830368042 0.8449267745018005
-0.08096489310264587 -0.2556106448173523 -0.49954649806022644
-0.08629082888364792 -0.42673978209495544 -0.5977146625518799
-0.08648410439491272 0.033801209181547165 -0.7443119287490845
-0.11881092935800552 -0.42673978209495544 -0.6456192135810852
-0.03399653732776642 -0.42673978209495544 0.3744461238384247
0.034871656447649 -0.42673978209495544 0.5391213297843933
-0.02932700514793396 -0.42673978209495544 0.29469141364097595
0.1427655667066574 -0.3253122568130493 0.015979265794157982
0.1427655667066574 -0.35272836685180664 0.4872365891933441
-0.14244961738586426 -0.4081553816795349 0.7373140454292297
0.0017181988805532455 -0.3765929341316223 0.9964162707328796
-0.14244961738586426 0.38248297572135925 0.8347072005271912
0.1427655667066574 0.3578382432460785 0.46561089158058167
0.11765523999929428 -0.42673978209495544 -0.6967076063156128
0.13571834564208984 0.4052451252937317 0.8978819847106934
-0.01226478349417448 -0.2556106448173523 0.5026811957359314
-0.14244961738586426 -0.35823267698287964 -0.0390196293592453
-0.14244961738586426 -0.29206353425979614 -0.5630757808685303
0.1427655667066574 0.3784860372543335 -0.20581205189228058
-0.14244961738586426 0.26522499322891235 0.10670232772827148
0.009918195195496082 -0.2556106448173523 0.05037648230791092
-0.10573896765708923 0.4289059340953827 -0.9130882024765015
-0.02386622503399849 -0.42673978209495544 -0.9879449605941772
0.1427655667066574 0.26006925106048584 0.3019516170024872
-0.02018960751593113 -0.42673978209495544 -0.4222937226295471
0.05311844125390053 0.4289059340953827 -0.017033779993653297
-0.04799708351492882 -0.42673978209495544 0.47918325662612915
0.1278596669435501 -0.42673978209495544 0.6237258315086365
0.09743513911962509 -0.23652981221675873 0.9579709768295288
-0.0037520918995141983 0.25777682662010193 0.10648103803396225
-0.13852524757385254 0.05275532603263855 -0.8242835402488708
-0.0827002301812172 0.4289059340953827 0.8611742854118347
0.07082764059305191 0.4289059340953827 -0.47296619415283203
-0.008562294766306877 0.0509604848921299 0.9960281848907471
0.09960507601499557 -0.2556106448173523 0.10618513822555542
0.07661191374063492 0.37363529205322266 0.974128007888794
-0.02015499770641327 -0.2556106448173523 0.23536719381809235
-0.12242355197668076 -0.40384384989738464 0.926706075668335
-0.14164218306541443 -0.2556106448173523 -0.3726929724216461
-0.07415086776018143 0.20857669413089752 0.9754542112350464
0.1427655667066574 -0.34880074858665466 -0.7550593018531799
0.039738915860652924 0.25777682662010193 -0.08624140173196793
-0.13921847939491272 -0.11756373941898346 0.8829502463340759
-0.13264133036136627 -0.006181524135172367 0.8021486401557922
0.12768737971782684 0.25777682662010193 -0.09104354679584503
-0.09165463596582413 -0.24513602256774902 0.7448680996894836
0.1427655667066574 0.40979599952697754 -0.44444936513900757
0.1427655667066574 0.28299519419670105 0.39338213205337524
0.13256105780601501 -0.18769757449626923 0.9066599607467651
0.11960697919130325 -0.20852871239185333 -0.9352942109107971
0.05087285488843918 0.25777682662010193 0.2532045543193817
-0.06915108114480972 -0.42673978209495544 -0.12385998666286469
0.06870028376579285 0.034557878971099854 -0.9822041392326355
0.08134852349758148 0.06097753345966339 0.9708727598190308
0.1427655667066574 0.29889294505119324 -0.6609083414077759
0.11810664087533951 0.4289059340953827 -0.8399288654327393
-0.0333624929189682 0.25777682662010193 0.09493202716112137
-0.06605050712823868 -0.16201013326644897 -0.9835875630378723
0.057910993695259094 0.4289059340953827 0.5922434329986572
-0.14244961738586426 0.26401445269584656 -0.5941025018692017
0.09948093444108963 0.2302023470401764 0.7519583106040955
0.04774007201194763 0.25777682662010193 -0.2178647220134735
0.1189955547451973 -0.42673978209495544 -0.13206692039966583
-0.07945933192968369 -0.2556106448173523 -0.2727319300174713
-0.14244961738586426 0.3187626004219055 0.6573452949523926
0.04917984455823898 -0.2804323434829712 -0.9912583827972412
-0.14244961738586426 -0.41565313935279846 0.2363700568675995
-0.09549274295568466 -0.3196004629135132 0.9595240354537964
-0.1305592954158783 0.07366516441106796 -0.9141515493392944
0.09944546967744827 0.4289059340953827 -0.5239603519439697
0.09028340131044388 -0.42673978209495544 0.2739727795124054
0.1427655667066574 0.26156777143478394 0.15419703722000122
-0.14229190349578857 -0.2556106448173523 -0.15671102702617645
0.13965660333633423 -0.42673978209495544 0.3358219563961029
0.14211353659629822 0.04269878938794136 0.8646306991577148
0.03923329338431358 -0.2556106448173523 -0.15085427463054657
-0.12689758837223053 -0.42673978209495544 -0.4220333695411682
0.10795507580041885 0.4289059340953827 0.5131118893623352
-0.10546045005321503 0.4289059340953827 -0.4932093024253845
-0.1180286779999733 -0.27049922943115234 0.9334474205970764
-0.14244961738586426 0.41734960675239563 0.8060932159423828
0.1427655667066574 -0.32434895634651184 -0.617132842540741
0.1427655667066574 -0.35208237171173096 -0.1751505732536316
-0.14244961738586426 0.35432299971580505 -0.6293293237686157
0.13585516810417175 -0.42673978209495544 0.1581549048423767
0.1337631791830063 0.18443366885185242 0.804239809513092
0.07739802449941635 -0.2556106448173523 -0.17123381793498993
-0.13889722526073456 0.25777682662010193 -0.10337001830339432
-0.03852934017777443 -0.2556106448173523 -0.39270302653312683
0.0747547596693039 -0.16910475492477417 -0.7362798452377319
-0.13366329669952393 0.38741183280944824 -0.9062730669975281
0.0034339132253080606 0.20828098058700562 -0.9998003244400024
-0.14244961738586426 -0.3665640950202942 0.03556138649582863
-0.14244961738586426 -0.31927797198295593 0.6378495693206787
0.03120891936123371 -0.42673978209495544 -0.9371864199638367
-0.015035953372716904 -0.42673978209495544 -0.3681199848651886
-0.14244961738586426 -0.3627279996871948 0.49626535177230835
0.003067930694669485 -0.2556106448173523 0.4568905532360077
-0.13702525198459625 -0.2556106448173523 0.6269101500511169
0.1427655667066574 -0.3659469783306122 0.04326561093330383
0.04112360253930092 0.4289059340953827 -0.03162844479084015
0.09305430948734283 0.4289059340953827 0.7790526747703552
-0.14244961738586426 -0.298798143863678 -0.8311654925346375
0.05144864320755005 0.17566321790218353 -0.9901570081710815
-0.014900680631399155 -0.42673978209495544 0.05297194421291351
0.04338495060801506 0.11709949374198914 0.718032956123352
-0.13932806253433228 -0.42673978209495544 -0.2171955555677414
-0.14244961738586426 0.2692613899707794 0.18594233691692352
-0.11194053292274475 0.4289059340953827 0.1805351823568344
-0.0795835480093956 -0.42673978209495544 -0.6726205348968506
0.13345083594322205 -0.196886345744133 0.9039419889450073
0.12852145731449127 -0.2556106448173523 0.3899863362312317
0.07430996000766754 0.25777682662010193 0.44324296712875366
-0.027412792667746544 0.4289059340953827 0.10007334500551224
0.12773767113685608 0.24939782917499542 0.9174314141273499
-0.03169175609946251 -0.42673978209495544 0.2892003059387207
-0.09872301667928696 -0.2556106448173523 -0.2797921895980835
0.1427655667066574 -0.3801043927669525 -0.4026099145412445
0.1427655667066574 0.39975425601005554 -0.7877054214477539
0.10294920206069946 -0.4044434130191803 -0.9561260938644409
0.05659587308764458 -0.2556106448173523 0.26627516746520996
-0.12618978321552277 -0.0776340439915657 -0.7915742993354797
-0.07098758965730667 0.1512151062488556 -0.9808568954467773
0.11556635051965714 -0.42673978209495544 0.7208043932914734
0.1255415976047516 0.13600806891918182 0.9216198325157166
-0.06947053968906403 0.25777682662010193 -0.09823538362979889
0.04080996289849281 -0.2556106448173523 -0.22330279648303986
0.1427655667066574 -0.2693113684654236 -0.5018528699874878
-0.05122179165482521 0.23784227669239044 -0.9904351234436035
-0.07731518149375916 -0.1026352047920227 0.7342710494995117
0.12686459720134735 -0.1803847700357437 0.9189650416374207
-0.015050945803523064 -0.42673978209495544 0.6369741559028625
0.07172571867704391 0.25777682662010193 -0.10181116312742233
-0.05117826908826828 0.016892028972506523 -0.9903284907341003
0.01056637428700924 -0.19599349796772003 0.7117065787315369
-0.11474237591028214 -0.42673978209495544 -0.6868006587028503
0.07334557175636292 0.4289059340953827 0.5693503022193909
-0.14244961738586426 0.28487923741340637 -0.3336094319820404
0.01984906941652298 0.25777682662010193 -0.6299582719802856
-0.14244961738586426 -0.30839014053344727 -0.8152809143066406
0.07702013105154037 -0.42673978209495544 -0.16311794519424438
0.13663698732852936 0.4289059340953827 0.7258846163749695
-0.10188612341880798 -0.2556106448173523 0.6123685240745544
0.1427655667066574 -0.3979388177394867 0.22091560065746307
-0.14244961738586426 0.4248770475387573 0.6693331003189087
0.1427655667066574 -0.3533228635787964 0.8121122121810913
0.07693223655223846 0.15218383073806763 0.733809769153595
-0.03047986701130867 0.25777682662010193 -0.25820744037628174
-0.14244961738586426 -0.415837824344635 0.5654816627502441
0.1427655667066574 0.4256475269794464 0.5999302864074707
0.014001145027577877 0.4289059340953827 0.862966001033783
-0.10648009926080704 0.02119327336549759 0.948158860206604
-0.14244961738586426 -0.3731895983219147 -0.6283607482910156
0.04398901015520096 -0.42673978209495544 -0.006873052567243576
-0.004319484811276197 0.25777682662010193 -0.023218387737870216
0.1427655667066574 0.27770575881004333 -0.43429797887802124
0.06325483322143555 0.25777682662010193 0.13064084947109222
-0.14244961738586426 -0.3028090298175812 -0.19872362911701202
0.02208445779979229 0.20572693645954132 0.7131866216659546
-0.14244961738586426 -0.3535996377468109 -0.8221789598464966
-0.01677745394408703 0.4289059340953827 0.05622894689440727
-0.06971906870603561 0.25777682662010193 0.16716620326042175
0.13999663293361664 -0.42673978209495544 -0.3198496997356415
-0.055992841720581055 -0.1663484424352646 0.7230473756790161
-0.14244961738586426 0.31166160106658936 -0.6384870409965515
0.1427655667066574 -0.27934664487838745 0.7941785454750061
-0.12022251635789871 -0.33035969734191895 0.9300135970115662
0.11792193353176117 -0.2556106448173523 0.7627928256988525
0.14219483733177185 0.08571992814540863 -0.8679450154304504
-0.09977350383996964 -0.42673978209495544 0.48396793007850647
0.132267564535141 0.013257973827421665 0.8005052804946899
0.14260785281658173 -0.23127786815166473 -0.859458327293396
0.07471971958875656 -0.251433402299881 0.7324374914169312
-0.0475521981716156 0.30064427852630615 0.988077700138092
0.1427655667066574 0.38514426350593567 -0.6526637077331543
-0.06053704023361206 0.25777682662010193 0.4329947531223297
0.1427655667066574 0.3767121136188507 -0.13106277585029602
0.02740311250090599 0.1565815806388855 -0.7174771428108215
0.07064653187990189 0.4289059340953827 -0.8814911842346191
-0.027758900076150894 -0.2556106448173523 -0.6486349105834961
0.13744176924228668 0.4289059340953827 0.5397285223007202
0.12082657963037491 -0.21702861785888672 0.9296045899391174
0.1427655667066574 -0.26452964544296265 -0.49815863370895386
-0.11914890259504318 -0.019749194383621216 -0.7794830799102783
0.04625498130917549 0.4289059340953827 -0.9302482604980469
-0.029033415019512177 -0.42673978209495544 -0.44813403487205505
0.1427655667066574 0.3548486530780792 0.8199830651283264
-0.11149822175502777 0.4289059340953827 -0.09313587099313736
-0.13941329717636108 -0.2468205839395523 0.882880687713623
-0.06083208695054054 0.4289059340953827 -0.3419683575630188
-0.07054390013217926 0.4289059340953827 0.747880220413208
-0.06618423759937286 0.4289059340953827 -0.35589760541915894
-0.11728180944919586 0.25777682662010193 0.39984506368637085
0.13869991898536682 0.25777682662010193 0.05285286158323288
-0.00871153175830841 0.25777682662010193 -0.2892165780067444
-0.012066114693880081 0.4289059340953827 -0.4517103433609009
-0.14244961738586426 0.41579684615135193 0.33600732684135437
-0.09033531695604324 -0.42673978209495544 -0.6285744905471802
-0.1366470903158188 0.09507562965154648 -0.8176697492599487
0.11443610489368439 0.25777682662010193 0.213466078042984
-0.14244961738586426 -0.3412853479385376 0.5343822240829468
0.10183317959308624 0.25777682662010193 0.3217886686325073
-0.02855837345123291 -0.2556106448173523 -0.3215237855911255
-0.08672740310430527 0.4289059340953827 0.0323057547211647
0.012776833958923817 0.25777682662010193 -0.633257269859314
-0.08870347589254379 -0.1855165809392929 -0.746019721031189
0.11306683719158173 -0.11911283433437347 -0.9442787170410156
-0.0775139331817627 -0.2556106448173523 0.5322747230529785
-0.14244961738586426 0.4267830550670624 0.8537465333938599
-0.12791688740253448 -0.05677705630660057 0.7914419174194336
0.0799504742026329 -0.42673978209495544 0.7392094135284424
-0.14244961738586426 -0.2976420223712921 0.5553029775619507
0.14060214161872864 -0.09586874395608902 0.8769243955612183
-0.10034783184528351 -0.06984241306781769 0.9548466205596924
-0.10353715717792511 0.07282502949237823 0.7560468316078186
0.08822689205408096 0.25777682662010193 0.16459335386753082
0.0701187252998352 -0.11589600890874863 0.9779458045959473
-0.052986592054367065 -0.009621109813451767 -0.725450873374939
-0.12258230149745941 0.25777682662010193 -0.6315498948097229
0.08782929182052612 0.4289059340953827 -0.9301059246063232
-0.0048850784078240395 0.4289059340953827 -0.9562354683876038
-0.0028938492760062218 -0.2556106448173523 -0.474891722202301
-0.044369813054800034 -0.2556106448173523 0.4091978371143341
-0.13321292400360107 -0.2556106448173523 0.5342388153076172
-0.040696363896131516 -0.42673978209495544 0.06980131566524506
0.08271358907222748 0.4289059340953827 -0.2697254419326782
-0.13960880041122437 -0.3431101441383362 0.881378173828125
0.1427655667066574 -0.2707078158855438 0.5946639180183411
-0.04207565262913704 -0.2556106448173523 0.4136473834514618
0.008040821179747581 -0.42673978209495544 0.5984079241752625
0.1427655667066574 0.394450306892395 -0.19982054829597473
0.13573770225048065 0.4289059340953827 -0.004309290088713169
-0.09767346829175949 0.11962997913360596 0.7502133846282959
-0.09310845285654068 0.08510193228721619 0.7461341023445129
0.13330510258674622 0.17775052785873413 0.8028742671012878
-0.07898934185504913 -0.42673978209495544 -0.8131365776062012
-0.14244961738586426 0.27056190371513367 0.8012694716453552
-0.07696821540594101 -0.2556106448173523 0.1519574522972107
0.1427655667066574 0.38093096017837524 0.30671074986457825
0.05099930614233017 0.4289059340953827 0.9594215750694275
-0.0852559357881546 -0.42673978209495544 -0.13837695121765137
0.0940200686454773 0.25777682662010193 0.19259847700595856
-0.1295725554227829 0.11821042746305466 -0.7983508110046387
0.1295274794101715 -0.07055631279945374 0.7940560579299927
-0.08501332253217697 -0.42673978209495544 0.536432147026062
-0.14244961738586426 0.2614942491054535 -0.002536519430577755
0.12685689330101013 -0.3434370756149292 0.9188595414161682
-0.04475198686122894 -0.42673978209495544 -0.5375736951828003
0.13426674902439117 -0.330928236246109 0.9019912481307983
-0.05507531389594078 0.25777682662010193 -0.3402528762817383
0.06856423616409302 -0.2556106448173523 0.05595925822854042
-0.1165013536810875 0.19268669188022614 0.7721932530403137
-0.0791952908039093 0.25777682662010193 -0.3371054530143738
-0.14244961738586426 -0.30324649810791016 -0.07502033561468124
-0.1089210957288742 0.4289059340953827 -0.4853188693523407
0.14212578535079956 0.15881365537643433 -0.8458160161972046
-0.08459430932998657 0.4289059340953827 0.1921088695526123
0.01395899523049593 -0.4017726182937622 -0.9992764592170715
0.11585608869791031 0.33423489332199097 0.9366893768310547
-0.14244961738586426 0.31678640842437744 -0.17903228104114532
0.1427655667066574 0.3540298640727997 -0.02050144597887993
0.11190378665924072 -0.2556106448173523 -0.4360573887825012
0.1052948534488678 0.32878613471984863 -0.9536303281784058
-0.017893049865961075 0.4289059340953827 -0.5040498375892639
0.1427655667066574 -0.3309188187122345 0.1263660043478012
0.07056669145822525 -0.42673978209495544 0.3337608873844147
0.0528099425137043 -0.42673978209495544 -0.8740354180335999
0.12681105732917786 0.25777682662010193 0.48595839738845825
-0.10585778951644897 -0.2556106448173523 0.46009716391563416
-0.005043568089604378 -0.15745830535888672 0.7114394307136536
-0.019878625869750977 0.4289059340953827 -0.4496249556541443
0.013195503503084183 0.4289059340953827 0.3820658028125763
0.0476994663476944 0.016478335484862328 -0.7231537103652954
-0.003436140716075897 0.4289059340953827 0.7312929630279541
-0.0925484299659729 0.25777682662010193 -0.31016889214515686
0.04087327420711517 0.4289059340953827 -0.693453311920166
0.09184250980615616 -0.2556106448173523 -0.18149134516716003
0.06685040891170502 0.25777682662010193 0.37904027104377747
0.1427655667066574 0.3873785734176636 -0.363986074924469
0.1427655667066574 0.3982131779193878 0.6543096899986267
0.07730806618928909 -0.04097239300608635 0.7341250777244568
0.1427655667066574 0.356404572725296 -0.4604537785053253
0.08183213323354721 -0.42673978209495544 -0.45825350284576416
-0.008990645408630371 0.4289059340953827 0.3508436679840088
0.06554899364709854 -0.2556106448173523 -0.6853544116020203
0.1377851366996765 -0.2556106448173523 0.7235937714576721
0.1427655667066574 -0.36970794200897217 -0.06614106148481369
-0.12610436975955963 0.14682383835315704 0.919745683670044
-0.11054779589176178 -0.25148364901542664 -0.9472711682319641
-0.14244961738586426 -0.2750545144081116 0.4904334545135498
-0.14244961738586426 0.349852979183197 0.320989191532135
-0.04454809054732323 -0.2556106448173523 -0.3680379092693329
0.05478215217590332 0.25777682662010193 0.28584975004196167
0.09367259591817856 -0.13719980418682098 0.7462824583053589
0.12755802273750305 -0.2556106448173523 -0.7174640893936157
-0.018570872023701668 -0.2556106448173523 -0.28624099493026733
0.04416428878903389 -0.2556106448173523 0.5795959234237671
0.07603655010461807 -0.42673978209495544 0.23528075218200684
-0.14244961738586426 -0.37008821964263916 -0.10579867660999298
-0.14111727476119995 -0.047124095261096954 0.8722587823867798
0.10911496728658676 -0.42673978209495544 -0.2775445580482483
0.01660962775349617 -0.2556106448173523 0.13100486993789673
-0.08107258379459381 0.21861109137535095 -0.7402529716491699
0.05213434621691704 0.25777682662010193 0.21446438133716583
0.1427655667066574 0.3865475058555603 0.15970724821090698
0.005553733557462692 -0.2556106448173523 0.1810915321111679
-0.13268469274044037 0.08734285086393356 0.9052126407623291
0.10728856176137924 0.4289059340953827 -0.758353054523468
0.016231821849942207 -0.2556106448173523 -0.4108361303806305
0.11769524961709976 0.25777682662010193 0.06471791118383408
-0.05075052008032799 0.3719748854637146 -0.9905901551246643
-0.09204751998186111 0.4289059340953827 0.7631927132606506
0.02466098591685295 0.25777682662010193 0.29310718178749084
-0.02608456462621689 -0.2556106448173523 0.6757557988166809
-0.12255591154098511 -0.2556106448173523 0.648542046546936
0.10776831954717636 0.4289059340953827 -0.6241243481636047
-0.0013009000103920698 -0.3829575479030609 -0.9999794960021973
0.09161214530467987 -0.42673978209495544 -0.1425590217113495
0.1427655667066574 0.3787679970264435 -0.5406058430671692
0.13478565216064453 -0.05643022060394287 -0.8106617331504822
-0.14244961738586426 -0.2980369031429291 -0.00578727014362812
-0.14244961738586426 0.3413826525211334 0.577915608882904
-0.055958401411771774 -0.21316996216773987 -0.7263855338096619
-0.0858485996723175 -0.2556106448173523 0.37269794940948486
-0.13955096900463104 -0.2453841120004654 -0.8294681310653687
-0.0845077782869339 -0.08224591612815857 0.739291787147522
0.1427655667066574 0.2928105592727661 0.8151751160621643
-0.14244961738586426 0.4098096191883087 0.025943979620933533
0.13105756044387817 -0.2556106448173523 0.3108684718608856
-0.14244961738586426 0.369472861289978 0.13860397040843964
0.1427655667066574 -0.28775104880332947 0.6977421641349792
-0.13607053458690643 -0.2556106448173523 0.5108335614204407
-0.11083479225635529 0.4289059340953827 0.5431482791900635
0.1427655667066574 0.2647712528705597 -0.36129269003868103
0.1259586364030838 -0.08309745788574219 0.7868990302085876
-0.14244961738586426 -0.31721651554107666 0.6588039398193359
-0.05951550975441933 0.16551345586776733 0.7244402170181274
-0.11692473292350769 0.4289059340953827 -0.5237471461296082
0.05092211440205574 0.4289059340953827 0.02953466959297657
-0.055145394057035446 0.25777682662010193 -0.1084100753068924
0.1427655667066574 -0.3616313934326172 0.6526274681091309
0.05179440975189209 -0.2556106448173523 -0.3127521276473999
-0.04687189310789108 -0.03714888170361519 -0.7230880856513977
0.1427655667066574 -0.33215487003326416 0.6662272214889526
-0.13028497993946075 -0.03134450316429138 -0.9147518873214722
0.06658928841352463 0.0988803282380104 -0.731276273727417
0.02804349735379219 -0.42673978209495544 -0.6705669164657593
-0.1368981897830963 -0.42673978209495544 0.5565428137779236
-0.14244961738586426 -0.2676788568496704 -0.4192972481250763
0.08354750275611877 -0.2556106448173523 0.29702505469322205
-0.11824534088373184 0.25777682662010193 0.5737820267677307
-0.12905210256576538 -0.42673978209495544 -0.5575039386749268
-0.10022720694541931 0.4289059340953827 0.6666750907897949
-0.14244961738586426 0.39661967754364014 -0.4109422564506531
0.1427655667066574 0.333708792924881 -0.07981700450181961
-0.14244961738586426 0.380130410194397 -0.26175999641418457
-0.07009311020374298 -0.42673978209495544 0.3931184411048889
-0.029351506382226944 0.4289059340953827 -0.4826812744140625
-0.1422203630208969 -0.040800709277391434 0.8536390662193298
-0.14244961738586426 0.3403518795967102 -0.6872556805610657
0.09637274593114853 0.024706345051527023 -0.9623466730117798
0.021277789026498795 0.4289059340953827 0.5928605794906616
0.09567050635814667 0.4289059340953827 0.6373466849327087
0.09513960778713226 -0.42673978209495544 -0.2911044955253601
0.08041009306907654 -0.08595666289329529 0.9717215299606323
-0.040659014135599136 0.4289059340953827 -0.1834600418806076
0.1427655667066574 -0.29693785309791565 -0.7030910849571228
0.13510854542255402 -0.39472496509552 0.8997446298599243
-0.08343382179737091 0.25777682662010193 -0.6486135125160217
-0.07562945038080215 0.4289059340953827 0.5664665102958679
-0.05620410293340683 -0.2011486291885376 -0.9882544279098511
0.1427655667066574 -0.32344141602516174 0.2044406533241272
0.1427655667066574 -0.2886199355125427 0.773775577545166
-0.14244961738586426 -0.41836243867874146 0.2225106954574585
