0.6160556077957153 -0.10458696633577347 0.5856930017471313
-0.4703730344772339 0.18115577101707458 -0.38324105739593506
0.7885631918907166 -0.17954160273075104 -0.28630316257476807
-0.4406115412712097 -0.03059208020567894 -0.3927675485610962
0.8838586211204529 -0.17954160273075104 0.21789021790027618
0.26415422558784485 0.09333197772502899 0.6174664497375488
0.2850733995437622 0.18115577101707458 -0.48558104038238525
-0.8539261817932129 0.17444482445716858 -0.3159244656562805
-0.6942928433418274 -0.09804878383874893 0.17098231613636017
0.12782515585422516 0.15179772675037384 -0.54444420337677
-0.3617950975894928 0.18115577101707458 -0.360745370388031
0.27831554412841797 0.03832722827792168 -0.5947517156600952
-0.8337764739990234 0.06808968633413315 0.0016105526592582464
0.7415916323661804 -0.09390473365783691 0.4383804202079773
0.9709814786911011 -0.11327147483825684 -0.13170069456100464
0.2792266011238098 0.14036451280117035 0.2782270312309265
0.6032918095588684 -0.17954160273075104 0.5551509261131287
-0.48307469487190247 0.041594479233026505 0.052498675882816315
-0.27933797240257263 0.11958702653646469 -0.3927675485610962
0.6255967617034912 -0.07678437232971191 0.5744967460632324
-0.29086363315582275 0.13147717714309692 0.35723748803138733
-0.95426344871521 0.05146391689777374 -0.02856295369565487
0.2466839849948883 -0.1443668007850647 -0.23998761177062988
0.18011033535003662 0.18115577101707458 -0.35362425446510315
0.0031846952624619007 -0.15456153452396393 -0.4945177733898163
-0.13367348909378052 -0.0171170923858881 -0.018322324380278587
-0.6243189573287964 -0.019819170236587524 0.17298826575279236
-0.9428035020828247 0.18115577101707458 -0.0467795692384243
-0.9515158534049988 0.10927869379520416 -0.12906768918037415
-0.6862680912017822 -0.17954160273075104 0.27934253215789795
-0.6297820210456848 -0.07531444728374481 0.35723748803138733
0.8513224124908447 0.06406117230653763 -0.16810505092144012
-0.10511379688978195 -0.17954160273075104 -0.4248199164867401
0.23404383659362793 -0.17954160273075104 0.6014174222946167
0.005236632656306028 -0.17954160273075104 -0.15571361780166626
0.11760353296995163 0.1240861713886261 0.18949276208877563
-0.4997944235801697 -0.011162225157022476 -0.09813983738422394
-0.348854660987854 0.18115577101707458 -0.18610693514347076
0.5152075290679932 -0.17954160273075104 0.48567691445350647
0.06499705463647842 -0.12885037064552307 -0.13410383462905884
0.7614216208457947 -0.17954160273075104 0.306277334690094
-0.47405165433883667 -0.17954160273075104 0.29129818081855774
0.6040120720863342 0.10993023961782455 -0.2778141498565674
0.44391995668411255 -0.12154120951890945 0.6174664497375488
-0.9226076006889343 -0.17954160273075104 -0.056136757135391235
-0.8176122903823853 0.18115577101707458 -0.3396349549293518
0.9656209349632263 -0.15086813271045685 -0.13767391443252563
0.2334575206041336 0.18115577101707458 0.41751134395599365
0.4551052749156952 0.011773907579481602 0.6174664497375488
-0.2618371248245239 0.16976191103458405 -0.3927675485610962
-0.8014591336250305 0.10672949254512787 0.31863415241241455
0.6050068736076355 -0.13851384818553925 -0.2773728370666504
0.00046031171223148704 0.13955731689929962 -0.09649301320314407
0.00479640020057559 0.18115577101707458 -0.47442907094955444
0.14707164466381073 -0.17954160273075104 -0.5114784836769104
0.273536741733551 -0.08064109832048416 0.6174664497375488
-0.3728641867637634 0.18115577101707458 -0.23268559575080872
-0.6587138175964355 -0.09894778579473495 0.3571275472640991
0.059269484132528305 -0.1290113478899002 -0.5169833302497864
-0.10386598110198975 0.06035902351140976 -0.4516372084617615
-0.7645306587219238 -0.16473649442195892 0.33623000979423523
-0.6580193042755127 -0.17954160273075104 0.3118138611316681
0.6521508097648621 0.031018540263175964 0.5433363318443298
0.1515347808599472 -0.17954160273075104 -0.4724171757698059
0.9068695902824402 -0.0008193474495783448 -0.14346380531787872
-0.3690473437309265 -0.17954160273075104 -0.19564194977283478
0.12036439776420593 0.15276861190795898 -0.5414556860923767
0.39747461676597595 -0.17954160273075104 -0.4998312294483185
-0.6454667448997498 -0.17954160273075104 -0.2918650805950165
-0.812044084072113 -0.08256863057613373 0.08137953281402588
0.47974130511283875 0.18115577101707458 -0.4197787344455719
0.4378755986690521 -0.17954160273075104 -0.5397090315818787
-0.07879477739334106 -0.12737561762332916 0.4413754343986511
0.4276721775531769 0.023434408009052277 0.6174664497375488
-0.7261828184127808 -0.17954160273075104 0.24291075766086578
-0.8672835230827332 0.18115577101707458 0.1336570382118225
0.09298823773860931 -0.17954160273075104 -0.34688088297843933
-0.8173843622207642 -0.17954160273075104 0.09170301258563995
-0.2723093628883362 0.18115577101707458 0.3058842420578003
0.11149322986602783 -0.12432340532541275 -0.16120097041130066
-0.49666187167167664 0.18115577101707458 -0.3161383867263794
-0.9546287655830383 0.06572956591844559 0.03475668281316757
-0.7141383290290833 0.10162695497274399 -0.17434614896774292
-0.5590282082557678 -0.020390458405017853 0.14846815168857574
0.02625134587287903 0.1262703537940979 0.1393386274576187
-0.6098330020904541 -0.11582958698272705 -0.17940719425678253
-0.599675178527832 0.18115577101707458 -0.1990731656551361
0.6611191034317017 0.18115577101707458 0.4639255106449127
-0.2927563786506653 -0.08924496173858643 -0.3927675485610962
0.35196149349212646 -0.06406006217002869 0.31815987825393677
0.022403305396437645 0.18115577101707458 -0.46868252754211426
0.3925783038139343 -0.17954160273075104 0.37520983815193176
0.9004897475242615 0.08948905766010284 0.2519182860851288
0.5025976896286011 0.10554858297109604 -0.32280245423316956
-0.8816100358963013 0.06097756698727608 -0.2876398265361786
0.7620205879211426 -0.17954160273075104 0.3495974540710449
-0.7344054579734802 0.18115577101707458 0.22221434116363525
0.7218469977378845 0.07441280037164688 0.2531183958053589
0.32494238018989563 0.13305984437465668 0.3033258616924286
-0.8676417469978333 0.020837752148509026 0.26808789372444153
-0.5588797330856323 0.09554323554039001 -0.3927675485610962
0.1622011959552765 0.18115577101707458 -0.35570892691612244
0.6616633534431458 0.031784430146217346 0.5321736931800842
0.29425784945487976 0.18115577101707458 0.4523252844810486
0.7298030257225037 0.0838971808552742 -0.400442510843277
0.5193963646888733 0.15186819434165955 0.33900654315948486
-0.32965534925460815 -0.17954160273075104 -0.11485536396503448
-0.23661509156227112 -0.17954160273075104 0.2628820538520813
-0.5181599259376526 0.008869648911058903 0.11392007023096085
0.6369465589523315 0.013418755494058132 -0.5039110779762268
0.8388238549232483 -0.03029109723865986 -0.2789621353149414
0.33692336082458496 -0.17954160273075104 -0.4153098165988922
-0.09181004762649536 0.18115577101707458 -0.3511025011539459
0.0590815432369709 0.18115577101707458 0.17591913044452667
-0.8044657111167908 0.18115577101707458 -0.28490081429481506
-0.48739007115364075 0.040693048387765884 -0.3927675485610962
-0.1663617640733719 0.18115577101707458 -0.14943750202655792
-0.5103074312210083 -0.09435742348432541 0.10446088761091232
0.8811489939689636 -0.004632192198187113 0.2746140658855438
-0.8606685400009155 0.1693689525127411 0.2750284671783447
0.16677367687225342 -0.17954160273075104 -0.22753307223320007
0.1890268176794052 0.07358438521623611 -0.20638608932495117
-0.3009321987628937 -0.17954160273075104 -0.005040623713284731
-0.7059082984924316 0.18115577101707458 -0.33308640122413635
-0.4274003803730011 -0.17954160273075104 0.11040084064006805
0.056595802307128906 0.18115577101707458 -0.3808651268482208
0.2326010763645172 0.10133621841669083 -0.23178036510944366
0.9700343608856201 0.02310241013765335 0.14782676100730896
-0.26195600628852844 0.18115577101707458 -0.27814653515815735
0.3807133436203003 -0.17954160273075104 0.4715910851955414
0.9353994727134705 0.14237482845783234 0.16252034902572632
-0.3261207044124603 0.14157694578170776 0.35723748803138733
-0.2163664996623993 0.18115577101707458 -0.2968221604824066
0.29015299677848816 -0.17954160273075104 -0.49535664916038513
0.3711012005805969 0.02530893124639988 0.6174664497375488
0.8792862892150879 0.10011091828346252 -0.15570001304149628
0.23223194479942322 -0.06276579201221466 -0.5862657427787781
0.3543022572994232 -0.17954160273075104 -0.5825063586235046
-0.24742740392684937 0.18115577101707458 -0.13735081255435944
0.7267856001853943 -0.14400199055671692 0.4557547867298126
-0.751756489276886 -0.14929187297821045 0.14667625725269318
0.8115774393081665 0.08157595992088318 0.21505089104175568
-0.5527316331863403 -0.02543012611567974 -0.15381179749965668
-0.954524576663971 -0.14203417301177979 0.016696931794285774
-0.1693180650472641 -0.07299458235502243 0.3945748209953308
0.9541091322898865 -0.15492019057273865 -0.12250792980194092
-0.8025978803634644 0.04394538328051567 0.09703293442726135
-0.8086356520652771 0.18115577101707458 0.25486767292022705
0.9843801259994507 0.05426882207393646 -0.11677075922489166
0.6502420902252197 0.12941421568393707 0.2834962010383606
0.6943153738975525 -0.17954160273075104 0.4841676652431488
0.7977162003517151 -0.07596337795257568 0.3725198209285736
-0.13120393455028534 -0.17954160273075104 0.3249443471431732
0.6307657957077026 0.14977289736270905 0.5684310793876648
0.9508821964263916 -0.16439920663833618 0.19278429448604584
0.8823075294494629 -0.1094411239027977 -0.15435975790023804
-0.07979340106248856 -0.17954160273075104 -0.09121072292327881
-0.4002980589866638 -0.17954160273075104 0.03473401442170143
0.05518648400902748 0.18115577101707458 0.16126593947410583
0.498478502035141 0.14877206087112427 0.6174664497375488
-0.23482050001621246 0.18115577101707458 0.1346849650144577
-0.32214704155921936 0.18115577101707458 0.25052782893180847
0.3614230751991272 -0.17954160273075104 0.5237049460411072
0.6879810690879822 -0.06364183127880096 0.5012907385826111
0.06075507774949074 0.18115577101707458 0.21417266130447388
-0.4739558696746826 0.18115577101707458 -0.028167985379695892
0.7778388857841492 0.18115577101707458 0.33424171805381775
-0.4467765986919403 0.18115577101707458 0.2804095447063446
0.9874403476715088 0.1271590292453766 0.14988447725772858
0.9740970134735107 -0.15310584008693695 -0.11364112794399261
-0.63584965467453 -0.029835794121026993 0.17471730709075928
0.3016454577445984 0.07210611552000046 0.29053542017936707
0.6503055691719055 0.18115577101707458 -0.3391342759132385
0.23898859322071075 0.18115577101707458 -0.3995777368545532
0.6691672205924988 -0.0994861051440239 0.5233680605888367
-0.8952681422233582 -0.011392030864953995 -0.2704692482948303
0.4096428155899048 -0.07469605654478073 0.6174664497375488
0.994459867477417 0.1651550680398941 -0.10553913563489914
-0.02749403566122055 0.18115577101707458 -0.42109405994415283
-0.7560247182846069 0.10309182852506638 0.14372703433036804
-0.20293866097927094 0.18115577101707458 0.18230371177196503
0.059382304549217224 0.11042521148920059 0.512813150882721
-0.03421575576066971 -0.12793900072574615 -0.4795365333557129
-0.8338136076927185 -0.04614737629890442 0.005688072647899389
-0.34595417976379395 -0.17954160273075104 -0.3371899127960205
-0.04819108918309212 0.17270302772521973 0.4571975767612457
0.6974616646766663 -0.005221215076744556 0.2634636461734772
0.9313247203826904 0.06064566969871521 -0.17588971555233002
-0.07985039055347443 0.18115577101707458 -0.39936983585357666
-0.02724260836839676 -0.17954160273075104 -0.399231880903244
-0.6436598300933838 0.18115577101707458 0.2934149205684662
0.6065203547477722 0.18115577101707458 0.49485334753990173
-0.19795216619968414 0.18115577101707458 -0.12340303510427475
-0.9173733592033386 -0.17954160273075104 0.14518572390079498
0.7700783014297485 0.04784685745835304 0.4049520790576935
0.20975342392921448 0.18115577101707458 0.3686921298503876
-0.5517666935920715 -0.17954160273075104 0.16530708968639374
-0.4594363570213318 -0.17954160273075104 -0.15729093551635742
0.8917017579078674 -0.16686531901359558 -0.22004097700119019
0.7388359904289246 0.06834295392036438 0.441614031791687
-0.16727645695209503 -0.17954160273075104 -0.33857861161231995
0.689810574054718 0.1149306371808052 -0.4450054466724396
0.5062544345855713 0.18115577101707458 0.5976167917251587
-0.5425935387611389 -0.07750308513641357 -0.14638756215572357
0.006331182084977627 -0.06916117668151855 -0.4957781732082367
-0.22030432522296906 0.18115577101707458 -0.3261178135871887
0.09444869309663773 0.001169731141999364 -0.15126770734786987
0.6610154509544373 -0.17954160273075104 0.4853624701499939
-0.9006979465484619 0.1463901251554489 0.22851550579071045
-0.44915971159935 -0.17954160273075104 0.1886671930551529
-0.15196700394153595 0.18115577101707458 0.0682123526930809
0.20064552128314972 -0.13927534222602844 -0.5736134052276611
-0.2514702379703522 0.10387646406888962 0.35723748803138733
0.7260398268699646 0.060999006032943726 -0.4046357274055481
-0.9546391367912292 -0.15828895568847656 0.03654898703098297
-0.11559789627790451 -0.07313400506973267 -0.02885645255446434
0.6712095737457275 0.09487929940223694 0.5209715366363525
0.09738904237747192 -0.17072300612926483 0.5324626564979553
-0.5833926200866699 0.10934273898601532 0.35723748803138733
-0.2777054011821747 -0.17954160273075104 -0.3765698969364166
-0.4120616018772125 -0.056606926023960114 -0.3927675485610962
0.3993682861328125 0.18115577101707458 0.38222330808639526
0.6598326563835144 -0.17954160273075104 -0.356458842754364
-0.4311845004558563 -0.04191606491804123 -0.3927675485610962
0.19283095002174377 0.07631270587444305 -0.20860305428504944
0.9698054790496826 -0.02782624214887619 -0.13301119208335876
0.8366503119468689 0.18115577101707458 -0.22207865118980408
-0.7906624674797058 -0.17954160273075104 -0.21096688508987427
0.7344904541969299 0.09493576735258102 -0.39521926641464233
0.3206429183483124 -0.046033360064029694 0.30096539855003357
-0.7501251101493835 0.16005685925483704 0.14769503474235535
-0.5418269038200378 -0.17954160273075104 -0.350666880607605
-0.3004348874092102 -0.030919242650270462 -0.3927675485610962
-0.6869227886199951 0.05656290054321289 -0.3907339870929718
-0.21646322309970856 -0.17954160273075104 0.18512926995754242
-0.9120912551879883 0.18115577101707458 0.05222485959529877
-0.2604137063026428 -0.17954160273075104 0.18637262284755707
0.1349564790725708 -0.17954160273075104 0.4880247116088867
-0.035986218601465225 0.18115577101707458 0.3485439717769623
0.162297323346138 0.05685565993189812 0.21403056383132935
-0.3542228937149048 -0.17954160273075104 -0.06819768995046616
-0.527623176574707 -0.17954160273075104 0.20287466049194336
0.36278975009918213 -0.17954160273075104 -0.5034596920013428
-0.06584306061267853 -0.17954160273075104 -0.07514122128486633
-0.0011245242785662413 0.18115577101707458 -0.27176621556282043
-0.8306765556335449 0.15660183131694794 0.028910057619214058
0.8665931820869446 -0.17954160273075104 0.2833956480026245
-0.15013080835342407 0.053483616560697556 -0.008731313049793243
0.7768005132675171 -0.08604701608419418 0.22980475425720215
0.5766463279724121 0.18115577101707458 -0.3060545325279236
-0.044853631407022476 0.18115577101707458 0.4188917279243469
-0.6619880795478821 0.06785447895526886 0.35697659850120544
-0.011801401153206825 0.15896420180797577 -0.48851490020751953
-0.511922299861908 -0.02936205081641674 -0.11565866321325302
-0.2849265933036804 0.18115577101707458 0.23684553802013397
0.737547755241394 -0.17954160273075104 0.4340766668319702
-0.48528042435646057 -0.17954160273075104 0.06528709083795547
-0.533389151096344 -0.043221551924943924 -0.3927675485610962
-0.6255588531494141 -0.17954160273075104 0.3148355484008789
-0.15262731909751892 -0.17954160273075104 0.08471626043319702
-0.09062925726175308 -0.0910348892211914 0.43525704741477966
0.018446631729602814 -0.17215731739997864 0.4916493594646454
-0.14382107555866241 0.09992361813783646 0.045965526252985
0.2534913718700409 -0.0974525734782219 0.2640978693962097
0.04139186814427376 -0.17954160273075104 -0.14701469242572784
-0.5855736136436462 0.11526567488908768 -0.3927675485610962
-0.03582572937011719 0.18115577101707458 -0.20062674582004547
-0.7515559792518616 -0.17954160273075104 0.30766138434410095
0.8238855004310608 -0.17954160273075104 0.3014511168003082
-0.6455080509185791 -0.02382533624768257 0.17526379227638245
0.7069182395935059 -0.17053228616714478 -0.23216404020786285
0.3621094822883606 0.01718813367187977 0.32373136281967163
0.7410988211631775 -0.06667228788137436 0.24495092034339905
0.944872260093689 0.060319747775793076 -0.12660546600818634
-0.9534424543380737 0.07618586719036102 0.0826207846403122
0.7084409594535828 0.01495458371937275 -0.4242459237575531
-0.06969449669122696 0.156388521194458 0.08666247129440308
0.8946874737739563 -0.10945092886686325 -0.2167140543460846
-0.061021022498607635 0.05581844598054886 0.4505644738674164
0.8745166659355164 -0.15339502692222595 -0.23919007182121277
0.5528851747512817 0.18115577101707458 0.3310061991214752
-0.6237480640411377 -0.1583937406539917 -0.3927675485610962
0.550591230392456 0.1495886892080307 -0.5947517156600952
0.7341739535331726 -0.08766961842775345 -0.2200731635093689
0.060644567012786865 0.1102486178278923 -0.5175341367721558
-0.6553605794906616 0.16131937503814697 0.3572106957435608
-0.7078644037246704 0.125430628657341 -0.38765472173690796
-0.7142249941825867 0.18115577101707458 0.31873074173927307
-0.34099113941192627 -0.17954160273075104 0.010481560602784157
-0.32746174931526184 -0.06166316568851471 -0.3927675485610962
0.2563712000846863 -0.044379062950611115 0.6146565079689026
0.23390941321849823 -0.035489052534103394 -0.586937665939331
-0.9062297940254211 0.18115577101707458 0.039930179715156555
-0.7573907375335693 -0.08408544212579727 -0.3740612864494324
0.9004559516906738 -0.17505890130996704 -0.21028637886047363
0.3951614499092102 -0.06108788028359413 -0.3265175223350525
0.7536547183990479 0.13027039170265198 -0.3738648295402527
-0.5354907512664795 0.15635010600090027 -0.140532985329628
0.44270917773246765 0.18115577101707458 0.5605418682098389
0.6705509424209595 -0.16482917964458466 0.5217444896697998
0.5275633931159973 -0.025731243193149567 0.6174664497375488
-0.6303647756576538 0.06205426901578903 0.35723748803138733
0.8252677321434021 -0.11723676323890686 0.3401890695095062
-0.6990174651145935 -0.14610980451107025 0.35378769040107727
-0.9027687311172485 -0.11900205165147781 0.22553424537181854
0.05343913286924362 -0.16245274245738983 0.5097405314445496
0.07650686800479889 -0.17954160273075104 -0.2898698151111603
-0.17654047906398773 0.18115577101707458 0.3653864562511444
0.6182379126548767 -0.17954160273075104 -0.3063628673553467
0.5787051320075989 -0.09786603599786758 -0.5688086748123169
0.6376457810401917 -0.17954160273075104 0.3683556914329529
0.10961651802062988 -0.17954160273075104 0.44943785667419434
-0.1158883273601532 -0.037934333086013794 0.06130116432905197
-0.3358403146266937 0.0013512190198525786 0.35723748803138733
0.3677958846092224 0.18115577101707458 0.5394109487533569
0.5590348243713379 -0.17954160273075104 0.49263858795166016
-0.515435516834259 0.18115577101707458 0.29308634996414185
0.223019540309906 0.13346360623836517 0.2473682463169098
-0.13004076480865479 0.18115577101707458 0.17552274465560913
-0.41344255208969116 -0.17954160273075104 0.2143121361732483
-0.9133424162864685 0.028194857761263847 0.20871277153491974
-0.7452623844146729 0.18115577101707458 -0.3579797148704529
0.5938080549240112 -0.08374535292387009 0.3074378967285156
0.9193384647369385 0.11831051856279373 0.16933411359786987
-0.03372366353869438 0.023428844287991524 -0.07657120376825333
-0.3182501792907715 -0.17954160273075104 -0.3109407126903534
0.7583292722702026 0.011991794221103191 -0.20935766398906708
-0.412336140871048 0.12561474740505219 -0.3927675485610962
-0.8383002877235413 -0.153492271900177 0.29404252767562866
0.6891980767250061 -0.08391186594963074 0.2669694423675537
-0.2869780957698822 0.07755832374095917 -0.3927675485610962
0.9289525747299194 -0.060493797063827515 -0.13366760313510895
-0.8212118744850159 0.13514459133148193 -0.07074237614870071
-0.8633878231048584 -0.14990432560443878 -0.3071228861808777
-0.6792464852333069 0.18115577101707458 -0.24567556381225586
-0.659179151058197 -0.12087320536375046 -0.18469223380088806
-0.5548558831214905 -0.17954160273075104 0.15237407386302948
-0.151270791888237 0.049145814031362534 0.4039052724838257
0.5236573219299316 0.04725484549999237 0.3371988832950592
0.03814570605754852 -0.16903787851333618 0.5018337965011597
-0.5194265246391296 0.1526343673467636 0.11561543494462967
-0.4646761119365692 -0.05950412154197693 -0.3927675485610962
-0.6964383125305176 -0.03319926932454109 -0.1797601580619812
0.5849668979644775 0.18115577101707458 -0.33904358744621277
0.16854193806648254 -0.17954160273075104 -0.5439735651016235
0.4362296164035797 -0.17954160273075104 -0.472680926322937
0.9673056602478027 -0.06946492940187454 0.17351190745830536
-0.140205979347229 0.14880047738552094 0.4096257984638214
-0.8367441892623901 -0.04755572974681854 0.2952941060066223
0.4339078962802887 -0.17954160273075104 0.5415894389152527
-0.188566654920578 0.10061322897672653 0.38462328910827637
0.3962189257144928 0.06897840648889542 0.3424580991268158
-0.05857153981924057 -0.17954160273075104 -0.0970720648765564
-0.9113564491271973 0.09059741348028183 -0.24619247019290924
-0.4014129638671875 -0.17954160273075104 0.11515294015407562
-0.0037312477361410856 -0.17954160273075104 -0.3770596981048584
-0.6989667415618896 -0.17953118681907654 -0.38924258947372437
0.41782742738723755 -0.17954160273075104 -0.370404452085495
-0.3487861752510071 0.10367070138454437 -0.3927675485610962
0.3718039095401764 -0.1191532090306282 -0.3129051625728607
0.863889217376709 0.03271417319774628 -0.162530317902565
-0.6818929314613342 -0.17954160273075104 -0.2891687750816345
-0.9546908736228943 0.0977625921368599 0.04552532732486725
0.5099101662635803 0.18115577101707458 0.406857967376709
-0.8663014769554138 0.1136576384305954 -0.30412963032722473
0.6103309988975525 0.18115577101707458 -0.5245607495307922
-0.5365927815437317 0.18115577101707458 -0.2744819223880768
-0.7646955847740173 -0.1754130721092224 0.13726894557476044
0.11879321187734604 0.18115577101707458 -0.19202184677124023
0.6575549244880676 0.022716552019119263 -0.25406205654144287
0.4756779670715332 0.18115577101707458 -0.5127068758010864
0.6147582530975342 -0.15993782877922058 0.5872154235839844
0.927955150604248 -0.002034840639680624 0.21968849003314972
0.5607350468635559 -0.17954160273075104 -0.33264878392219543
-0.5906352400779724 0.030345628038048744 -0.1733691245317459
-0.192760169506073 -0.1355755478143692 0.016112294048070908
0.595609188079834 0.021205607801675797 -0.5499727725982666
-0.9429647326469421 -0.17954160273075104 -0.0739317238330841
-0.0306572075933218 -0.17954160273075104 -0.2866010367870331
-0.8333507180213928 -0.02131574973464012 0.008871875703334808
-0.024626856669783592 -0.030632806941866875 0.46938031911849976
0.1627606749534607 -0.17678703367710114 -0.19107864797115326
0.8730694651603699 -0.0363316535949707 0.2840951979160309
0.19016355276107788 0.18115577101707458 -0.2737232446670532
0.9096435308456421 0.03527942672371864 -0.20004872977733612
-0.8597692847251892 -0.17158611118793488 0.27590805292129517
0.2589263916015625 -0.17954160273075104 -0.33931365609169006
-0.7941441535949707 0.18115577101707458 -0.3032805919647217
0.9994161128997803 -0.0612763874232769 0.13536177575588226
0.5254040956497192 0.18115577101707458 -0.48985403776168823
0.014373455196619034 0.05814271420240402 -0.10460133850574493
-0.09142795950174332 0.18115577101707458 -0.3162309527397156
-0.019802432507276535 -0.041067853569984436 0.11405421048402786
0.03921353071928024 -0.06249659135937691 -0.5089496374130249
-0.21200160682201385 -0.17954160273075104 0.17245657742023468
0.01857122592628002 -0.17954160273075104 0.2638149559497833
0.7222607135772705 -0.17954160273075104 0.2644028067588806
-0.29591700434684753 0.08413408696651459 0.35723748803138733
0.33731579780578613 -0.177200049161911 0.3101191222667694
0.8949483036994934 -0.17954160273075104 -0.16793012619018555
0.43150565028190613 -0.17954160273075104 -0.4350869655609131
0.299471378326416 -0.17954160273075104 0.3270148038864136
-0.09817156195640564 -0.17954160273075104 -0.28939390182495117
0.49550947546958923 0.007490971591323614 -0.5947517156600952
-0.48173919320106506 0.18115577101707458 -0.2813294529914856
0.6792668700218201 0.18115577101707458 -0.4450685381889343
0.3716464340686798 0.11489654332399368 -0.5947517156600952
-0.19169862568378448 -0.17954160273075104 -0.11395030468702316
-0.7979164719581604 0.13651223480701447 -0.3555714190006256
0.6416480541229248 -0.15108175575733185 -0.498672217130661
-0.12066306173801422 -0.03630363568663597 0.0586797334253788
-0.8807938098907471 -0.17954160273075104 -0.27524515986442566
0.13412527740001678 0.18115577101707458 -0.33420529961586
0.19815534353256226 0.04532096907496452 -0.2117060273885727
0.7500804662704468 0.18115577101707458 0.26290997862815857
0.520182728767395 0.07366499304771423 -0.31500160694122314
0.5717249512672424 0.0479433499276638 -0.5765865445137024
0.37753626704216003 0.05662243068218231 0.3322009742259979
-0.9468804001808167 0.05172666162252426 0.12475460767745972
-0.2963261902332306 -0.17954160273075104 0.23723001778125763
-0.2950945496559143 0.18115577101707458 0.2446252852678299
0.6407705545425415 -0.17954160273075104 -0.30149221420288086
0.5421261191368103 -0.17954160273075104 -0.44767072796821594
-0.10938610881567001 0.07058147341012955 -0.4494260549545288
0.028228743001818657 -0.061700914055109024 0.49670669436454773
-0.2960905134677887 0.18115577101707458 0.20227082073688507
0.10141274333000183 0.18115577101707458 -0.207769513130188
-0.09822039306163788 -0.17954160273075104 0.4280564785003662
-0.4847028851509094 0.16084866225719452 0.05734951049089432
-0.23117752373218536 -0.16112899780273438 -0.4006408452987671
-0.14176754653453827 0.18115577101707458 0.24462532997131348
0.8405736088752747 -0.16572077572345734 -0.17287331819534302
0.5290175676345825 0.18115577101707458 -0.4643513560295105
0.027471356093883514 -0.17954160273075104 0.26434311270713806
0.1854264885187149 0.04143572226166725 -0.20428787171840668
0.16262541711330414 0.13237646222114563 -0.5583839416503906
-0.4906778931617737 0.15961609780788422 -0.3927675485610962
0.10544055700302124 0.05341099575161934 0.5366252660751343
0.8625333905220032 -0.05359729006886482 -0.16313175857067108
-0.615301251411438 -0.17119404673576355 -0.3927675485610962
0.083685502409935 -0.17954160273075104 0.3509545624256134
0.1928633749485016 -0.17877903580665588 0.2308119237422943
0.12552201747894287 -0.17954160273075104 0.5243113040924072
-0.5761808753013611 0.18115577101707458 0.3481396734714508
-0.7778738141059875 -0.17954160273075104 0.24280546605587006
0.6518809795379639 0.0010623972630128264 -0.25657907128334045
0.03255782648921013 0.01609891653060913 -0.11519885063171387
-0.8374760150909424 0.12877871096134186 0.2947796583175659
0.7530086040496826 0.18115577101707458 -0.28448286652565
0.7430968880653381 0.18115577101707458 -0.326299250125885
0.8145843148231506 0.040572479367256165 0.21377526223659515
0.9130226373672485 0.03910445049405098 -0.19628340005874634
-0.8730030059814453 -0.17954160273075104 -0.11706151813268661
-0.8434554934501648 -0.17954160273075104 0.2563347816467285
0.8025009036064148 -0.030581273138523102 -0.3194361925125122
0.7761766910552979 0.03186475858092308 0.3977958858013153
0.762453556060791 -0.0005210429662838578 -0.3640604019165039
-0.37067949771881104 -0.1669614017009735 0.35723748803138733
0.3345118761062622 -0.17954160273075104 -0.3675127327442169
-0.23204129934310913 -0.1390497386455536 0.3621468245983124
-0.8621012568473816 -0.0006560395704582334 -0.30834662914276123
0.06685303151607513 -0.02558470331132412 0.5166755318641663
-0.08570624142885208 -0.17954160273075104 -0.24621693789958954
0.46180033683776855 0.18115577101707458 0.3654700815677643
0.7234936356544495 0.10258123278617859 0.4596177637577057
0.7915409803390503 0.08157956600189209 -0.33164870738983154
0.14894554018974304 -0.03242109715938568 0.5591174364089966
-0.13088873028755188 0.18115577101707458 0.2606200873851776
-0.9280539155006409 0.16474339365959167 -0.21379412710666656
-0.15077298879623413 0.14935843646526337 0.40416261553764343
-0.3077973425388336 0.18115577101707458 0.10133698582649231
-0.4537440538406372 -0.17954160273075104 0.24443848431110382
-0.30856722593307495 0.14486655592918396 0.35723748803138733
-0.006609911564737558 0.18115577101707458 0.2977670431137085
-0.6411757469177246 0.11237753182649612 0.17505201697349548
-0.4746086597442627 -0.01667621172964573 -0.023995665833353996
-0.797987163066864 -0.17954160273075104 0.16020920872688293
0.8280665278434753 0.048506803810596466 0.33690473437309265
-0.4901905059814453 -0.0690263882279396 0.0707816630601883
-0.17727649211883545 0.008176230825483799 0.027597859501838684
-0.1831599920988083 0.18115577101707458 -0.33679282665252686
-0.3430076837539673 -0.17954160273075104 -0.12243366986513138
0.4454806447029114 0.18115577101707458 0.5065525770187378
-0.47564616799354553 0.13171176612377167 -0.031115099787712097
-0.22102639079093933 -0.17954160273075104 -0.22095057368278503
0.6886395812034607 0.05128272995352745 -0.44631025195121765
0.2534409165382385 0.005372976418584585 0.26407018303871155
0.6361446976661682 -0.17954160273075104 0.354851633310318
0.3830570578575134 0.18115577101707458 0.6134669780731201
0.4221120774745941 0.16102547943592072 0.3566739559173584
0.4827803671360016 0.05984010547399521 0.6174664497375488
-0.460335910320282 -0.1330670714378357 -0.3927675485610962
-0.6749818325042725 -0.17954160273075104 0.27179819345474243
0.5984024405479431 -0.17954160273075104 -0.28823623061180115
-0.9504656791687012 0.013724196702241898 0.10689619183540344
0.9379801750183105 -0.07851822674274445 -0.12966288626194
0.37101706862449646 -0.04538483917713165 0.3286218047142029
-0.9219380617141724 0.1227690726518631 0.19294314086437225
-0.571310818195343 0.18115577101707458 -0.23142361640930176
0.8424745202064514 0.07410138100385666 -0.27489423751831055
-0.32275521755218506 0.18115577101707458 -0.2732012867927551
-0.4788171350955963 -0.11472748219966888 -0.04676779732108116
0.018688814714550972 -0.04877227917313576 0.4917745888233185
0.49995049834251404 0.18115577101707458 -0.38794541358947754
-0.04417432099580765 0.18115577101707458 0.23835328221321106
-0.04050258919596672 0.09815110266208649 0.10268940776586533
-0.5584293007850647 -0.15380476415157318 -0.1572972983121872
0.6058266758918762 -0.16478869318962097 -0.5385875105857849
0.11632300168275833 0.05043584853410721 0.1887897402048111
-0.5132986903190613 0.09212539345026016 -0.3927675485610962
-0.06508112698793411 0.18115577101707458 0.12277287244796753
0.9764305949211121 -0.01750798150897026 0.16280397772789001
0.8909499645233154 0.03779220208525658 0.26311296224594116
0.6952507495880127 0.15341605246067047 -0.4389435350894928
0.005750393029302359 -0.09306319057941437 -0.49554550647735596
-0.7773204445838928 -0.0372915081679821 0.12672480940818787
-0.4886133372783661 0.11378402262926102 0.35723748803138733
-0.7309978604316711 0.04970044642686844 -0.16736610233783722
0.204645574092865 0.16509361565113068 0.5879144072532654
-0.4102118909358978 0.18115577101707458 -0.06556882709264755
-0.13143080472946167 -0.1612040251493454 0.4141625463962555
-0.19427695870399475 -0.17954160273075104 -0.33945825695991516
0.6546400785446167 -0.11377239972352982 0.5404152870178223
-0.04858372360467911 0.0713021382689476 0.45699456334114075
0.16021953523159027 -0.07062868028879166 -0.5574201941490173
0.4998607337474823 0.18115577101707458 0.3766974210739136
-0.7905142307281494 -0.009823286905884743 0.32447004318237305
0.6397117972373962 -0.0686732605099678 -0.2619774341583252
-0.15510676801204681 0.05916125699877739 -0.43111202120780945
0.3406088352203369 -0.17954160273075104 0.6069037318229675
0.11917378008365631 -0.17954160273075104 0.47383913397789
0.14417001605033875 -0.10669667273759842 -0.5509913563728333
-0.7898494601249695 -0.17266705632209778 -0.12284651398658752
0.5500540733337402 0.18115577101707458 0.3808921277523041
0.8740066289901733 -0.13843102753162384 -0.15804214775562286
-0.13393957912921906 0.18115577101707458 0.21766658127307892
0.0075940233655273914 -0.05238800495862961 0.1290953904390335
0.4246799349784851 0.15170817077159882 0.3580837845802307
-0.5037592053413391 0.18115577101707458 -0.13188505172729492
0.4201977849006653 -0.04977957531809807 0.3556229770183563
-0.758303701877594 0.06199640408158302 0.14203199744224548
-0.26639053225517273 0.18115577101707458 -0.15389764308929443
-0.4875454902648926 0.12983526289463043 0.35723748803138733
0.5213235020637512 -0.17954160273075104 -0.4258440136909485
0.9104461073875427 0.1021997332572937 -0.19915442168712616
-0.6643258333206177 -0.17321982979774475 0.356913685798645
0.15628185868263245 -0.07364273816347122 0.5629103183746338
-0.5335360765457153 0.05348248779773712 0.35723748803138733
-0.20383162796497345 0.18115577101707458 -0.3442496955394745
0.08057080209255219 0.18115577101707458 0.4291069209575653
-0.18428343534469604 0.18115577101707458 -0.026664627715945244
0.7276055812835693 -0.03293846920132637 0.4547925591468811
-0.2009320855140686 0.18115577101707458 0.19184717535972595
0.7685163617134094 -0.17954160273075104 -0.22573739290237427
-0.06469860672950745 -0.04543224349617958 0.08940533548593521
0.704945981502533 -0.15916769206523895 0.48138296604156494
-0.37263795733451843 -0.17954160273075104 0.26682329177856445
-0.08883307874202728 -0.17954160273075104 0.08239143341779709
-0.03325497359037399 -0.08159759640693665 0.10666851699352264
-0.5972870588302612 0.18115577101707458 0.19564630091190338
0.19046705961227417 0.18115577101707458 0.31101158261299133
0.05919443815946579 -0.17954160273075104 -0.42082053422927856
-0.17029792070388794 0.18115577101707458 0.3878743350505829
-0.6444426774978638 -0.017790112644433975 -0.3927675485610962
0.20035190880298615 -0.041661106050014496 0.23492327332496643
-0.056339897215366364 0.1359989047050476 -0.06339088827371597
-0.048295024782419205 0.024541620165109634 0.4571438431739807
0.27360936999320984 0.06355521082878113 -0.5947517156600952
0.049889035522937775 -0.17954160273075104 -0.1367163211107254
-0.201716348528862 -0.05127020925283432 -0.4124419093132019
0.5666411519050598 -0.17954160273075104 -0.31222864985466003
0.8312081694602966 -0.15845395624637604 0.2067227065563202
0.8801234364509583 0.11756536364555359 -0.23294256627559662
0.6650117039680481 0.1217455267906189 -0.25075414776802063
-0.7167545557022095 -0.17954160273075104 -0.3163098394870758
-0.3116690218448639 0.18115577101707458 0.29783469438552856
0.08165429532527924 -0.08212365955114365 0.5243277549743652
0.5047429203987122 0.18115577101707458 0.38639748096466064
-0.6009543538093567 0.17796039581298828 -0.3927675485610962
0.04292968288064003 -0.17954160273075104 0.36875486373901367
-0.055301327258348465 -0.17954160273075104 -0.4214438199996948
0.82429438829422 0.007463273126631975 0.20965583622455597
-0.4996323585510254 0.024919208139181137 -0.09759439527988434
0.13942460715770721 0.016641804948449135 0.20147298276424408
0.02174198068678379 -0.017901135608553886 -0.10889558494091034
0.20261645317077637 0.17143043875694275 0.5868653059005737
-0.9005463123321533 -0.17954160273075104 0.005954580847173929
-0.5009410977363586 0.03286137804389 0.09089052677154541
0.6023746728897095 0.08390531688928604 -0.5424340963363647
0.047660861164331436 0.18115577101707458 -0.4766101837158203
0.6098683476448059 -0.17954160273075104 0.41562578082084656
0.7791647911071777 -0.01963024213910103 -0.3454394042491913
-0.303151398897171 0.18115577101707458 0.28383439779281616
0.6438842415809631 0.18115577101707458 -0.3819487690925598
-0.033696796745061874 -0.054053571075201035 -0.47974440455436707
-0.6917314529418945 -0.17954160273075104 0.34261828660964966
0.6844022870063782 0.12675265967845917 0.2690039873123169
-0.7364965081214905 -0.04631076008081436 0.3456585109233856
-0.0943070575594902 0.1405939757823944 -0.4554661512374878
0.18147039413452148 0.18115577101707458 0.42655742168426514
0.3959050476551056 0.18115577101707458 0.45198243856430054
-0.9006057977676392 0.18115577101707458 -0.02975529618561268
-0.03108906000852585 0.18115577101707458 0.2471771091222763
-0.9445722699165344 0.0738184005022049 -0.16604743897914886
-0.8508149981498718 0.18115577101707458 -0.12948527932167053
0.357951819896698 0.18115577101707458 -0.549838662147522
-0.7416885495185852 -0.011472483165562153 -0.37940704822540283
0.010865537449717522 0.18115577101707458 0.2578044831752777
0.6711597442626953 0.07364396005868912 -0.24802684783935547
-0.9357131719589233 0.08434376120567322 0.16169780492782593
-0.14852315187454224 -0.17954160273075104 0.3591921031475067
0.7418214678764343 0.18115577101707458 -0.25322583317756653
-0.31340140104293823 0.18115577101707458 0.03153426945209503
-0.0906158909201622 -0.17954160273075104 0.3719681203365326
-0.5104008913040161 0.03322742134332657 0.10445203632116318
0.3959551751613617 -0.026064757257699966 -0.3269800543785095
-0.558864414691925 0.16056036949157715 0.14828747510910034
-0.9543294310569763 0.04125227779150009 -0.01712653413414955
0.0050594559870660305 -0.1248517781496048 0.4847281575202942
0.7343164086341858 -0.17954160273075104 0.4141324758529663
-0.5668059587478638 -0.17954160273075104 -0.32771530747413635
-0.5107386112213135 0.12378650903701782 -0.11416878551244736
0.71352219581604 -0.17954160273075104 -0.3328601121902466
0.7811557650566101 -0.004777703434228897 -0.34322088956832886
-0.39229217171669006 0.18115577101707458 -0.038398463279008865
-0.8026649355888367 -0.17954160273075104 -0.34366902709007263
0.22411802411079407 0.18115577101707458 -0.4611190855503082
0.5001661777496338 -0.17954160273075104 -0.5257092714309692
0.041139863431453705 0.08643043041229248 0.147512748837471
0.5790762305259705 0.18115577101707458 0.612464189529419
-0.06085684895515442 -0.17954160273075104 -0.3347681760787964
0.4257085621356964 0.01220492459833622 -0.34431979060173035
0.1769147664308548 0.07736950367689133 0.5735775232315063
-0.31953686475753784 0.18115577101707458 -0.38735494017601013
0.4877074956893921 -0.06694123148918152 0.6174664497375488
-0.6069915294647217 0.015466022305190563 0.35723748803138733
-0.5100917220115662 -0.15813115239143372 -0.3927675485610962
-0.7574161291122437 0.18115577101707458 0.28141579031944275
-0.3962760865688324 -0.17954160273075104 0.13130739331245422
0.7766293287277222 -0.12879294157028198 -0.20123958587646484
0.8103086352348328 -0.14197984337806702 -0.186299130320549
0.22004662454128265 0.09651338309049606 0.5958767533302307
0.6998032927513123 -0.17954160273075104 -0.36723649501800537
-0.49636372923851013 -0.17954160273075104 0.20620624721050262
0.04375041276216507 0.1327485293149948 0.14894598722457886
0.36062443256378174 0.18115577101707458 -0.37507739663124084
0.2156096249818802 -0.17954160273075104 0.4076889753341675
-0.4323514401912689 0.15637324750423431 -0.3927675485610962
0.9335653185844421 -0.17147186398506165 0.21310511231422424
0.028825854882597923 -0.009472991339862347 -0.11302392929792404
0.018766893073916435 0.18115577101707458 0.22769129276275635
0.5079600811004639 0.006208585575222969 -0.5947517156600952
-0.07184386998414993 0.09076958149671555 -0.05435549467802048
-0.8201547861099243 0.027865450829267502 0.30715590715408325
0.5206125378608704 -0.17954160273075104 -0.3696131408214569
0.19828152656555176 0.18115577101707458 0.43676623702049255
0.10069233924150467 0.00042540556751191616 0.18020819127559662
-0.5481933951377869 -0.1266067624092102 -0.15043388307094574
0.9950608611106873 -0.15718090534210205 -0.10434138029813766
-0.21060441434383392 -0.0010750455548986793 0.3732297420501709
-0.3088633716106415 -0.17954160273075104 -0.18907013535499573
-0.17345668375492096 -0.17954160273075104 -0.3429805636405945
-0.6358456015586853 0.18115577101707458 -0.36761045455932617
-0.51285320520401 -0.037445906549692154 0.35723748803138733
-0.14222057163715363 -0.05910591781139374 -0.4362737536430359
-0.30137473344802856 -0.17954160273075104 0.021401716396212578
0.3067252039909363 0.10595572739839554 -0.27497851848602295
0.39104530215263367 0.1562201827764511 -0.3241187036037445
-0.5832377672195435 0.004724524449557066 0.35723748803138733
0.2161184698343277 -0.17954160273075104 -0.48358607292175293
-0.8768138885498047 -0.01819084957242012 0.2585647404193878
-0.8981059789657593 -0.04947785288095474 0.23216429352760315
-0.5928244590759277 -0.001091844867914915 0.35723748803138733
-0.056862469762563705 -0.0517883375287056 0.09370753169059753
-0.7971657514572144 -0.09363749623298645 -0.3560057282447815
0.0731431171298027 -0.17954160273075104 -0.34671181440353394
0.6909325122833252 -0.17954160273075104 0.4952065646648407
0.21722032129764557 -0.15540480613708496 -0.5802526473999023
-0.125862717628479 0.18115577101707458 0.34122753143310547
-0.176737442612648 -0.07628166675567627 0.0067745391279459
0.3991240859031677 0.18115577101707458 0.5680555105209351
-0.5170032978057861 0.18115577101707458 -0.2854871451854706
-0.8196954131126404 -0.11800512671470642 0.3074398934841156
0.15335841476917267 -0.17954160273075104 -0.4089907705783844
-0.5863401293754578 -0.17954160273075104 0.3063032031059265
-0.8388977646827698 -0.07712101936340332 -0.32856985926628113
0.6484735608100891 0.18115577101707458 0.48067325353622437
0.4453077018260956 -0.17954160273075104 0.521567702293396
-0.9172264337539673 -0.17954160273075104 -0.08697210252285004
0.7572969198226929 -0.14703147113323212 -0.3698064684867859
0.03452547267079353 0.18115577101707458 0.242646723985672
-0.6094169616699219 -0.14110660552978516 0.35723748803138733
0.17119497060775757 0.13005900382995605 0.21891552209854126
-0.2351510226726532 0.18115577101707458 -0.20819565653800964
-0.7312674522399902 -0.17954160273075104 0.20810209214687347
0.685368001461029 0.036919400095939636 -0.4499557614326477
-0.9181922674179077 -0.01973428949713707 0.20027634501457214
-0.9408780336380005 0.1681964248418808 -0.17918483912944794
0.5282715559005737 -0.03207113593816757 0.33524128794670105
0.5848467946052551 0.02987200766801834 0.6174664497375488
0.26546210050582886 0.027582308277487755 0.6174664497375488
-0.7546554207801819 0.10246404260396957 -0.1538795381784439
-0.12265750020742416 0.048918452113866806 -0.02474222704768181
-0.9537940621376038 -0.13839256763458252 -0.09695953875780106
-0.8683567047119141 -0.17954160273075104 -0.12981736660003662
0.8561450242996216 -0.1100984737277031 0.19614343345165253
-0.213392436504364 -0.11982370913028717 0.3717883229255676
-0.9028657078742981 -0.17954160273075104 -0.2038823366165161
0.9928427338600159 -0.0755687728524208 -0.1053253561258316
-0.8443131446838379 -0.17954160273075104 -0.2921021282672882
0.4325768053531647 -0.017816204577684402 0.6174664497375488
-0.6494362354278564 0.18115577101707458 -0.35616862773895264
0.42669880390167236 0.15756352245807648 0.6174664497375488
-0.7831013202667236 0.18115577101707458 0.2745884358882904
0.8300410509109497 0.00956030935049057 -0.1775456815958023
0.5265729427337646 0.04486427456140518 0.3359619081020355
0.37396982312202454 0.18115577101707458 0.4557120203971863
-0.8261922001838684 -0.1068636029958725 -0.3378499448299408
-0.6751589775085449 -0.1781369149684906 0.17429417371749878
-0.07827039808034897 0.18115577101707458 0.3993164896965027
0.9572057723999023 -0.028234584257006645 0.1532691866159439
0.48488056659698486 -0.006363390013575554 -0.5947517156600952
-0.027633942663669586 -0.17954160273075104 -0.13246895372867584
0.4138675034046173 0.18115577101707458 -0.5062251687049866
-0.4817487299442291 0.11544182151556015 -0.3927675485610962
-0.3191494345664978 -0.01872485689818859 -0.3927675485610962
-0.21645203232765198 0.18115577101707458 0.011079777032136917
-0.6109476089477539 0.022969018667936325 0.17047283053398132
0.9064877033233643 -0.07050473242998123 0.2448798418045044
0.9319451451301575 0.18115577101707458 -0.1509096622467041
0.12943369150161743 0.02207285352051258 -0.545088529586792
-0.5887893438339233 -0.17954160273075104 0.29109618067741394
-0.7968015670776367 -0.14702610671520233 0.32122400403022766
-0.7151164412498474 -0.08501327782869339 -0.1741742044687271
-0.8675515055656433 0.18115577101707458 -0.11968247592449188
0.14241068065166473 -0.14904949069023132 -0.179219052195549
0.06938138604164124 -0.04506354779005051 0.5179826617240906
-0.9078481197357178 -0.1616760939359665 -0.25186625123023987
0.9671387672424316 -0.10131464153528214 -0.13598258793354034
0.4133618175983429 0.11336539685726166 0.3518699109554291
-0.08208484947681427 0.10362736135721207 -0.048387233167886734
-0.21284133195877075 -0.17954160273075104 0.05493558570742607
-0.049261730164289474 0.04734525829553604 -0.06751593947410583
-0.27983230352401733 0.1652783900499344 0.35723748803138733
-0.5497375130653381 -0.17954160273075104 -0.2712838351726532
-0.2682568430900574 0.18115577101707458 0.33464616537094116
-0.6441469788551331 -0.0110629852861166 -0.3927675485610962
0.7371780872344971 0.18115577101707458 0.32764196395874023
0.5315575003623962 -0.17591336369514465 0.3338472545146942
-0.9264886975288391 -0.07807637006044388 -0.21750834584236145
0.47112175822257996 -0.15909072756767273 -0.33676546812057495
-0.9501606822013855 0.12479639798402786 0.10814851522445679
-0.05781090259552002 0.18115577101707458 0.2682879865169525
-0.2196604162454605 0.0642700120806694 0.3685477674007416
0.7214021682739258 0.12064190953969955 0.253307044506073
0.7400772571563721 0.027425413951277733 0.24538429081439972
0.828599750995636 0.0046807220205664635 0.2078293114900589
-0.05063211917877197 0.0672784373164177 0.4559355676174164
-0.23472458124160767 -0.0982857421040535 0.36075958609580994
-0.9539940357208252 -0.030296333134174347 -0.07524388283491135
-0.9338831901550293 0.005593167617917061 0.16635896265506744
0.5793194770812988 -0.17954160273075104 0.34244251251220703
-0.867154061794281 -0.17954160273075104 -0.008134209550917149
-0.0008540287963114679 0.10667905956506729 -0.492900013923645
-0.4061461091041565 -0.17954160273075104 0.06678924709558487
-0.840936005115509 0.18115577101707458 0.2724204659461975
0.1616174429655075 0.1568879783153534 0.5656688213348389
-0.6710157990455627 0.002883362350985408 0.3567347526550293
0.8819143176078796 -0.073104128241539 -0.1545342206954956
-0.3557388186454773 0.18115577101707458 0.028276657685637474
0.7280499935150146 -0.08612984418869019 -0.22278979420661926
-0.9418225288391113 -0.019140062853693962 -0.1762300729751587
-0.2025749236345291 0.18115577101707458 0.2291857898235321
0.0361906997859478 0.18115577101707458 0.3755587935447693
-0.48281756043434143 -0.0564865842461586 0.0519428588449955
-0.9100447297096252 0.18115577101707458 -0.11006501317024231
-0.9508488774299622 -0.1487330049276352 0.10472673922777176
-0.9545198678970337 0.07974713295698166 0.015873726457357407
0.010567739605903625 -0.17954160273075104 0.2647053599357605
0.8655139803886414 0.025657109916210175 -0.1618095338344574
0.7630438804626465 -0.0012819721596315503 -0.3634026050567627
0.892355740070343 -0.08759503066539764 0.1807813197374344
0.05027978867292404 0.18115577101707458 0.18518000841140747
-0.942419707775116 0.13627184927463531 0.14148174226284027
-0.05078611150383949 0.18115577101707458 0.29523608088493347
0.07274535298347473 -0.02868926338851452 0.5197218656539917
0.6355351209640503 0.010071545839309692 -0.2638302445411682
0.7424070239067078 0.18115577101707458 0.3614085018634796
0.6343691945075989 0.06439335644245148 0.2902301549911499
-0.0762108787894249 -0.17954160273075104 -0.35136809945106506
0.2660616934299469 -0.17954160273075104 -0.5149775147438049
-0.23272313177585602 0.18115577101707458 0.06882694363594055
-0.05398821458220482 -0.08632046729326248 0.09528554975986481
0.21135801076889038 -0.04193662852048874 0.2409658282995224
-0.36082643270492554 -0.012153081595897675 -0.3927675485610962
