-0.9999989867210388 0.08341079950332642 -0.7179158926010132
-0.29100313782691956 0.1485251784324646 0.9088878631591797
0.059620581567287445 0.1485251784324646 0.5375350117683411
0.9659119844436646 0.028320016339421272 0.7731193900108337
0.09593930840492249 0.1485251784324646 0.725307285785675
0.4692717492580414 -0.09907867759466171 0.9934561252593994
0.6680351495742798 -0.004659819416701794 0.5614036917686462
-0.9033290147781372 -0.14636145532131195 0.7523963451385498
0.4483693242073059 0.1485251784324646 -0.4423789381980896
-0.4120776951313019 0.1485251784324646 0.7903353571891785
-0.14579348266124725 -0.14636145532131195 -0.5070505142211914
0.08034265786409378 0.06465794891119003 0.9934561252593994
-0.42871949076652527 -0.14636145532131195 0.7814280986785889
-0.5363519191741943 -0.14636145532131195 0.7890573143959045
-0.911953866481781 -0.14636145532131195 -0.8555198311805725
-0.8832013010978699 -0.14636145532131195 -0.1908615380525589
0.3839625120162964 0.1485251784324646 0.3186758756637573
-0.9998669624328613 0.1485251784324646 0.10556240379810333
-0.5158962607383728 0.1485251784324646 0.858173131942749
-0.6319641470909119 0.1485251784324646 -0.5405619144439697
-0.2659214735031128 0.1485251784324646 -0.6735463738441467
-0.9983484148979187 -0.14636145532131195 -0.23654431104660034
-0.09300646930932999 0.1485251784324646 0.4815869927406311
0.8815476894378662 0.1485251784324646 -0.007377121597528458
-0.8372946381568909 -0.14636145532131195 -0.38687649369239807
0.8385093808174133 -0.14636145532131195 0.0783451721072197
-0.6383941769599915 -0.14636145532131195 0.02844718098640442
0.6358035802841187 0.1485251784324646 0.9432300925254822
0.9088993072509766 -0.14636145532131195 -0.12077067792415619
-0.9999989867210388 -0.061340849846601486 -0.7788675427436829
-0.8466964364051819 0.1485251784324646 -0.7847728133201599
0.9659119844436646 0.13389499485492706 -0.3517371118068695
-0.5186779499053955 -0.04632316157221794 0.9934561252593994
-0.41718465089797974 -0.14636145532131195 -0.7193536162376404
-0.5868092179298401 0.1485251784324646 0.4783862829208374
-0.7375746369361877 -0.14636145532131195 0.929226815700531
-0.9999989867210388 -0.09182311594486237 -0.2779155969619751
0.734024703502655 -0.14636145532131195 0.04087715595960617
0.4184315502643585 0.1485251784324646 -0.12559577822685242
0.6690380573272705 -0.14636145532131195 -0.24826490879058838
0.4494730830192566 0.1485251784324646 -0.6571254134178162
0.9629890322685242 0.1485251784324646 0.026904026046395302
-0.9454231858253479 0.1485251784324646 -0.6878693103790283
0.9659119844436646 -0.09284504503011703 -0.7246142625808716
-0.6108110547065735 0.1485251784324646 0.22735576331615448
-0.2852901816368103 0.1485251784324646 -0.04032551124691963
-0.5252605080604553 0.1485251784324646 0.059048209339380264
0.3631911873817444 -0.14636145532131195 -0.4726625084877014
0.011729818768799305 -0.14636145532131195 -0.5467298030853271
-0.23055946826934814 -0.09320314973592758 0.3859478831291199
-0.9999989867210388 -0.03878259286284447 -0.23328746855258942
-0.6648759245872498 0.1485251784324646 0.4255806803703308
0.4372418224811554 -0.14636145532131195 -0.3528665006160736
-0.8122004866600037 -0.06874038279056549 0.6603490114212036
0.3817252218723297 0.1485251784324646 0.8155295848846436
-0.4682866632938385 -0.07911904901266098 -0.972454845905304
0.7928518056869507 -0.14636145532131195 -0.34402400255203247
-0.15674006938934326 0.1485251784324646 -0.4617331624031067
-0.05828859284520149 -0.14636145532131195 -0.7002108097076416
-0.1179412379860878 0.1485251784324646 0.34427738189697266
-0.1920740157365799 0.1485251784324646 -0.2527410387992859
0.5741906762123108 0.07097707688808441 -0.972454845905304
-0.14459116756916046 -0.05646960437297821 -0.972454845905304
0.5124493837356567 0.1485251784324646 -0.03532645106315613
-0.8146428465843201 -0.14542417228221893 -0.32017606496810913
-0.8472068309783936 0.1485251784324646 0.35308369994163513
-0.9116405248641968 -0.14636145532131195 -0.12649275362491608
0.11763866245746613 0.1485251784324646 0.24683064222335815
-0.6939635276794434 0.1485251784324646 -0.44769519567489624
-0.04443226382136345 -0.10648738592863083 -0.972454845905304
0.8515346646308899 0.1485251784324646 -0.580839216709137
0.29088249802589417 0.1485251784324646 -0.27541741728782654
0.39307451248168945 -0.14636145532131195 0.7278216481208801
0.1796744018793106 -0.14636145532131195 0.5858575701713562
0.7382645010948181 -0.14636145532131195 0.6876873970031738
0.21536825597286224 0.0035075463820248842 -0.27204400300979614
-0.6992021203041077 0.1485251784324646 -0.4934730529785156
-0.7868624925613403 0.09633377939462662 0.9934561252593994
0.600459098815918 0.1485251784324646 -0.1775239109992981
0.10878872126340866 0.1485251784324646 0.8079410791397095
0.33894261717796326 -0.14636145532131195 -0.785004734992981
0.7510467171669006 -0.14636145532131195 -0.8844231963157654
-0.7796705365180969 -0.14636145532131195 0.1789243370294571
0.20045340061187744 0.1485251784324646 0.3085273802280426
0.8377261757850647 0.1485251784324646 0.3281593322753906
0.09936869889497757 0.1485251784324646 -0.390601247549057
-0.10423223674297333 -0.14636145532131195 -0.18532536923885345
-0.08009766042232513 0.1485251784324646 -0.5313758254051208
-0.2937491536140442 -0.14636145532131195 -0.2965816557407379
0.7559504508972168 -0.14636145532131195 -0.9047772288322449
0.10332741588354111 0.1485251784324646 0.9620036482810974
-0.7387999296188354 0.1485251784324646 0.5225457549095154
-0.19194871187210083 -0.13919535279273987 0.051824264228343964
-0.17342478036880493 -0.07979890704154968 0.06770246475934982
-0.2731635570526123 -0.07811135053634644 -0.972454845905304
0.9659119844436646 -0.004390744958072901 -0.27336081862449646
-0.9999989867210388 -0.12265345454216003 -0.7315998077392578
-0.564500629901886 0.1485251784324646 -0.23837260901927948
-0.15270854532718658 0.1485251784324646 -0.5057824850082397
0.14788492023944855 0.0891166403889656 0.6757566332817078
-0.35065460205078125 -0.14636145532131195 0.7200025916099548
0.30360639095306396 0.1485251784324646 0.8483660817146301
0.0999147966504097 -0.14636145532131195 -0.9079168438911438
-0.6373301148414612 -0.14636145532131195 0.6583614349365234
0.606247067451477 -0.14636145532131195 0.7211706042289734
0.8945499062538147 0.1485251784324646 0.33585283160209656
0.9544614553451538 0.056662674993276596 -0.972454845905304
0.67817223072052 -0.14636145532131195 -0.2918887138366699
-0.4241842031478882 -0.14636145532131195 -0.48804953694343567
-0.6334289908409119 -0.14636145532131195 0.1161327138543129
0.9659119844436646 -0.043348222970962524 0.2402380108833313
-0.1508449912071228 0.14764317870140076 0.31904706358909607
0.08114077895879745 -0.14636145532131195 0.6373748779296875
-0.5468559265136719 -0.14636145532131195 -0.7082372307777405
-0.6986618041992188 0.07297125458717346 0.9934561252593994
-0.23335625231266022 0.1045595034956932 0.027057496830821037
0.8789889216423035 0.1485251784324646 -0.38554349541664124
-0.4354579746723175 -0.028483664616942406 -0.6702561378479004
0.9659119844436646 0.036735959351062775 0.7311696410179138
0.053604092448949814 0.02789938636124134 -0.972454845905304
-0.9685570597648621 0.1485251784324646 0.8277787566184998
-0.0870676338672638 -0.14636145532131195 -0.7106660604476929
-0.8907323479652405 -0.14636145532131195 -0.9457178115844727
0.492443323135376 -0.14636145532131195 0.859056293964386
0.323700875043869 0.1485251784324646 -0.0818648487329483
-0.9779142141342163 0.015591242350637913 -0.972454845905304
-0.9999989867210388 -0.06100331246852875 0.7617409229278564
-0.3047434389591217 -0.14636145532131195 -0.733751118183136
0.14379099011421204 -0.12149297446012497 0.9934561252593994
-0.9999989867210388 0.09610705822706223 0.11443950980901718
-0.9999989867210388 0.029133265838027 0.6088505387306213
-0.9999989867210388 -0.042805008590221405 -0.5577757358551025
-0.49540847539901733 -0.14636145532131195 0.3933650851249695
-0.3468967378139496 -0.14636145532131195 -0.38783252239227295
-0.7796557545661926 -0.14636145532131195 -0.1466410905122757
0.9406499266624451 -0.029842767864465714 -0.40701067447662354
-0.031839724630117416 -0.07903808355331421 0.9934561252593994
-0.4978872239589691 0.1485251784324646 0.8926555514335632
-0.5983344912528992 -0.14636145532131195 -0.7486661672592163
0.9659119844436646 -0.09597001224756241 -0.4375905692577362
0.8691800236701965 0.020782314240932465 -0.4159562885761261
0.35793429613113403 0.1485251784324646 -0.9440586566925049
0.44683709740638733 0.1485251784324646 -0.8676623106002808
-0.9745244979858398 0.1485251784324646 -0.2136157751083374
-0.0384332500398159 -0.14636145532131195 -0.7125685214996338
0.19826051592826843 0.1485251784324646 -0.7429354786872864
0.9255231618881226 0.1485251784324646 -0.5551080703735352
-0.7443679571151733 0.1485251784324646 -0.14693327248096466
0.10984335094690323 0.1485251784324646 0.36355865001678467
-0.5325888395309448 0.1485251784324646 -0.14748303592205048
-0.902062177658081 -0.14636145532131195 -0.7755038142204285
0.28793013095855713 -0.14636145532131195 0.1122039332985878
0.4174986779689789 -0.14636145532131195 -0.601468026638031
-0.27587080001831055 -0.14636145532131195 0.5372516512870789
-0.5017503499984741 -0.14636145532131195 0.873820424079895
0.5886875987052917 -0.14636145532131195 0.11308260262012482
-0.7847523093223572 -0.02947169914841652 0.9934561252593994
0.19452454149723053 -0.029399989172816277 -0.972454845905304
0.9194144606590271 0.1485251784324646 0.7648410797119141
0.38010889291763306 0.1485251784324646 -0.4148589074611664
0.9659119844436646 0.14717641472816467 -0.8297401070594788
0.25191113352775574 -0.14636145532131195 0.15728692710399628
-0.9999989867210388 0.018243994563817978 -0.3010697066783905
0.7541772127151489 -0.14636145532131195 0.0828150287270546
-0.0831771194934845 0.1485251784324646 0.623150110244751
0.7122036218643188 -0.14636145532131195 -0.7521794438362122
-0.8267584443092346 -0.14636145532131195 -0.7318941950798035
-0.8615195155143738 0.1485251784324646 -0.3314405679702759
0.7339155077934265 -0.007949679158627987 0.9934561252593994
-0.5537779927253723 0.07570846378803253 -0.972454845905304
0.3183058202266693 0.1485251784324646 0.13777107000350952
-0.08153511583805084 0.1485251784324646 0.40399208664894104
-0.7138906717300415 0.1485251784324646 -0.7133014798164368
0.4117708206176758 0.1485251784324646 0.0622391551733017
0.802046000957489 0.1485251784324646 0.16507220268249512
0.6596459746360779 -0.14636145532131195 -0.7508993148803711
0.09946376830339432 -0.14636145532131195 -0.7278236746788025
-0.39666834473609924 -0.033682700246572495 0.38426271080970764
-0.8235419392585754 -0.022337423637509346 0.7307261228561401
-0.11160971224308014 0.1485251784324646 -0.3565870225429535
0.21687769889831543 -0.045580897480249405 -0.29390281438827515
0.6644063591957092 -0.14636145532131195 -0.8033713102340698
-0.04514942690730095 -0.14636145532131195 -0.6734272241592407
-0.9999989867210388 -0.1311192363500595 0.20086656510829926
0.20839551091194153 -0.14636145532131195 -0.434583842754364
-0.4388165771961212 -0.02338908240199089 -0.9065328240394592
-0.009010091423988342 -0.14636145532131195 -0.5142089128494263
-0.3723488450050354 -0.008102470077574253 -0.6045458316802979
0.9403742551803589 0.029974929988384247 0.5734946131706238
-0.2731640040874481 -0.10986507683992386 0.9934561252593994
-0.8818910121917725 -0.14636145532131195 0.7613049149513245
-0.7431225776672363 0.1485251784324646 -0.4288175106048584
-0.4583016037940979 0.1485251784324646 -0.41995692253112793
0.44958943128585815 -0.14636145532131195 0.7712933421134949
-0.5805277228355408 0.1485251784324646 -0.23635333776474
-0.4701997637748718 0.1485251784324646 -0.7723782062530518
-0.1265537440776825 -0.019456403329968452 0.14215748012065887
0.6630136370658875 0.1485251784324646 -0.28153347969055176
-0.553086519241333 0.1485251784324646 0.3380301296710968
0.1776105910539627 -0.14636145532131195 -0.14177784323692322
0.9368948936462402 0.1485251784324646 -0.7081820964813232
0.9659119844436646 0.028940171003341675 -0.22572846710681915
0.23135049641132355 -0.14636145532131195 -0.39959385991096497
-0.4796385169029236 0.11837323755025864 0.309032142162323
-0.8006108403205872 0.1428694725036621 -0.972454845905304
-0.29303938150405884 -0.14636145532131195 -0.6546711325645447
0.9094547033309937 0.1485251784324646 0.13524436950683594
-0.08370532095432281 0.06661053001880646 0.9934561252593994
0.058199603110551834 0.1485251784324646 0.818260669708252
-0.423272043466568 -0.14636145532131195 -0.16008123755455017
0.6125277280807495 0.1485251784324646 -0.6910282373428345
0.022266235202550888 0.1485251784324646 0.9540320038795471
-0.9999989867210388 0.06654836982488632 0.41402682662010193
0.3686472773551941 -0.14636145532131195 0.11935064196586609
-0.3179973363876343 -0.1435893326997757 0.4031509757041931
0.902228057384491 -0.14636145532131195 0.2608054280281067
-0.039580415934324265 -0.14636145532131195 0.6411228179931641
0.48118627071380615 0.1485251784324646 0.2846887409687042
-0.273898720741272 -0.14636145532131195 -0.5568135380744934
-0.3702872693538666 -0.08247347176074982 0.9934561252593994
0.1503434181213379 0.1485251784324646 0.17725783586502075
-0.0946895182132721 -0.14636145532131195 -0.6892072558403015
0.9125902652740479 -0.14636145532131195 -0.6503134965896606
-0.9860823750495911 -0.14636145532131195 -0.6597285270690918
0.5936252474784851 -0.14636145532131195 0.8570951223373413
0.26761940121650696 -0.13658273220062256 -0.972454845905304
0.0852193683385849 0.1485251784324646 0.9133950471878052
-0.3942602872848511 -0.14636145532131195 0.4513664245605469
0.0612412691116333 -0.14636145532131195 0.15519224107265472
-0.5410683751106262 -0.14636145532131195 0.7540212869644165
0.03265160322189331 -0.04702312871813774 0.9934561252593994
-0.7862816452980042 0.1485251784324646 -0.5673899054527283
-0.2148064523935318 -0.14636145532131195 -0.881234347820282
-0.030389336869120598 0.1270325630903244 -0.972454845905304
0.4576326310634613 -0.14636145532131195 -0.34551018476486206
-0.8497637510299683 -0.14636145532131195 0.9142459034919739
-0.26802560687065125 0.11182323098182678 0.9934561252593994
0.02573341690003872 -0.14636145532131195 0.3430359661579132
0.9117843508720398 -0.060887545347213745 0.9934561252593994
0.4526340365409851 0.1485251784324646 0.0870513916015625
0.8835147619247437 -0.14636145532131195 -0.7545759081840515
-0.2671888470649719 -0.14636145532131195 -0.42558321356773376
0.7449462413787842 0.1485251784324646 0.8874791264533997
-0.2592306137084961 0.12327940762042999 0.3963960111141205
-0.6851145029067993 0.1485251784324646 -0.8889051675796509
0.35372474789619446 -0.14636145532131195 0.609994649887085
-0.6025806069374084 0.1485251784324646 0.39834272861480713
0.9659119844436646 0.021703610196709633 0.2842458188533783
-0.7726528644561768 -0.051428984850645065 0.6756740808486938
0.287517249584198 -0.14636145532131195 -0.024533875286579132
-0.08587364107370377 -0.14636145532131195 -0.5364204049110413
-0.0028061759658157825 -0.14636145532131195 0.7477343082427979
-0.9706945419311523 -0.14636145532131195 0.03258528932929039
0.46766746044158936 0.1485251784324646 -0.027424728497862816
0.49567678570747375 0.1485251784324646 0.04936152324080467
0.9659119844436646 0.09831834584474564 0.20009644329547882
0.30017709732055664 -0.14636145532131195 0.504170298576355
0.7206535339355469 -0.14636145532131195 0.4073130190372467
0.32844942808151245 0.1485251784324646 -0.2280072122812271
-0.270311176776886 -0.14636145532131195 -0.6361964344978333
-0.38124632835388184 -0.14636145532131195 -0.06048719957470894
0.5911329388618469 0.08629585057497025 0.9934561252593994
-0.7171393632888794 0.1485251784324646 0.21420767903327942
-0.2598125636577606 -0.14636145532131195 0.5992798805236816
0.9659119844436646 -0.08054878562688828 0.37023845314979553
0.2961033582687378 0.1485251784324646 0.4798003137111664
0.23200714588165283 -0.14636145532131195 0.55658358335495
-0.9347012639045715 -0.04171697422862053 0.9429763555526733
-0.6668998003005981 -0.14636145532131195 0.5174111723899841
0.9659119844436646 0.13140606880187988 0.4658084511756897
0.6887487173080444 -0.14636145532131195 0.869672954082489
0.9659119844436646 -0.03856847435235977 -0.6936086416244507
-0.8764594793319702 0.1485251784324646 -0.49448326230049133
-0.291328102350235 0.1485251784324646 -0.6383727788925171
-0.5933229327201843 0.1485251784324646 -0.6569008827209473
-0.8261928558349609 0.049013007432222366 0.6679688096046448
-0.5671342015266418 -0.14636145532131195 -0.280305951833725
0.5839284062385559 -0.00023776073066983372 0.6386265754699707
0.002864753594622016 -0.14636145532131195 0.15914222598075867
0.5127002000808716 0.1347530484199524 -0.972454845905304
-0.4457145035266876 -0.14636145532131195 0.7414602041244507
-0.09823121875524521 -0.14636145532131195 0.41543564200401306
0.8817073702812195 -0.14636145532131195 0.3580560088157654
0.6149762868881226 -0.038031455129384995 -0.38126251101493835
-0.8593190908432007 -0.14636145532131195 0.376272052526474
-0.1971723437309265 -0.14636145532131195 -0.28651848435401917
0.9659119844436646 0.1261993944644928 0.8264442086219788
-0.5775184035301208 0.005570324137806892 0.9934561252593994
0.09867710620164871 -0.14636145532131195 -0.5000761151313782
-0.9722275733947754 0.1485251784324646 0.8437917828559875
0.839509129524231 0.1485251784324646 0.427301287651062
0.007532068993896246 -0.14636145532131195 0.7311965823173523
-0.9999989867210388 0.07104429602622986 -0.4822459816932678
-0.10511504113674164 0.1485251784324646 -0.3479333519935608
0.21678251028060913 -0.14636145532131195 0.5599567890167236
-0.630284309387207 0.1485251784324646 0.29767048358917236
0.5285254120826721 -0.14636145532131195 -0.5010555386543274
-0.9697728753089905 -0.14636145532131195 0.29764455556869507
0.13043351471424103 -0.14636145532131195 0.8665318489074707
-0.300807923078537 0.1485251784324646 0.6945736408233643
-0.17076528072357178 -0.10348084568977356 0.9934561252593994
-0.079755999147892 -0.14636145532131195 0.4237135052680969
-0.20364853739738464 -0.14636145532131195 -0.4928762912750244
-0.9999989867210388 -0.06524473428726196 0.43930643796920776
-0.39257511496543884 -0.03397400304675102 -0.6056215763092041
0.9569970965385437 0.08811906725168228 -0.972454845905304
-0.4611251950263977 0.1485251784324646 -0.39419931173324585
0.45895662903785706 -0.14636145532131195 -0.4435192048549652
-0.9999989867210388 0.08953779190778732 0.21865274012088776
-0.46911031007766724 -0.14636145532131195 0.5225985050201416
-0.9484021067619324 0.03236237168312073 -0.972454845905304
0.21404434740543365 -0.14636145532131195 0.7589808106422424
-0.5083204507827759 0.057842861860990524 0.20740671455860138
0.5304279923439026 0.1485251784324646 -0.6907111406326294
-0.1440800279378891 0.05378883704543114 0.10482114553451538
0.1302032172679901 -0.14636145532131195 -0.7291058301925659
0.4886986017227173 -0.09142673015594482 0.9934561252593994
0.4632009267807007 -0.14636145532131195 -0.3902464807033539
0.9247435927391052 -0.14636145532131195 0.5001612901687622
-0.12432496249675751 0.005644025281071663 0.2651806175708771
0.04152611643075943 0.1485251784324646 0.6678787469863892
0.06627162545919418 0.1485251784324646 -0.10721361637115479
-0.8772664666175842 0.1485251784324646 -0.36455145478248596
-0.12940892577171326 0.1485251784324646 -0.7639597654342651
-0.44403427839279175 0.1485251784324646 -0.42494937777519226
-0.004919813014566898 -0.14636145532131195 -0.7744391560554504
0.9043843150138855 -0.10341214388608932 0.9934561252593994
-0.9999989867210388 0.1157677099108696 0.3222334086894989
0.8596175312995911 -0.03515483811497688 -0.972454845905304
-0.1530734747648239 -0.14636145532131195 -0.9690813422203064
0.20973606407642365 -0.14636145532131195 0.09352026879787445
-0.18246929347515106 -0.14636145532131195 -0.5632274150848389
-0.9386617541313171 -0.14636145532131195 -0.21034592390060425
0.833631157875061 -0.14636145532131195 -0.5596997737884521
0.829220712184906 0.02481713891029358 0.5704690217971802
0.4326320290565491 -0.14636145532131195 0.38504406809806824
0.8029143810272217 -0.03260548785328865 0.5819286704063416
-0.43212294578552246 -0.031301308423280716 -0.5888659358024597
0.1264362931251526 0.1485251784324646 0.6025561094284058
0.9659119844436646 0.07761750370264053 0.023862121626734734
0.16456550359725952 -0.14636145532131195 -0.1260145604610443
0.9560414552688599 0.1485251784324646 -0.13755884766578674
-0.6846454739570618 -0.14636145532131195 -0.14688071608543396
-0.9937641024589539 -0.14636145532131195 -0.4459342062473297
0.8600667119026184 0.1485251784324646 -0.09170317649841309
0.7153775691986084 0.1485251784324646 0.11463242769241333
0.4593365788459778 0.1485251784324646 -0.30781665444374084
-0.8274322152137756 0.1485251784324646 -0.22306719422340393
-0.6119658350944519 0.1485251784324646 0.17252178490161896
0.5443803071975708 0.1485251784324646 0.5440947413444519
-0.016702303662896156 0.1485251784324646 -0.4874858558177948
0.6875954270362854 0.1485251784324646 -0.8225647211074829
0.9341956377029419 -0.14636145532131195 -0.6845799088478088
-0.9999989867210388 -0.09476029127836227 0.20887257158756256
0.4409741461277008 -0.14636145532131195 0.7249278426170349
0.04362522438168526 -0.14636145532131195 0.8375858664512634
0.6517773270606995 0.1485251784324646 0.27001145482063293
0.4076513648033142 -0.1108396053314209 -0.972454845905304
0.953278124332428 0.1485251784324646 -0.8386423587799072
-0.2989201545715332 0.06939291954040527 0.40301328897476196
-0.3332030177116394 -0.14636145532131195 0.5356130599975586
0.05266779288649559 0.1485251784324646 0.4998088777065277
-0.8418856263160706 0.0317179337143898 0.7057083249092102
-0.5160560011863708 -0.14636145532131195 -0.9501194357872009
-0.6354438662528992 -0.14636145532131195 -0.6854024529457092
0.48652544617652893 -0.11516625434160233 0.9934561252593994
-0.5639933347702026 0.1485251784324646 0.09781060367822647
0.49175918102264404 0.1485251784324646 0.14659957587718964
-0.32183021306991577 -0.14636145532131195 -0.024532221257686615
-0.9999444484710693 -0.11340407282114029 0.7985239624977112
-0.8160437941551208 -0.14636145532131195 0.36204931139945984
0.1756511926651001 0.1485251784324646 -0.3453671634197235
0.7695753574371338 0.012842338532209396 0.6371431946754456
0.6011114716529846 0.1485251784324646 -0.44526636600494385
-0.5872541666030884 0.007417857181280851 0.9934561252593994
-0.8992918729782104 -0.14636145532131195 0.18929949402809143
-0.028246527537703514 -0.14636145532131195 0.5735442042350769
-0.5868465304374695 -0.14636145532131195 0.03426089137792587
-0.6146310567855835 -0.14636145532131195 -0.20064790546894073
0.6709738373756409 -0.14636145532131195 0.45414382219314575
0.18338923156261444 0.1485251784324646 -0.6446815133094788
0.36473652720451355 0.1485251784324646 0.4441576898097992
-0.5218740105628967 -0.14636145532131195 0.3899473547935486
-0.26945313811302185 -0.02976776473224163 -0.972454845905304
0.3529069125652313 0.1485251784324646 -0.39303848147392273
-0.4050792157649994 0.039043258875608444 -0.8060981631278992
-0.8532479405403137 -0.14636145532131195 0.8926300406455994
0.4287569224834442 -0.14636145532131195 -0.7377116680145264
-0.7572987675666809 0.1485251784324646 -0.2070968747138977
-0.9606948494911194 0.1485251784324646 0.10258356481790543
-0.5625697374343872 0.1485251784324646 0.1694287359714508
0.44864922761917114 -0.14636145532131195 -0.11914869397878647
-0.17955482006072998 0.12160167098045349 0.9934561252593994
0.435891330242157 0.1485251784324646 0.03614700958132744
-0.2358628660440445 -0.14636145532131195 -0.22431138157844543
-0.15531300008296967 0.04765351116657257 0.32574930787086487
0.3682142198085785 -0.14636145532131195 -0.8630119562149048
-0.13570183515548706 0.1485251784324646 -0.9478049874305725
-0.41285473108291626 0.1485251784324646 -0.12471368908882141
0.48170047998428345 0.1485251784324646 0.43221116065979004
0.17471112310886383 0.07318370044231415 -0.24605892598628998
-0.9456526637077332 -0.14636145532131195 0.7968004941940308
-0.6270925402641296 0.1485251784324646 -0.2759746313095093
-0.07960199564695358 0.1485251784324646 -0.6997209191322327
-0.0032890872098505497 0.1485251784324646 0.6639114618301392
0.5724717378616333 0.1485251784324646 0.20255380868911743
0.7212164402008057 -0.14636145532131195 0.48445576429367065
0.2019357830286026 0.1485251784324646 0.4193401038646698
-0.23307399451732635 -0.14636145532131195 0.48307284712791443
0.7660478949546814 -0.0982109010219574 -0.972454845905304
-0.28108009696006775 -0.14636145532131195 -0.16692738234996796
-0.8391131162643433 -0.1068955585360527 0.7141938209533691
-0.9999989867210388 -0.13232429325580597 -0.8505914211273193
0.45313453674316406 0.1485251784324646 0.7605210542678833
-0.5318507552146912 0.05224798992276192 0.9934561252593994
0.687517523765564 -0.14636145532131195 0.8837776780128479
0.9659119844436646 0.025346839800477028 0.2071852833032608
0.2756144106388092 0.1485251784324646 -0.7871189713478088
0.9659119844436646 -0.04725046455860138 -0.5230253338813782
0.014849903993308544 0.1485251784324646 -0.6803306341171265
0.6835231184959412 0.1485251784324646 -0.04351964592933655
0.8306919932365417 -0.14636145532131195 -0.08925200998783112
0.18794825673103333 0.1485251784324646 0.17752137780189514
-0.5790440440177917 0.1485251784324646 -0.6582690477371216
0.36076563596725464 -0.14636145532131195 0.9799102544784546
-0.18786859512329102 -0.14636145532131195 0.9763896465301514
0.6136170625686646 -0.14636145532131195 -0.16051241755485535
-0.10343819111585617 0.1485251784324646 0.12352719157934189
0.2174520194530487 0.06135202571749687 0.704251229763031
-0.7121254801750183 -0.14636145532131195 -0.5592620968818665
0.22182950377464294 0.1485251784324646 0.8548789620399475
-0.3539678454399109 -0.14636145532131195 -0.4422939121723175
0.14536431431770325 0.09880686551332474 -0.30388012528419495
-0.4088877737522125 -0.09054327011108398 0.37792322039604187
-0.5657762885093689 0.1485251784324646 0.599625289440155
0.6559082269668579 -0.14636145532131195 -0.15492546558380127
-0.15235772728919983 0.1485251784324646 -0.6706455945968628
0.906636118888855 0.1485251784324646 0.7146770358085632
0.037360724061727524 0.1485251784324646 0.3546832501888275
-0.29886594414711 0.1485251784324646 0.9610726237297058
0.9659119844436646 -0.0014548541512340307 -0.6784875988960266
-0.7944645881652832 -0.14636145532131195 -0.7742629647254944
-0.24059076607227325 0.113560751080513 0.9934561252593994
0.4735332727432251 0.1485251784324646 -0.5245578289031982
0.9659119844436646 -0.009010091423988342 -0.659909725189209
0.19322259724140167 -0.01844906434416771 0.7349560856819153
-0.894608199596405 0.1485251784324646 0.051930081099271774
-0.740354597568512 -0.12626206874847412 0.9934561252593994
-0.8139237761497498 -0.04733522981405258 -0.972454845905304
0.05580772086977959 -0.14636145532131195 -0.16564281284809113
0.17221035063266754 0.12625660002231598 -0.24632370471954346
-0.2642368972301483 -0.14636145532131195 0.8133432269096375
-0.7243630290031433 0.1485251784324646 0.5120351910591125
0.5444185733795166 0.1485251784324646 -0.7266129851341248
-0.46550253033638 0.12608538568019867 0.9934561252593994
-0.6387743949890137 0.1485251784324646 0.19690053164958954
0.5942984819412231 0.1485251784324646 0.1543784737586975
0.9659119844436646 0.12683217227458954 0.005554188042879105
0.6095958948135376 0.1485251784324646 -0.7334941029548645
-0.8209353089332581 0.1485251784324646 -0.49612924456596375
-0.8149336576461792 0.1485251784324646 0.6545392274856567
0.8954790234565735 0.03998752683401108 -0.38559168577194214
0.09655413776636124 -0.08061102777719498 -0.972454845905304
-0.8364381790161133 -0.11180394142866135 -0.2644914984703064
0.2978857159614563 -0.14636145532131195 -0.8942037224769592
-0.7963454723358154 0.05766512453556061 -0.972454845905304
-0.9999989867210388 0.08100563287734985 0.24982206523418427
0.01716679148375988 -0.14636145532131195 0.6480908989906311
-0.32896021008491516 0.1485251784324646 0.49675533175468445
-0.5387042760848999 0.1485251784324646 0.4741693437099457
-0.733123779296875 -0.14636145532131195 0.3617836534976959
0.11196194589138031 -0.14636145532131195 0.5284402370452881
0.0002696224837563932 0.055484190583229065 0.9934561252593994
0.062277715653181076 -0.14636145532131195 0.38680675625801086
-0.29196372628211975 0.1485251784324646 -0.5490718483924866
-0.855955183506012 -0.14636145532131195 -0.8519480228424072
0.468888521194458 0.1485251784324646 0.240547314286232
-0.43751150369644165 0.053337208926677704 0.9934561252593994
0.7789306044578552 0.1485251784324646 0.14398802816867828
0.8464512825012207 -0.14636145532131195 -0.7476531267166138
0.6598278880119324 0.1485251784324646 0.6667340993881226
0.12233704328536987 0.1485251784324646 0.9265182018280029
0.3689463138580322 -0.14636145532131195 0.5422033667564392
-0.04652322456240654 -0.14636145532131195 0.21639075875282288
0.379623144865036 0.1485251784324646 -0.40629321336746216
0.9659119844436646 -0.06540143489837646 -0.32529735565185547
-0.14320385456085205 0.10700773447751999 -0.972454845905304
0.3651830554008484 0.1485251784324646 0.42247435450553894
0.8494880795478821 -0.03327799588441849 -0.39990341663360596
-0.6274551153182983 -0.14636145532131195 -0.35573646426200867
0.28849050402641296 -0.14636145532131195 -0.09079321473836899
-0.16483943164348602 -0.14636145532131195 -0.0214812234044075
0.1780107170343399 -0.14636145532131195 -0.6435850858688354
-0.442386656999588 0.0733700543642044 0.35387054085731506
0.2344059944152832 0.1485251784324646 0.38566261529922485
-0.15693399310112 -0.014450213871896267 0.9934561252593994
0.7867095470428467 0.0643153190612793 0.9934561252593994
-0.42835450172424316 -0.03515303134918213 0.3652194142341614
-0.4829789698123932 0.1485251784324646 -0.1610599309206009
0.8073899149894714 0.00024600783945061266 -0.34330299496650696
-0.3648312985897064 -0.14636145532131195 0.5589367151260376
-0.8665141463279724 0.0938849151134491 0.9828963875770569
0.961201548576355 -0.14636145532131195 0.2797403633594513
0.20848113298416138 0.1485251784324646 0.3950548768043518
-0.900550901889801 -0.05505232512950897 -0.972454845905304
-0.7429986596107483 -0.14636145532131195 0.9690549969673157
-0.4121560752391815 -0.14636145532131195 0.6676041483879089
0.7959491014480591 0.1485251784324646 0.14713144302368164
-0.2706928253173828 -0.14636145532131195 -0.9408497214317322
0.9659119844436646 -0.11869953572750092 0.4655863642692566
0.36430108547210693 0.029962722212076187 0.9934561252593994
-0.9999989867210388 0.09694703668355942 -0.16988708078861237
-0.7663519978523254 0.1485251784324646 -0.8197851181030273
-0.9041088223457336 -0.14636145532131195 -0.9113367795944214
-0.10907257348299026 0.1485251784324646 -0.5782345533370972
-0.9999989867210388 -0.07526845484972 -0.8023666739463806
0.24963559210300446 0.1485251784324646 0.0004225620941724628
-0.2689065635204315 0.1485251784324646 0.40020233392715454
0.12420609593391418 -0.14636145532131195 -0.2690926790237427
0.368112176656723 0.1485251784324646 -0.35124877095222473
0.9659119844436646 -0.034660693258047104 0.07443387806415558
0.9659119844436646 -0.058410290628671646 0.7065137028694153
0.1962309628725052 0.1485251784324646 0.7895733118057251
0.8664155006408691 0.1485251784324646 0.7775439023971558
0.5859048962593079 -0.0343325212597847 -0.9713708162307739
-0.6604250073432922 0.1485251784324646 -0.8962178230285645
0.482475221157074 0.1485251784324646 0.23050768673419952
0.8110250234603882 -0.14636145532131195 0.5082029104232788
0.7210779786109924 0.1485251784324646 0.3069309592247009
-0.2572774291038513 -0.14636145532131195 -0.7137788534164429
0.6002771854400635 0.1485251784324646 0.5768173336982727
-0.45987385511398315 0.07224107533693314 0.3362134099006653
-0.40173402428627014 0.1485251784324646 -0.8814882636070251
-0.3645473122596741 0.1282036453485489 -0.972454845905304
-0.16800716519355774 0.1485251784324646 0.7548823952674866
-0.5236048698425293 -0.14636145532131195 0.47843530774116516
0.3771253228187561 -0.14636145532131195 -0.7424330711364746
-0.8994653820991516 -0.08400050550699234 -0.972454845905304
0.5154589414596558 0.1485251784324646 0.47664448618888855
-0.033141184598207474 -0.14636145532131195 0.15744619071483612
0.6955746412277222 0.1485251784324646 -0.877915620803833
-0.2879088819026947 0.059571392834186554 0.012380077503621578
-0.27642279863357544 0.1485251784324646 -0.6539852023124695
-0.5651946663856506 -0.14636145532131195 -0.38817453384399414
0.7315513491630554 -0.14636145532131195 0.4312708079814911
-0.17957624793052673 0.1485251784324646 0.5136285424232483
0.0029399835038930178 -0.14636145532131195 0.6230054497718811
-0.5698922872543335 0.1485251784324646 -0.8091893792152405
0.9045405983924866 0.1485251784324646 -0.7185589075088501
-0.6339256763458252 0.1485251784324646 0.8851444125175476
0.30078259110450745 0.1485251784324646 -0.854622483253479
0.908378005027771 0.015862565487623215 0.9934561252593994
-0.5692017674446106 -0.14636145532131195 -0.7365063428878784
-0.1983601301908493 0.1485251784324646 0.9003746509552002
-0.4949803650379181 -0.08040013164281845 0.1361037939786911
0.3849257230758667 0.1485251784324646 0.33242273330688477
0.724312424659729 0.07121188193559647 -0.972454845905304
-0.5999446511268616 -0.14636145532131195 0.2996350824832916
0.9267873167991638 0.1485251784324646 0.3225909173488617
-0.9999989867210388 0.04579679295420647 0.6699914336204529
-0.7085656523704529 -0.14636145532131195 0.23374617099761963
0.2888116240501404 -0.14636145532131195 0.9709994196891785
-0.39429745078086853 -0.14636145532131195 0.011460963636636734
-0.1791141927242279 0.1485251784324646 0.4082236886024475
0.7411537170410156 0.11715950816869736 -0.972454845905304
-0.10241083800792694 -0.14636145532131195 -0.6981239318847656
-0.38205820322036743 -0.14636145532131195 -0.23938438296318054
-0.9999989867210388 -0.13576389849185944 -0.014557134360074997
-0.23395879566669464 -0.14636145532131195 0.9886459708213806
0.9659119844436646 -0.07918862253427505 0.030849454924464226
-0.1871759295463562 -0.14636145532131195 0.65125572681427
0.12365787476301193 -0.14636145532131195 -0.47789067029953003
0.7787724733352661 -0.14636145532131195 0.4495294690132141
-0.937251091003418 0.1485251784324646 0.8857917785644531
0.25561264157295227 -0.14636145532131195 -0.04643435403704643
-0.5800795555114746 -0.14636145532131195 -0.9519115686416626
0.5253000855445862 0.1485251784324646 0.28069087862968445
0.7580445408821106 0.1485251784324646 0.8380733728408813
0.9659119844436646 -0.0003333846398163587 0.43538782000541687
-0.5535928606987 -0.14636145532131195 0.48714062571525574
-0.7660903334617615 0.1257838010787964 -0.27600720524787903
0.38636571168899536 0.1485251784324646 -0.34489452838897705
0.7443394660949707 0.1485251784324646 -0.05000794306397438
0.156805619597435 0.06971428543329239 -0.3155415654182434
0.5816943049430847 0.038500409573316574 -0.6475940346717834
-0.9281533360481262 0.1485251784324646 -0.24640589952468872
-0.7512608766555786 -0.14636145532131195 0.8244134783744812
0.8979524970054626 -0.14636145532131195 -0.6729545593261719
0.8985395431518555 0.1485251784324646 -0.49000680446624756
-0.03725089132785797 0.1485251784324646 0.6211707592010498
-0.9999989867210388 0.019127007573843002 -0.7724080681800842
0.043353594839572906 -0.14636145532131195 0.7713964581489563
-0.9338229298591614 -0.14636145532131195 -0.38402462005615234
0.7090408802032471 0.015156332403421402 -0.4177831709384918
0.9486199021339417 0.1485251784324646 -0.43198755383491516
0.6178723573684692 -0.14636145532131195 -0.6227709054946899
0.05299941822886467 0.1485251784324646 0.41818198561668396
-0.8032918572425842 0.1485251784324646 -0.059721559286117554
0.38444870710372925 0.09100902825593948 -0.972454845905304
0.19460460543632507 -0.14636145532131195 0.2595016658306122
-0.997747540473938 -0.14636145532131195 0.2160460352897644
0.6183292865753174 -0.14636145532131195 0.4958726763725281
-0.945553183555603 0.1485251784324646 0.060443032532930374
0.9066362380981445 -0.14636145532131195 -0.15033656358718872
0.10597793757915497 -0.14636145532131195 0.25806084275245667
0.08371831476688385 -0.14636145532131195 -0.6364224553108215
0.5017278790473938 0.1485251784324646 0.6402091979980469
0.580678403377533 0.05414199084043503 0.9934561252593994
-0.7956282496452332 0.1485251784324646 0.5359627604484558
0.76788330078125 0.1485251784324646 0.3152936100959778
0.5655607581138611 0.1485251784324646 0.8061264753341675
0.7817320823669434 0.1485251784324646 -0.015716049820184708
-0.25935274362564087 0.1485251784324646 -0.9229133129119873
0.9659119844436646 -0.08792085945606232 -0.7681621313095093
0.20395778119564056 -0.14636145532131195 0.8815512657165527
0.9659119844436646 0.0036420891992747784 0.18954797089099884
-0.9999989867210388 -0.0666671171784401 0.1892242580652237
-0.9661642909049988 0.1485251784324646 0.6951643824577332
0.29685908555984497 0.1485251784324646 -0.10271329432725906
0.45443588495254517 -0.14636145532131195 0.4238910675048828
0.4208211898803711 0.1485251784324646 0.4242931604385376
-0.26017507910728455 0.1485251784324646 0.5617737770080566
0.23710811138153076 -0.14636145532131195 0.8365774154663086
-0.2980627715587616 0.12157544493675232 -0.972454845905304
-0.8787926435470581 -0.14636145532131195 0.8139450550079346
-0.15688863396644592 0.1485251784324646 0.7154478430747986
-0.9999989867210388 -0.06916818022727966 0.2655050456523895
-0.12285798043012619 0.07894793897867203 0.15341024100780487
0.08316371589899063 0.1485251784324646 0.1728859394788742
-0.1363585889339447 0.1485251784324646 -0.26312026381492615
-0.8886420726776123 -0.14636145532131195 -0.1242266446352005
0.46262872219085693 0.1485251784324646 0.8215831518173218
-0.5716877579689026 0.1485251784324646 -0.04296327382326126
0.06665580719709396 -0.14636145532131195 0.028375079855322838
0.5304034352302551 0.1485251784324646 0.015163459815084934
0.919061005115509 -0.14636145532131195 -0.9095502495765686
-0.7849344611167908 0.1485251784324646 -0.7383440136909485
0.7344520092010498 -0.14636145532131195 0.8097614645957947
0.6441299915313721 -0.14636145532131195 -0.7530660033226013
-0.9999989867210388 0.09575650095939636 0.2633149325847626
-0.999222457408905 0.1485251784324646 0.06498226523399353
-0.09918440878391266 -0.14636145532131195 0.6613048315048218
-0.7506424784660339 -0.13363265991210938 -0.972454845905304
-0.42159906029701233 -0.03543649613857269 -0.8389863967895508
-0.8248246312141418 -0.14636145532131195 0.6204890608787537
0.23813216388225555 -0.14636145532131195 0.2547149062156677
0.7209069728851318 -0.03535350412130356 -0.37098246812820435
-0.084790900349617 0.1485251784324646 0.5047565698623657
-0.514681339263916 0.07749087363481522 0.9934561252593994
-0.527839720249176 0.1485251784324646 -0.6305140256881714
0.9659119844436646 0.030882004648447037 0.8077325224876404
0.08513149619102478 0.1485251784324646 -0.47200503945350647
-0.17310868203639984 -0.14636145532131195 0.7338569760322571
-0.3740520775318146 0.021680964156985283 0.020589333027601242
0.9288948178291321 -0.14636145532131195 0.30180594325065613
0.9659119844436646 -0.07543788850307465 -0.1590692400932312
-0.2606702744960785 0.018352454528212547 0.9934561252593994
-0.6864514350891113 0.1485251784324646 -0.6060030460357666
-0.9199321866035461 -0.11070263385772705 -0.972454845905304
0.40124383568763733 0.1485251784324646 -0.2487867921590805
0.5566126704216003 0.1485251784324646 -0.25094354152679443
0.12904594838619232 0.1485251784324646 0.4922857880592346
0.8189002871513367 -0.14636145532131195 0.38823404908180237
-0.7817260026931763 0.12085074186325073 -0.972454845905304
-0.8059833645820618 -0.14636145532131195 -0.737878680229187
0.767295777797699 0.1485251784324646 0.40921932458877563
-0.7363549470901489 0.1485251784324646 0.2411247044801712
0.6735324263572693 -0.14636145532131195 -0.3598756492137909
0.9531086683273315 0.1485251784324646 0.3025970458984375
-0.6201474070549011 0.1485251784324646 -0.7842451333999634
-0.234981968998909 0.1485251784324646 -0.2011592835187912
0.897313117980957 -0.14636145532131195 -0.48819291591644287
-0.13131016492843628 -0.14636145532131195 -0.7589566111564636
-0.9554190039634705 0.1485251784324646 -0.28362950682640076
-0.36262866854667664 -0.09045256674289703 -0.972454845905304
0.9008272886276245 -0.14636145532131195 -0.4665587544441223
-0.7185524106025696 0.1485251784324646 0.5933730602264404
0.2199719101190567 -0.14636145532131195 -0.10591699928045273
0.14353954792022705 -0.00804386381059885 -0.29865598678588867
0.3026474118232727 0.1485251784324646 -0.22218310832977295
0.31424885988235474 -0.14636145532131195 -0.9370862245559692
-0.6367248892784119 -0.14636145532131195 0.24262332916259766
0.6639186143875122 0.1485251784324646 0.5154367089271545
-0.06881432235240936 0.1485251784324646 -0.650332510471344
-0.9999989867210388 -0.021500712260603905 -0.7021511793136597
-0.6784756183624268 0.00042009761091321707 0.9934561252593994
0.03329772874712944 0.1485251784324646 0.6092102527618408
0.6854844093322754 0.1485251784324646 0.22926686704158783
0.7043441534042358 0.1485251784324646 0.5404578447341919
-0.05895709618926048 -0.14636145532131195 0.12819167971611023
-0.5023345351219177 0.1485251784324646 0.10500095039606094
0.4657718539237976 0.1485251784324646 0.43684688210487366
0.4166032373905182 -0.14636145532131195 0.007419460453093052
-0.38782745599746704 0.1485251784324646 -0.36201536655426025
-0.49612438678741455 -0.08065294474363327 0.13923780620098114
-0.5619956851005554 -0.14636145532131195 -0.6930060982704163
-0.5066990852355957 -0.1052572950720787 0.23375093936920166
-0.683489203453064 0.04020623490214348 -0.972454845905304
-0.9999989867210388 0.023282384499907494 -0.5853136777877808
0.9659119844436646 0.10219050943851471 0.6786244511604309
0.7836305499076843 -0.023358575999736786 0.570954442024231
-0.9535701870918274 -0.14636145532131195 -0.27390798926353455
-0.5914764404296875 0.1485251784324646 0.4207252860069275
-0.011329163797199726 -0.14636145532131195 -0.203642338514328
-0.14198416471481323 -0.0821220874786377 0.3056659400463104
-0.37576428055763245 -0.14636145532131195 -0.7973495125770569
-0.9999989867210388 -0.12384315580129623 -0.706774890422821
0.5198392271995544 -0.14636145532131195 -0.5188804864883423
-0.9999989867210388 0.05105287954211235 -0.6091897487640381
-0.35501763224601746 -0.14636145532131195 -0.8571645021438599
0.06274421513080597 -0.0011824042303487659 -0.972454845905304
0.1666540950536728 -0.14636145532131195 0.26484641432762146
0.2850789427757263 0.1485251784324646 -0.4567403793334961
0.13020853698253632 0.1485251784324646 -0.4477942883968353
-0.038617901504039764 0.1485251784324646 -0.8204856514930725
-0.11328673362731934 -0.06800037622451782 0.9934561252593994
0.14363792538642883 -0.14636145532131195 -0.5045202374458313
0.5758699178695679 -0.14636145532131195 0.8209465742111206
-0.9999989867210388 -0.05110878869891167 0.612217366695404
-0.314402312040329 0.09375427663326263 -0.972454845905304
0.1653735339641571 0.1485251784324646 0.5605456829071045
0.9069411754608154 -0.14636145532131195 -0.5529921650886536
0.7971298694610596 0.1485251784324646 0.6812580823898315
0.9659119844436646 0.11344034969806671 -0.7899630665779114
-0.23877693712711334 -0.01540058571845293 0.024730393663048744
0.1904839724302292 -0.1415235698223114 -0.32147422432899475
0.2342045158147812 0.1485251784324646 -0.07753435522317886
-0.8025964498519897 -0.14636145532131195 -0.6663424968719482
0.8645421862602234 0.1485251784324646 0.8478809595108032
-0.5188846588134766 0.1485251784324646 -0.8557097315788269
0.5339155793190002 0.1485251784324646 -0.9026060104370117
0.11382368206977844 -0.14636145532131195 0.17357440292835236
0.7612889409065247 -0.14636145532131195 0.05224351957440376
-0.9795402884483337 0.1485251784324646 0.15064474940299988
0.42368948459625244 -0.14636145532131195 0.1308172196149826
-0.832764208316803 -0.14636145532131195 -0.4225364625453949
-0.46750330924987793 0.10589862614870071 0.08729113638401031
0.22457817196846008 0.1485251784324646 0.2888444662094116
-0.644347071647644 -0.14636145532131195 0.41836127638816833
-0.9586890935897827 0.010709228925406933 -0.972454845905304
-0.4944637417793274 0.1485251784324646 0.6895357370376587
0.09385070949792862 0.13487498462200165 0.9934561252593994
0.4477866291999817 0.1485251784324646 -0.6170002818107605
0.5914657711982727 0.1485251784324646 0.40593260526657104
-0.5015267729759216 -0.14636145532131195 0.4723387360572815
-0.362627238035202 -0.14636145532131195 0.5477717518806458
0.3860498070716858 0.1485251784324646 0.12904542684555054
0.021074369549751282 0.1485251784324646 -0.8849658370018005
-0.6490821838378906 -0.14636145532131195 0.39502713084220886
-0.9535556435585022 -0.11060027778148651 -0.972454845905304
-0.49047017097473145 -0.14636145532131195 0.6252961158752441
-0.18136411905288696 -0.14636145532131195 -0.7701347470283508
0.14783048629760742 -0.05638838931918144 -0.972454845905304
-0.5135321021080017 0.1485251784324646 0.3770674169063568
-0.6773286461830139 -0.14636145532131195 0.2075105905532837
-0.23670917749404907 -0.14636145532131195 -0.7010974884033203
-0.9731619358062744 -0.10850386321544647 -0.972454845905304
0.6908551454544067 0.01141776517033577 -0.34599438309669495
-0.6616456508636475 0.1485251784324646 0.4465179443359375
0.8178227543830872 0.031377553939819336 -0.4061950743198395
-0.9618840217590332 0.1485251784324646 -0.7001566886901855
-0.5840976238250732 0.1485251784324646 -0.9611654281616211
0.7035998106002808 -0.14636145532131195 -0.6449166536331177
-0.05057990178465843 -0.14636145532131195 0.6547306776046753
0.9659119844436646 0.14309169352054596 0.5205389857292175
-0.8049049377441406 -0.14636145532131195 -0.6270768642425537
0.22742721438407898 0.1485251784324646 0.7227047085762024
0.5115299820899963 0.1485251784324646 -0.15601445734500885
-0.9924585223197937 0.039262592792510986 -0.972454845905304
0.7139054536819458 0.1485251784324646 0.9110465049743652
-0.09572519361972809 0.1485251784324646 -0.38178449869155884
-0.8513576984405518 0.1485251784324646 0.24222250282764435
0.5783517956733704 0.02182350680232048 -0.41424819827079773
0.8742479085922241 0.1485251784324646 -0.14564551413059235
0.4471907913684845 -0.14636145532131195 0.5929687023162842
-0.008551272563636303 -0.14636145532131195 -0.9528478980064392
-0.9733229279518127 0.1485251784324646 0.7340167164802551
-0.9999989867210388 0.0845845490694046 0.012563723139464855
-0.7714391946792603 0.1485251784324646 -0.44432923197746277
0.9659119844436646 -0.11893625557422638 -0.04540121555328369
-0.11797253787517548 0.1485251784324646 0.5170034170150757
-0.1899317353963852 -0.08396010845899582 0.05307943373918533
0.7335784435272217 0.1485251784324646 -0.6704373955726624
-0.8639377951622009 -0.14636145532131195 0.14966392517089844
0.17171870172023773 0.1485251784324646 0.24137088656425476
-0.11893091350793839 0.1485251784324646 -0.9118459224700928
-0.8717846870422363 0.14399227499961853 0.9809027910232544
0.013855619356036186 -0.14636145532131195 -0.11220558732748032
0.8098957538604736 0.1485251784324646 0.05854533985257149
0.45635005831718445 0.1485251784324646 0.11857148259878159
-0.1967441737651825 0.1485251784324646 -0.3799704909324646
0.07328818738460541 0.1485251784324646 0.25221437215805054
0.8564088940620422 -0.14636145532131195 -0.24270547926425934
-0.05424626171588898 -0.14636145532131195 0.6419658064842224
-0.3444386422634125 -0.14636145532131195 0.520006000995636
-0.31531912088394165 -0.14636145532131195 -0.9420865774154663
-0.8031280636787415 0.012336227111518383 -0.32303348183631897
-0.6725339889526367 -0.14636145532131195 -0.29673153162002563
-0.5494458675384521 0.1485251784324646 -0.17805051803588867
0.5282529592514038 0.1485251784324646 0.4473992586135864
0.11593388766050339 -0.14636145532131195 0.451183944940567
0.13704711198806763 0.1485251784324646 0.08897542208433151
0.5650593042373657 0.1485251784324646 -0.45703646540641785
0.26823151111602783 0.1485251784324646 0.37896597385406494
