-0.09827777743339539 -0.29445669054985046 -0.19251394271850586
0.46812623739242554 0.09339872002601624 -0.29374024271965027
0.25201815366744995 0.1512066125869751 0.5604190230369568
0.028578130528330803 -0.29288867115974426 -0.5526427030563354
-0.675662100315094 -0.2158890962600708 -0.02347308024764061
-0.8003119230270386 -0.1730317622423172 0.13287998735904694
-0.14240708947181702 -0.09678915143013 0.5458455681800842
0.633789598941803 0.2748267948627472 -0.04496553912758827
-0.29444894194602966 -0.0345563068985939 -0.5817391872406006
-0.27162638306617737 0.295522540807724 0.2745722532272339
0.5430235862731934 -0.2664864957332611 0.05754762515425682
0.7896353006362915 -0.0842822939157486 -0.19938631355762482
-0.19781076908111572 0.09509046375751495 -0.9309513568878174
0.18137070536613464 -0.29445669054985046 -0.1759497970342636
0.8708937168121338 -0.05136189982295036 -0.21029995381832123
-0.2965622544288635 -0.13771136105060577 0.44121187925338745
-0.546168863773346 -0.178638756275177 -0.19519419968128204
-0.02139367163181305 -0.18587370216846466 -0.9971770644187927
0.3248775005340576 -0.26498037576675415 -0.29374024271965027
0.26904499530792236 0.295522540807724 0.28353947401046753
0.1777423471212387 -0.12314614653587341 0.9770250916481018
-0.8462420105934143 -0.12449006736278534 0.17962151765823364
-0.14863725006580353 -0.160159170627594 0.6741327047348022
0.29341697692871094 -0.19298647344112396 -0.3807884752750397
0.06253192573785782 -0.28738531470298767 -0.5483421683311462
0.0738317221403122 -0.29445669054985046 0.22372698783874512
0.29341697692871094 -0.021559372544288635 0.43392449617385864
0.04616473987698555 0.08152274787425995 0.5458455681800842
0.636200487613678 0.1608370691537857 -0.14623969793319702
-0.8149760961532593 -0.0610508918762207 -0.2076822817325592
0.9552910923957825 -0.05832403525710106 0.21097463369369507
0.633789598941803 -0.27527138590812683 -0.009242984466254711
0.03846239298582077 0.21464544534683228 0.7758398056030273
-0.19678281247615814 -0.22059741616249084 -0.6182209253311157
-0.6571673154830933 0.006491525564342737 -0.21649719774723053
-0.23301135003566742 0.0030192164704203606 -0.6341128349304199
0.07846327871084213 -0.06225038692355156 -0.5433468222618103
-0.9999990463256836 0.0652991384267807 0.06087164208292961
-0.546168863773346 -0.2281116247177124 -0.1800224632024765
-0.11645808815956116 -0.18985530734062195 -0.6341128349304199
-0.2965622544288635 0.0174289271235466 0.328509122133255
-0.546168863773346 0.27562689781188965 0.039918962866067886
-0.09224534779787064 0.10126595944166183 0.5458455681800842
-0.2055525779724121 -0.10060349106788635 -0.6341128349304199
-0.6473970413208008 -0.21477732062339783 -0.03175955265760422
-0.13224121928215027 0.24022147059440613 -0.6341128349304199
0.0956730917096138 -0.22154191136360168 -0.6341128349304199
0.7995792031288147 -0.09278827905654907 0.1980741173028946
0.9864947199821472 0.2148696333169937 0.040074434131383896
0.5430235862731934 -0.16831530630588531 -0.1613689661026001
-0.546168863773346 0.0003070346137974411 -0.04030805453658104
-0.546168863773346 0.1877231001853943 0.12165562063455582
-0.21899451315402985 0.013621743768453598 0.7759856581687927
0.09027890861034393 -0.02604895457625389 -0.5433468222618103
0.5430235862731934 0.2623409330844879 -0.05989135801792145
0.6751417517662048 0.18095733225345612 -0.12081708014011383
-0.9785746932029724 0.21364811062812805 0.046325668692588806
-0.16114407777786255 -0.22595489025115967 -0.5433468222618103
-0.022042611613869667 -0.29445669054985046 -0.056877750903367996
-0.546168863773346 -0.1474544256925583 -0.16648396849632263
0.05256590619683266 -0.24236425757408142 -0.5433468222618103
-0.050915226340293884 0.15452033281326294 -0.5433468222618103
-0.9535666108131409 -0.1944189816713333 -0.09592591971158981
0.9831177592277527 0.013707899488508701 0.21867969632148743
-0.08615412563085556 -0.06520768254995346 0.5458455681800842
0.29341697692871094 -0.09502857178449631 -0.40761178731918335
0.5430235862731934 0.16328400373458862 0.06325225532054901
-0.062422461807727814 0.20969745516777039 0.804506778717041
0.7728383541107178 -0.16608984768390656 -0.13902902603149414
0.035135261714458466 0.21524827182292938 0.9471400380134583
-0.24054157733917236 -0.030680086463689804 0.5458455681800842
0.5143613815307617 0.20472660660743713 0.2962389886379242
0.5430235862731934 -0.05520600825548172 -0.22594934701919556
-0.7126908302307129 0.1556011289358139 -0.15169216692447662
0.994388997554779 -0.19139982759952545 -0.10176259279251099
-0.366559237241745 0.295522540807724 0.18778768181800842
0.3735010325908661 -0.29445669054985046 -0.053771525621414185
0.29341697692871094 0.095828115940094 -0.3378869295120239
-0.3987862169742584 0.295522540807724 -0.11002717912197113
-0.2261069267988205 -0.02247745171189308 -0.6341128349304199
-0.9999990463256836 0.015087931416928768 0.05565982311964035
-0.1233520656824112 -0.26813599467277527 0.5514565706253052
0.014325820840895176 0.295522540807724 0.05797325074672699
-0.2965622544288635 0.189418226480484 -0.4954749643802643
0.29341697692871094 0.16410382091999054 0.3760574460029602
0.5372343063354492 -0.014805994927883148 0.2962389886379242
0.17120613157749176 0.295522540807724 -0.1625053733587265
-0.8376408219337463 -0.16303952038288116 -0.1425609141588211
0.5430235862731934 0.13743320107460022 0.19567497074604034
0.15377391874790192 0.10334303975105286 -0.5433468222618103
-0.16670145094394684 -0.07644567638635635 -0.5433468222618103
-0.9999990463256836 0.042762015014886856 -0.08514046669006348
0.633789598941803 -0.135172039270401 0.17470765113830566
0.045056167989969254 -0.13780726492404938 0.5458455681800842
0.24765130877494812 -0.29445669054985046 0.30301645398139954
0.15277136862277985 -0.01587408408522606 0.5458455681800842
0.07894157618284225 0.20290027558803558 -0.9199466705322266
-0.546168863773346 -0.07472823560237885 0.25671204924583435
0.29341697692871094 0.15451888740062714 -0.5031028389930725
0.4444323480129242 0.1007230132818222 -0.29374024271965027
0.11062464118003845 -0.18616826832294464 0.7742041945457458
0.8268605470657349 0.04486236348748207 -0.2120240181684494
0.5326170325279236 0.295522540807724 0.0452975332736969
0.110435850918293 0.21304067969322205 -0.6341128349304199
-0.8667498826980591 0.17139405012130737 0.13637162744998932
-0.2965622544288635 0.16121770441532135 -0.4325898289680481
0.3733538091182709 0.295522540807724 0.07368002831935883
-0.13806428015232086 -0.25707054138183594 -0.6341128349304199
-0.1953943818807602 -0.0988495796918869 0.8747274279594421
-0.22659184038639069 0.295522540807724 0.33336588740348816
0.5430235862731934 0.016168877482414246 -0.04652567580342293
-0.9999990463256836 0.12871341407299042 0.17428039014339447
-0.546168863773346 -0.09433147311210632 -0.2674217224121094
0.15323133766651154 -0.15271206200122833 0.7260461449623108
-0.9722447395324707 0.2180778831243515 0.012403293512761593
0.29341697692871094 0.23273977637290955 0.5286887288093567
0.5430235862731934 0.12507972121238708 0.1820627748966217
-0.15586413443088531 0.12864357233047485 -0.5433468222618103
-0.14951273798942566 -0.24880880117416382 0.6366116404533386
-0.24522462487220764 -0.021607184782624245 -0.6341128349304199
0.0919698104262352 0.049487367272377014 0.9996757507324219
-0.21632114052772522 -0.03599337115883827 0.9546205997467041
-0.2827085554599762 0.18391728401184082 -0.5433468222618103
-0.2567352056503296 0.044934120029211044 -0.5433468222618103
-0.18263843655586243 0.295522540807724 0.20539818704128265
0.5430235862731934 -0.2799282670021057 -0.14371968805789948
-0.7090297341346741 0.20334121584892273 0.08073704689741135
0.2973438501358032 -0.29445669054985046 -0.25867754220962524
-0.546168863773346 0.08503434807062149 0.030540063977241516
-0.9999990463256836 -0.2152760624885559 -0.0007897139876149595
-0.6010010838508606 0.2548289895057678 -0.14823713898658752
-0.05693349614739418 -0.29445669054985046 0.18411433696746826
-0.3306209444999695 -0.29445669054985046 0.18209879100322723
0.8002305030822754 -0.14597873389720917 0.16243664920330048
0.35461392998695374 0.295522540807724 0.28548765182495117
-0.546168863773346 0.08946097642183304 -0.17692333459854126
-0.015166486613452435 0.07274334877729416 -0.5433468222618103
-0.06888489425182343 0.07266329973936081 -0.5433468222618103
0.18330150842666626 -0.1146681010723114 -0.9631797075271606
-0.5537000894546509 0.28627273440361023 -0.07195741683244705
0.1838783621788025 0.14814582467079163 0.5458455681800842
-0.588485062122345 0.1827520877122879 -0.23072075843811035
0.2665855884552002 0.2743954062461853 0.5458455681800842
0.2838636338710785 -0.2232363373041153 -0.5433468222618103
-0.546168863773346 0.08750922232866287 0.2518438398838043
0.5430235862731934 -0.021128784865140915 0.2955019176006317
-0.23176677525043488 0.08486434817314148 -0.5433468222618103
-0.8564357757568359 0.12683884799480438 0.17870761454105377
-0.1620073765516281 -0.29445669054985046 -0.5401334762573242
0.16440702974796295 -0.29445669054985046 -0.037609077990055084
-0.546168863773346 0.13320818543434143 0.24004049599170685
0.6271730661392212 0.2772316038608551 -0.10093427449464798
0.5814272165298462 0.10928495973348618 -0.27294695377349854
-0.6369348764419556 0.24986086785793304 0.10511599481105804
-0.8520119786262512 0.05883248522877693 -0.20862513780593872
0.6710658073425293 -0.18869458138942719 -0.10664556175470352
-0.4976447820663452 -0.29445669054985046 0.18908141553401947
0.29341697692871094 0.21252590417861938 0.4546108841896057
0.03388257697224617 -0.030741669237613678 0.5458455681800842
-0.28679850697517395 0.07569287717342377 -0.5502359867095947
-0.20156851410865784 0.21068231761455536 -0.5433468222618103
-0.2622847259044647 0.13848668336868286 -0.6238355040550232
0.020837800577282906 0.24699486792087555 0.6366116404533386
-0.08943197131156921 -0.046962663531303406 -0.5433468222618103
0.7690314650535583 0.14395807683467865 0.16515600681304932
-0.546168863773346 0.09729839116334915 -0.2015255242586136
0.29341697692871094 0.07791174948215485 0.47911497950553894
0.21724936366081238 -0.06660294532775879 0.5458455681800842
-0.24589332938194275 -0.2531421482563019 0.5458455681800842
-0.3640051782131195 0.295522540807724 -0.1159287691116333
-0.10044582188129425 -0.16626523435115814 0.5458455681800842
-0.624087929725647 -0.1697591245174408 0.2420918494462967
0.01644767075777054 -0.21653148531913757 -0.8637487292289734
-0.1154542863368988 -0.29445669054985046 0.030845534056425095
0.2394847273826599 -0.29445669054985046 0.12875054776668549
-0.2965622544288635 0.13801492750644684 0.5176404118537903
-0.2965622544288635 0.07854080200195312 -0.3735414743423462
-0.546168863773346 -0.2841903567314148 0.047429174184799194
0.14609047770500183 0.295522540807724 -0.3080516755580902
0.6506093740463257 -0.19429969787597656 -0.09609083831310272
0.14693012833595276 -0.21147039532661438 0.6366116404533386
-0.546168863773346 -0.02610660158097744 0.20395764708518982
0.428546667098999 0.295522540807724 0.11807913333177567
-0.02962234988808632 0.2306825816631317 -0.6341128349304199
0.5770339369773865 0.22554980218410492 -0.18947012722492218
0.05321906507015228 0.295522540807724 -0.2573738098144531
-0.2419765293598175 -0.17036929726600647 -0.5964437127113342
-0.3375880718231201 -0.29445669054985046 -0.28388580679893494
0.2158258855342865 0.013458521105349064 -0.7563446164131165
0.04595720022916794 -0.17369937896728516 0.9996757507324219
-0.001693498226813972 0.295522540807724 0.00672889593988657
0.5430235862731934 0.10502047091722488 0.12230942398309708
0.5738539695739746 0.004804117605090141 -0.2936922013759613
0.9435229301452637 0.21430470049381256 -0.04059143736958504
0.018804047256708145 -0.06609583646059036 -0.5433468222618103
-0.4663369357585907 0.295522540807724 -0.152996227145195
0.2775798439979553 -0.29445669054985046 -0.29339858889579773
-0.3844603896141052 -0.29445669054985046 -0.28928428888320923
0.09235959500074387 -0.26138877868652344 -0.5433468222618103
-0.2965622544288635 -0.12659938633441925 -0.35158708691596985
-0.3619241714477539 -0.1256026327610016 -0.29374024271965027
0.007961721159517765 0.295522540807724 0.03143268823623657
-0.8679186105728149 0.09103266894817352 0.19938446581363678
-0.6369348764419556 0.2136242389678955 -0.17619794607162476
0.6554327011108398 -0.21587811410427094 -0.02356118895113468
-0.546168863773346 0.09381639957427979 0.12722456455230713
-0.5594192743301392 -0.05534328520298004 0.2908739447593689
-0.8860666155815125 -0.2172953188419342 0.0020136141683906317
-0.546168863773346 -0.02821115404367447 -0.27660518884658813
0.07321684062480927 0.20511896908283234 0.6618538498878479
0.1019393801689148 -0.29445669054985046 0.5099670886993408
-0.17556317150592804 0.13159681856632233 -0.9782685041427612
-0.546168863773346 -0.08839206397533417 0.0565854050219059
-0.6369348764419556 -0.21617406606674194 -0.1511010080575943
-0.6369348764419556 0.11394406855106354 0.2610422372817993
0.5882620215415955 0.23179686069488525 -0.1818302571773529
0.02767106518149376 -0.29445669054985046 0.22854068875312805
0.5430235862731934 -0.20917513966560364 -0.23386089503765106
0.2627622187137604 -0.10032825171947479 0.6366116404533386
0.5430235862731934 -0.2789953351020813 -0.018900880590081215
-0.546168863773346 0.1518414318561554 0.026902731508016586
-0.4544479548931122 0.01191714871674776 0.2962389886379242
0.21613289415836334 0.00798624474555254 0.7370976805686951
-0.21935491263866425 0.004954290576279163 0.9104431867599487
-0.5432860851287842 -0.027282847091555595 0.2962389886379242
0.21937339007854462 0.06327216327190399 -0.5433468222618103
-0.9020055532455444 -0.03326869010925293 -0.21391116082668304
-0.2965622544288635 0.2498217672109604 0.3312416970729828
0.5430235862731934 0.11306984722614288 -0.2561708688735962
-0.2578526437282562 0.1465849131345749 -0.628940999507904
0.11597301065921783 0.1839234083890915 -0.7056849598884583
-0.24959315359592438 0.1602223813533783 0.5670938491821289
-0.06953779608011246 0.295522540807724 0.3452167510986328
0.7725876569747925 0.20663340389728546 0.07174140214920044
0.10490977019071579 0.295522540807724 0.2905411422252655
0.23612621426582336 0.295522540807724 0.3736095428466797
-0.032340437173843384 0.2161676287651062 -0.8398051857948303
-0.18999725580215454 -0.29445669054985046 -0.17434842884540558
-0.44461750984191895 -0.29445669054985046 0.07738453149795532
0.012395982630550861 -0.29445669054985046 0.4243229329586029
0.46764087677001953 0.295522540807724 -0.11323636770248413
0.2790396213531494 0.16772016882896423 -0.5433468222618103
-0.9999990463256836 0.03756653890013695 -0.01783580519258976
-0.546168863773346 0.1630450338125229 -0.25935885310173035
-0.17221207916736603 0.295522540807724 0.08211059868335724
-0.3340406119823456 -0.29445669054985046 0.23896698653697968
-0.0813346654176712 0.1272987723350525 0.9996757507324219
0.5430235862731934 -0.12251300364732742 0.2018839418888092
-0.1276751160621643 -0.29445669054985046 0.5111151933670044
0.5430235862731934 -0.14740857481956482 -0.07292554527521133
-0.03876899182796478 0.008852691389620304 0.5458455681800842
-0.07169891148805618 0.22434572875499725 0.5458455681800842
0.06437885016202927 0.295522540807724 0.26381754875183105
0.05894764885306358 -0.02405362017452717 -0.5433468222618103
-0.6715507507324219 0.07814068347215652 -0.2022893726825714
0.996853768825531 -0.14491842687129974 0.13490326702594757
0.29341697692871094 0.23120515048503876 0.49155357480049133
-0.02611992321908474 -0.21590781211853027 -0.8552864789962769
0.8764946460723877 -0.07628689706325531 -0.2025434672832489
-0.3639044761657715 0.295522540807724 -0.29028794169425964
-0.2769705057144165 0.1062263622879982 0.5943717956542969
0.01615907996892929 -0.29445669054985046 -0.1626327484846115
0.2745005786418915 -0.10332940518856049 0.6248726844787598
0.2837866246700287 0.295522540807724 0.266845166683197
-0.546168863773346 0.1718967705965042 0.03414972871541977
0.11581126600503922 0.17552663385868073 0.5458455681800842
0.5561497211456299 -0.039777182042598724 -0.290961354970932
-0.00738901924341917 0.21826934814453125 -0.6956035494804382
0.19282418489456177 0.09880895167589188 0.6559159755706787
-0.6369348764419556 -0.26683157682418823 -0.046874720603227615
-0.11282085627317429 0.06612645834684372 -0.5433468222618103
0.6245412826538086 0.14592638611793518 0.25787708163261414
0.12883968651294708 -0.29445669054985046 -0.26895228028297424
-0.09909819066524506 -0.19423642754554749 -0.716839611530304
0.5430235862731934 0.05392861366271973 0.09166902303695679
0.7523977756500244 -0.10423721373081207 -0.18971319496631622
-0.5467852354049683 -0.14824117720127106 0.255933940410614
0.007084642071276903 -0.28486570715904236 0.6366116404533386
0.009405378252267838 0.16236010193824768 -0.9971770644187927
-0.546168863773346 0.12199059873819351 0.09982334077358246
-0.2483288049697876 -0.0979437455534935 0.5458455681800842
-0.5239599347114563 -0.07103130221366882 0.2962389886379242
0.8961670994758606 -0.21075230836868286 -0.05173906311392784
-0.12664102017879486 0.1904596984386444 -0.6341128349304199
-0.02086147479712963 0.16786473989486694 0.5458455681800842
0.3159622251987457 0.07965324074029922 0.2962389886379242
-0.38533708453178406 -0.09095102548599243 0.2962389886379242
0.5246391892433167 0.295522540807724 0.1469738930463791
0.28926968574523926 -0.04874878749251366 0.6094350814819336
0.1671532839536667 -0.29445669054985046 0.1644061952829361
0.633789598941803 0.29038771986961365 -0.001640444970689714
-0.2113960236310959 -0.053815316408872604 -0.5433468222618103
-0.6369348764419556 0.16783446073532104 0.18664459884166718
-0.5107421875 -0.29445669054985046 0.10275526344776154
0.10372483730316162 -0.08099088817834854 0.9996757507324219
0.17030560970306396 -0.29445669054985046 0.4813380241394043
0.13391530513763428 -0.29445669054985046 -0.090256467461586
-0.2744918167591095 -0.05367323011159897 0.6366116404533386
-0.7552773356437683 0.07191698253154755 -0.20454692840576172
-0.27266210317611694 0.06770016252994537 0.6366116404533386
-0.2965622544288635 0.24392540752887726 0.4011930227279663
0.11373201757669449 -0.29445669054985046 0.3210545480251312
-0.05654095485806465 0.15074403584003448 -0.5433468222618103
-0.06676086783409119 -0.29445669054985046 -0.43440237641334534
-0.43583518266677856 0.295522540807724 0.01155993901193142
0.5430235862731934 -0.23117142915725708 -0.07068637758493423
0.29341697692871094 0.21506920456886292 -0.405659019947052
0.14065474271774292 0.15452873706817627 -0.5433468222618103
0.13947395980358124 0.18248523771762848 -0.5433468222618103
-0.2965622544288635 0.09012776613235474 0.4416511356830597
-0.726384162902832 0.15171179175376892 0.15805405378341675
0.4483070969581604 0.295522540807724 0.002025855705142021
-0.9999990463256836 -0.023663358762860298 -0.07911529392004013
-0.6369348764419556 -0.08314862102270126 -0.21532846987247467
-0.546168863773346 0.2387324422597885 0.077218197286129
-0.42699792981147766 0.295522540807724 0.1384449005126953
0.06259827315807343 -0.06686736643314362 -0.9971770644187927
0.09261155128479004 0.295522540807724 -0.45870158076286316
-0.14798066020011902 0.295522540807724 0.5052378177642822
-0.2965622544288635 0.2151941955089569 0.5316840410232544
-0.04144788533449173 0.04950067773461342 0.5458455681800842
-0.546168863773346 -0.011437359265983105 0.015524283982813358
-0.546168863773346 0.19955751299858093 -0.14211541414260864
0.5430235862731934 -0.28591132164001465 -0.006206551566720009
-0.19786624610424042 -0.29445669054985046 0.24015553295612335
-0.026257682591676712 0.26515498757362366 -0.6341128349304199
-0.32275959849357605 -0.29445669054985046 -0.09611380845308304
0.4176945686340332 0.295522540807724 0.18575537204742432
0.17898781597614288 0.12031064182519913 0.5458455681800842
0.36013031005859375 0.295522540807724 -0.22833141684532166
-0.8834767937660217 -0.11963777989149094 0.182917520403862
-0.1899779736995697 0.295522540807724 -0.31149038672447205
0.38706016540527344 -0.29445669054985046 -0.08732225745916367
-0.17756325006484985 -0.29445669054985046 0.34774327278137207
-0.05677865818142891 -0.29445669054985046 0.06372581422328949
-0.2965622544288635 0.1943119764328003 0.4820935130119324
0.08905895799398422 0.26008158922195435 -0.6341128349304199
0.16393305361270905 0.18904787302017212 0.6366116404533386
0.996853768825531 0.005566255189478397 0.10509523004293442
-0.21634043753147125 -0.03583705425262451 -0.6835266947746277
0.6044138073921204 -0.2541166841983795 0.15012051165103912
-0.7819055914878845 0.14201027154922485 -0.16436032950878143
-0.2965622544288635 0.01148208323866129 -0.5252636075019836
0.29341697692871094 -0.019355610013008118 -0.35955625772476196
-0.1428384780883789 -0.19303971529006958 0.5458455681800842
0.8347320556640625 -0.1970423310995102 -0.09038514643907547
-0.03285449370741844 0.295522540807724 0.00915492232888937
0.23077824711799622 -0.18116240203380585 0.6181939244270325
-0.9999990463256836 -0.1027885377407074 -0.07914914190769196
0.1198439747095108 0.10529378801584244 0.9996757507324219
-0.546168863773346 0.16034728288650513 0.004968859255313873
-0.8385236263275146 0.12392190098762512 -0.17823965847492218
0.5430235862731934 0.0845334455370903 0.11474104970693588
0.39172300696372986 -0.29445669054985046 -0.19179758429527283
0.15989600121974945 0.295522540807724 0.08104540407657623
-0.546168863773346 0.003119093831628561 0.09294003248214722
-0.11915818601846695 -0.29445669054985046 0.1921009123325348
-0.9099748134613037 -0.17413850128650665 0.13134951889514923
0.025627629831433296 -0.29445669054985046 -0.01647299900650978
0.26947855949401855 -0.11583153158426285 0.5730123519897461
-0.0009062056778930128 -0.2944403886795044 0.6200096607208252
0.28364261984825134 0.0014840065268799663 0.6366116404533386
0.5430235862731934 0.01878792606294155 -0.1405087113380432
-0.9999990463256836 -0.03455929085612297 -0.098806232213974
0.20102360844612122 -0.13467277586460114 -0.5433468222618103
0.2061721384525299 -0.06500336527824402 0.9676381945610046
0.41474539041519165 0.295522540807724 0.2841331660747528
0.5430235862731934 0.11596084386110306 -0.18343055248260498
0.29341697692871094 -0.11439211666584015 -0.4364525377750397
0.20515696704387665 -0.0680491253733635 0.9372513294219971
0.45590752363204956 0.22851289808750153 0.2962389886379242
0.4094391465187073 0.295522540807724 0.24533683061599731
-0.4470391869544983 -0.29445669054985046 -0.2886142134666443
0.6757513880729675 0.07421797513961792 0.20624592900276184
-0.17682303488254547 -0.15648634731769562 0.6366116404533386
0.29341697692871094 0.02401619777083397 0.2973744869232178
0.12176335602998734 -0.29445669054985046 0.4059438109397888
0.48300209641456604 -0.29445669054985046 -0.2500511407852173
-0.12672153115272522 -0.106565460562706 -0.5433468222618103
-0.6094790101051331 -0.18693596124649048 0.2289951741695404
-0.21726484596729279 0.030760470777750015 -0.8539687395095825
0.24717706441879272 -0.0479540154337883 -0.5433468222618103
0.05986299738287926 0.295522540807724 0.07305535674095154
-0.5519617199897766 -0.19049888849258423 -0.22350284457206726
-0.0120359156280756 0.033751558512449265 -0.5433468222618103
0.29341697692871094 0.004380387254059315 -0.43689897656440735
0.3075929880142212 -0.07981505244970322 0.2962389886379242
0.2466016262769699 -0.29445669054985046 -0.12419866025447845
0.2684565484523773 -0.189280703663826 0.5458455681800842
0.5430235862731934 -0.007200704421848059 0.26784101128578186
0.633789598941803 0.07157920300960541 0.2871544063091278
0.356245756149292 -0.15152528882026672 0.2962389886379242
0.08633455634117126 0.039445195347070694 -0.5433468222618103
0.5679460167884827 0.22161675989627838 -0.19400851428508759
-0.13269732892513275 -0.13904964923858643 0.9996757507324219
-0.2965622544288635 -0.01951347291469574 -0.5419612526893616
-0.9156065583229065 0.19811376929283142 0.09288916736841202
-0.546168863773346 0.17932914197444916 0.14822247624397278
0.16872671246528625 -0.29445669054985046 -0.5428215265274048
-0.45995208621025085 -0.11183007061481476 -0.29374024271965027
-0.012980028055608273 0.1413593292236328 0.5458455681800842
-0.21466240286827087 -0.04464568570256233 -0.9567911028862
-0.12458266317844391 -0.2720363140106201 0.5458455681800842
-0.546168863773346 -0.20814326405525208 0.00921548344194889
-0.5510907769203186 -0.2554921805858612 0.14774903655052185
0.12043166160583496 -0.1799154430627823 -0.8728426694869995
0.41362836956977844 0.014063295908272266 -0.29374024271965027
0.17603380978107452 -0.12554919719696045 0.7425718903541565
-0.047993116080760956 0.2133495956659317 0.8381754159927368
-0.7575781345367432 0.21763797104358673 -0.01643381267786026
-0.546168863773346 0.16696113348007202 -0.22923064231872559
0.5430235862731934 -0.16561992466449738 -0.0707080215215683
0.06277204304933548 -0.15979206562042236 -0.9971770644187927
-0.8664562702178955 -0.20062994956970215 -0.08233114331960678
0.17891032993793488 -0.29445669054985046 -0.3952188789844513
-0.1600811928510666 0.03105361945927143 0.5458455681800842
0.5405620336532593 -0.29445669054985046 -0.23114776611328125
-0.23158034682273865 -0.29445669054985046 -0.46782413125038147
-0.9286101460456848 -0.15826758742332458 -0.14785782992839813
-0.9999990463256836 0.16709759831428528 0.02905193343758583
0.13157743215560913 -0.2618493437767029 -0.6341128349304199
-0.546168863773346 -0.2571808695793152 -0.09884185343980789
-0.17459337413311005 -0.13181467354297638 0.6737809181213379
0.2527945041656494 0.14988401532173157 0.6314234733581543
-0.9999990463256836 0.17519354820251465 0.009694525972008705
0.25269606709480286 -0.09466587007045746 -0.5433468222618103
-0.12490604817867279 0.295522540807724 0.12850069999694824
-0.2062007188796997 0.22233887016773224 -0.5433468222618103
0.5430235862731934 -0.10440081357955933 -0.008582464419305325
0.7188480496406555 -0.20528706908226013 -0.06997407972812653
-0.0007649970357306302 -0.29445669054985046 0.5248624086380005
0.03422139585018158 -0.21433600783348083 0.9513232111930847
0.6230270266532898 -0.02980557456612587 -0.2921519875526428
-0.546168863773346 0.12850579619407654 -0.06328092515468597
-0.20135316252708435 -0.2164873629808426 0.6316017508506775
0.1244392842054367 0.1616194248199463 -0.5433468222618103
0.20742063224315643 -0.278600811958313 0.5458455681800842
0.5650456547737122 0.20961894094944 0.2093060463666916
0.7048344016075134 -0.0015976952854543924 0.21906669437885284
-0.24260151386260986 -0.29445669054985046 0.11107220500707626
0.1961643099784851 0.0675044134259224 -0.9971770644187927
-0.12103547900915146 -0.26915237307548523 0.5544244647026062
0.5430235862731934 0.06120334565639496 0.07861609756946564
0.16062429547309875 -0.14486435055732727 -0.6870102882385254
0.38965722918510437 -0.2658563256263733 0.2962389886379242
0.13208402693271637 0.10750409215688705 -0.5433468222618103
0.633789598941803 -0.2476435750722885 -0.12419038265943527
0.6014158129692078 -0.23735211789608002 -0.1731775403022766
-0.546168863773346 0.09216061979532242 -0.13957178592681885
-0.33943071961402893 -0.29445669054985046 0.18853893876075745
0.29341697692871094 0.23779425024986267 0.48386436700820923
0.21417732536792755 0.030533496290445328 -0.7016979455947876
0.996853768825531 -0.04430616647005081 -0.034360554069280624
0.7404972910881042 -0.1370965987443924 -0.1675792783498764
-0.9999990463256836 -0.10205814242362976 0.10465465486049652
-0.546168863773346 0.14954990148544312 0.005828690715134144
-0.5522239804267883 -0.08495213836431503 0.28356608748435974
0.20136205852031708 -0.07864934206008911 0.9258310198783875
0.09763412922620773 -0.29445669054985046 -0.3718147873878479
0.29341697692871094 0.05922234058380127 0.5265321731567383
-0.054666806012392044 -0.2131110578775406 0.5458455681800842
0.16430634260177612 -0.032411977648735046 0.5458455681800842
-0.2965622544288635 0.2322969287633896 0.5445481538772583
-0.546168863773346 0.20259462296962738 -0.20221272110939026
0.18209943175315857 -0.11654741317033768 0.8422566652297974
0.633789598941803 0.03393443301320076 0.22810229659080505
0.29341697692871094 -0.20886527001857758 0.45688244700431824
0.136499285697937 -0.03477569669485092 -0.5433468222618103
0.12917457520961761 -0.018428081646561623 -0.9971770644187927
-0.018741128966212273 0.295522540807724 -0.3331006169319153
-0.546168863773346 0.18866711854934692 -0.19284823536872864
-0.20903857052326202 -0.06578093767166138 -0.7373753786087036
0.17876693606376648 0.295522540807724 0.24399515986442566
-0.07035478949546814 -0.206147700548172 0.775684654712677
-0.2078239917755127 -0.06954044848680496 0.7258602976799011
-0.16529257595539093 -0.14315348863601685 0.8302446603775024
-0.8532730340957642 -0.1934472918510437 0.10031586140394211
-0.1924448013305664 0.10547424107789993 0.8505639433860779
-0.546168863773346 -0.20965448021888733 0.18171244859695435
-0.37350398302078247 0.26433393359184265 -0.29374024271965027
0.09592363238334656 -0.09297073632478714 0.5458455681800842
0.5430235862731934 -0.24743929505348206 -0.04162432625889778
0.5430235862731934 -0.1566719114780426 0.15373487770557404
-0.20247098803520203 0.23721377551555634 0.5458455681800842
-0.3650895357131958 -0.2601024806499481 0.2962389886379242
-0.24695570766925812 -0.06761026382446289 -0.5433468222618103
-0.18695394694805145 0.295522540807724 0.11744533479213715
0.421701580286026 -0.08161082863807678 0.2962389886379242
0.13879434764385223 0.1652013063430786 -0.9971770644187927
-0.5911311507225037 0.24170920252799988 -0.1685633808374405
0.14557647705078125 -0.14261716604232788 0.5458455681800842
0.4416235685348511 0.12472014874219894 -0.29374024271965027
0.18693454563617706 -0.1086217388510704 0.9826096296310425
-0.43835780024528503 -0.29225781559944153 -0.29374024271965027
0.10137652605772018 -0.031074726954102516 0.5458455681800842
0.33323967456817627 -0.29445669054985046 -0.12906649708747864
-0.4680081605911255 -0.29119667410850525 -0.29374024271965027
-0.546168863773346 0.2876417338848114 0.14697691798210144
0.807196319103241 0.2110205590724945 0.0573604591190815
0.06571033596992493 0.295522540807724 -0.30219322443008423
-0.23029683530330658 -0.29445669054985046 -0.17411869764328003
0.7423004508018494 -0.15370455384254456 0.1550496369600296
0.15187141299247742 0.005939465016126633 0.9996757507324219
0.996853768825531 -0.12953874468803406 -0.03658078983426094
0.5430235862731934 0.05674018710851669 0.04231775552034378
-0.19412770867347717 0.10238227248191833 -0.6991285085678101
-0.546168863773346 0.2713053822517395 0.026368824765086174
-0.9144371151924133 -0.022188996896147728 -0.21539275348186493
-0.9999990463256836 0.1002884954214096 -0.07159154117107391
-0.07585713267326355 -0.20423465967178345 0.9490470886230469
-0.13385729491710663 0.2407318651676178 0.5458455681800842
-0.4940928816795349 0.24510374665260315 0.2962389886379242
-0.9999990463256836 -0.11211170256137848 -0.13425438106060028
-0.29068946838378906 -0.29445669054985046 0.006360185798257589
-0.8393877148628235 -0.2159399688243866 -0.022940753027796745
0.5430235862731934 0.21711339056491852 0.16916723549365997
0.47273996472358704 0.0059616705402731895 -0.29374024271965027
0.042348481714725494 0.16754262149333954 0.5458455681800842
0.09553337097167969 -0.19445371627807617 0.8213760256767273
-0.642385721206665 -0.1088779866695404 -0.18710611760616302
0.4123874604701996 -0.29445669054985046 -0.09137778729200363
0.29341697692871094 0.0381275899708271 -0.34262120723724365
0.633789598941803 0.2199360728263855 0.1544061005115509
0.5055139064788818 0.22188319265842438 -0.29374024271965027
0.5430235862731934 0.014425999484956264 -0.03862737864255905
-0.18565316498279572 -0.29445669054985046 -0.3806891441345215
-0.1747848391532898 0.295522540807724 0.33262622356414795
-0.546168863773346 -0.09906204044818878 -0.2009730488061905
0.996853768825531 -0.01935100182890892 0.1894201785326004
-0.546168863773346 -0.03567612171173096 0.21751537919044495
-0.15622667968273163 -0.29445669054985046 -0.4146687090396881
-0.2045031040906906 0.14812888205051422 -0.5433468222618103
-0.024740759283304214 0.10588523000478745 0.5458455681800842
0.1256514936685562 0.17733511328697205 0.7231751680374146
-0.546168863773346 0.24250298738479614 -0.12425871938467026
-0.2710360288619995 0.09321621805429459 -0.6341128349304199
-0.7020564675331116 0.17916753888130188 0.12590280175209045
0.2729126513004303 -0.29445669054985046 -0.47028234601020813
0.29341697692871094 0.0607837475836277 -0.31617113947868347
-0.8081380128860474 0.21444649994373322 0.042366884648799896
0.33154404163360596 -0.2133827805519104 0.2962389886379242
-0.42421597242355347 -0.29445669054985046 0.141789510846138
0.5430235862731934 -0.2595657408237457 -0.09394404292106628
0.15492646396160126 -0.29445669054985046 -0.09565894305706024
-0.6193030476570129 0.27172744274139404 0.11724525690078735
0.5163848400115967 -0.03339584171772003 0.2962389886379242
0.11340279132127762 0.1854955106973648 0.8681986331939697
0.5430235862731934 -0.01198940072208643 0.05467953160405159
0.996853768825531 -0.002863493049517274 -0.21306931972503662
-0.12107085436582565 -0.29445669054985046 0.30066266655921936
-0.546168863773346 -0.10940877348184586 0.20668986439704895
-0.6672343611717224 -0.2123575657606125 -0.04485991969704628
-0.546168863773346 -0.0581275038421154 -0.2120867222547531
-0.6451594829559326 0.19143067300319672 0.10616330802440643
-0.2140585333108902 -0.047307077795267105 0.8688488602638245
-0.056421518325805664 0.295522540807724 0.19157394766807556
-0.2759053409099579 -0.10785304754972458 0.6150098443031311
0.00844181515276432 -0.29445669054985046 -0.303812712430954
-0.044877275824546814 0.295522540807724 -0.1244564801454544
-0.7604029774665833 0.10724405944347382 0.19115856289863586
-0.6614853739738464 0.1743754744529724 0.13250215351581573
-0.546168863773346 -0.0010394752025604248 -0.20955999195575714
-0.24203722178936005 -0.12641799449920654 0.6366116404533386
0.29341697692871094 0.10257389396429062 -0.4604572057723999
-0.9207807183265686 0.21796450018882751 0.013952240347862244
-0.21914148330688477 -0.010081559419631958 0.7455697655677795
0.4120190739631653 0.2762541174888611 0.2962389886379242
-0.6456907987594604 0.11195148527622223 -0.1859293431043625
0.29341697692871094 -0.02461358532309532 -0.41512709856033325
0.2837708592414856 0.07527967542409897 0.6226961612701416
-0.1984858214855194 -0.07132206857204437 -0.5433468222618103
-0.8018210530281067 -0.21362270414829254 0.04105941206216812
0.29341697692871094 -0.22042351961135864 0.2996119260787964
0.3448219895362854 -0.29445669054985046 0.06862503290176392
0.00972773041576147 0.14236894249916077 0.5458455681800842
0.30479690432548523 0.295522540807724 -0.1629616916179657
-0.15728572010993958 -0.19819487631320953 0.6366116404533386
0.128097802400589 0.1755659282207489 0.9607529640197754
0.0818224772810936 0.1753336638212204 0.5458455681800842
-0.9999990463256836 -0.0894964262843132 -0.006324933376163244
-0.06595641374588013 0.20983605086803436 0.5458455681800842
-0.14936894178390503 0.16056141257286072 -0.6940643787384033
-0.031118258833885193 0.21635740995407104 0.7912169694900513
-0.4471270442008972 0.1326204091310501 0.2962389886379242
0.2434934675693512 -0.13577714562416077 -0.5433468222618103
-0.18744193017482758 -0.29445669054985046 0.033985670655965805
0.14070715010166168 0.2187313437461853 0.5458455681800842
-0.16570772230625153 0.14375081658363342 0.9898210763931274
-0.9440848231315613 -0.08728885650634766 -0.19808954000473022
0.2066144496202469 -0.063536636531353 0.8135668039321899
-0.5431146025657654 0.295522540807724 0.23577412962913513
-0.5686585307121277 -0.2118324339389801 -0.20348939299583435
0.02534717693924904 -0.23498158156871796 0.5458455681800842
0.4757978618144989 -0.20392003655433655 -0.29374024271965027
-0.23770058155059814 -0.04292866587638855 0.5458455681800842
-0.6042019128799438 -0.20004193484783173 0.2175419181585312
0.29072481393814087 -0.03919538855552673 -0.5850446224212646
0.09844540059566498 -0.1337217539548874 0.5458455681800842
-0.24657054245471954 -0.114731065928936 -0.5433468222618103
-0.21936339139938354 -0.0035563362762331963 0.7003661394119263
0.34412848949432373 0.24537993967533112 -0.29374024271965027
0.5430235862731934 -0.07161828875541687 0.25175172090530396
-0.9999990463256836 -0.054786764085292816 0.03377916291356087
-0.4726410508155823 0.295522540807724 0.07351543754339218
-0.14558246731758118 0.1639251857995987 0.7122120261192322
-0.43703925609588623 -0.29445669054985046 -0.08347241580486298
0.01532928179949522 -0.23384426534175873 -0.5433468222618103
-0.2661694884300232 -0.12986387312412262 -0.5744031667709351
0.29341697692871094 -0.09383580833673477 -0.3217849135398865
0.009702978655695915 0.21807065606117249 0.9463925957679749
-0.20613592863082886 0.0753922238945961 0.6453661918640137
-0.6124238967895508 -0.16799616813659668 0.243340864777565
-0.2802223265171051 -0.0961843878030777 0.5470515489578247
-0.2965622544288635 -0.014551310800015926 -0.3014776408672333
-0.4409228563308716 0.0998394787311554 -0.29374024271965027
-0.11607567220926285 0.295522540807724 0.15368661284446716
-0.638001024723053 -0.12373904138803482 -0.17761045694351196
-0.17150889337062836 0.295522540807724 -0.421720027923584
0.7179026007652283 -0.10709860175848007 0.19060899317264557
-0.20976057648658752 -0.06351383775472641 0.8808903098106384
0.996853768825531 0.031177707016468048 0.21626928448677063
0.036425184458494186 0.2150195837020874 0.6643977761268616
0.06851916015148163 -0.29445669054985046 0.25712159276008606
0.19647762179374695 0.09119235724210739 -0.9126136302947998
0.05548502132296562 -0.03179187700152397 -0.9971770644187927
0.3118513822555542 -0.06418129056692123 -0.29374024271965027
-0.020568788051605225 -0.21646833419799805 -0.8186692595481873
0.40867772698402405 0.025608595460653305 0.2962389886379242
-0.546168863773346 0.09205330908298492 -0.20230981707572937
-0.546168863773346 -0.11563992500305176 -0.11179202795028687
0.7800999879837036 -0.08287633955478668 -0.19997288286685944
-0.8679531812667847 -0.14046716690063477 0.16727028787136078
-0.09800553321838379 -0.19478212296962738 0.9082678556442261
-0.2965622544288635 0.14151282608509064 -0.4364994466304779
0.888181209564209 0.028292106464505196 0.21728551387786865
-0.09017669409513474 -0.10769784450531006 0.9996757507324219
-0.2965622544288635 0.23760196566581726 0.4643036127090454
-0.546168863773346 -0.06720145791769028 -0.27855661511421204
-0.16134735941886902 -0.19744685292243958 0.6366116404533386
0.11732954531908035 0.15357539057731628 0.9996757507324219
-0.11491645872592926 0.295522540807724 0.18565666675567627
-0.10212408006191254 -0.2217034250497818 -0.5433468222618103
-0.4096076786518097 0.11284050345420837 -0.29374024271965027
0.633789598941803 0.26937228441238403 -0.0021536550484597683
-0.09628807008266449 -0.19562426209449768 -0.9647762179374695
0.29341697692871094 0.23210874199867249 0.5181161165237427
0.5366112589836121 0.24891316890716553 0.2962389886379242
-0.9871841669082642 -0.1380058228969574 -0.16682009398937225
0.22194203734397888 -0.1212216466665268 0.5458455681800842
-0.6772754192352295 -0.20236559212207794 0.08049976080656052
-0.1364275962114334 0.295522540807724 -0.36569833755493164
-0.6883991360664368 -0.11986449360847473 0.18278592824935913
-0.546168863773346 0.2026010900735855 -0.10363220423460007
-0.7099901437759399 0.11097078025341034 0.1889931708574295
0.14382164180278778 -0.29445669054985046 0.43269532918930054
-0.8400275707244873 0.0870419442653656 0.20115281641483307
0.16911597549915314 -0.13479046523571014 0.8187506198883057
-0.3789568841457367 -0.29445669054985046 -0.013254503719508648
0.18142759799957275 -0.2016531378030777 -0.5433468222618103
-0.546168863773346 0.21864835917949677 -0.26916754245758057
-0.9547180533409119 0.21017251908779144 -0.057914480566978455
-0.9999990463256836 -0.045595742762088776 -0.11067569255828857
0.20408612489700317 -0.08082139492034912 0.5458455681800842
-0.07430436462163925 0.12086967378854752 0.5458455681800842
0.5430235862731934 0.06317547708749771 0.14994703233242035
-0.12338579446077347 -0.29445669054985046 -0.20518527925014496
0.0037768229376524687 0.25047567486763 -0.5433468222618103
0.5430235862731934 0.06818824261426926 0.087287038564682
0.1352817416191101 -0.11806594580411911 0.5458455681800842
0.601423442363739 -0.24946630001068115 0.15781556069850922
0.21590556204319 0.012780309654772282 0.6986966133117676
0.17126348614692688 0.15405462682247162 0.5458455681800842
-0.12286636233329773 0.19204038381576538 0.6366116404533386
0.31599876284599304 0.11058641225099564 -0.29374024271965027
0.057277705520391464 -0.29445669054985046 0.09483660012483597
0.996853768825531 -0.009286518208682537 -0.20891453325748444
-0.21862377226352692 0.018848581239581108 -0.7167643308639526
-0.2965622544288635 0.10552998632192612 -0.4756852984428406
0.17343167960643768 0.295522540807724 -0.04713034629821777
-0.8839282989501953 -0.0018541390309110284 -0.21654875576496124
-0.3134174346923828 0.27964940667152405 0.2962389886379242
-0.7654604315757751 -0.09301339089870453 0.19796951115131378
-0.11082479357719421 0.04911473020911217 0.5458455681800842
0.102908194065094 -0.29445669054985046 0.3766005337238312
-0.8882026076316833 0.1847844123840332 -0.11491739004850388
-0.23093895614147186 0.295522540807724 0.32441332936286926
-0.2965622544288635 0.04462281987071037 0.41466224193573
-0.5573740601539612 -0.028212152421474457 -0.29230302572250366
0.29341697692871094 -0.02928885631263256 -0.33369535207748413
0.3707914650440216 -0.08110883831977844 -0.29374024271965027
-0.6369348764419556 0.2711860239505768 0.038121990859508514
0.5798025727272034 -0.23583000898361206 0.17774586379528046
-0.047220487147569656 0.048968929797410965 -0.9971770644187927
-0.24833522737026215 0.08374502509832382 -0.5433468222618103
0.29341697692871094 0.19277529418468475 -0.318175733089447
-0.1599023938179016 0.295522540807724 -0.1290631741285324
0.7014679312705994 0.14525122940540314 -0.16155372560024261
0.08043481409549713 0.03745264187455177 0.9996757507324219
-0.5676864981651306 0.2109978199005127 0.2079121470451355
-0.8757651448249817 0.20418336987495422 0.07848268002271652
-0.16067320108413696 -0.12853878736495972 0.5458455681800842
0.05591171607375145 0.21063144505023956 0.814720869064331
0.5029388070106506 -0.22559881210327148 0.2962389886379242
-0.09271914511919022 -0.11271145194768906 0.9996757507324219
-0.33148184418678284 0.20382072031497955 0.2962389886379242
-0.0347323976457119 -0.21473899483680725 0.7950564026832581
-0.6451879143714905 -0.1505938321352005 0.15812186896800995
-0.024665098637342453 0.295522540807724 -0.45197927951812744
0.6111960411071777 0.2935732901096344 -0.03234739601612091
0.4143000841140747 -0.06962898373603821 0.2962389886379242
0.633789598941803 -0.2198992371559143 0.1407526135444641
0.29341697692871094 -0.17173850536346436 0.5140276551246643
0.15421219170093536 -0.2872183322906494 -0.5433468222618103
0.02747226133942604 -0.29445669054985046 -0.4738851487636566
-0.546168863773346 -0.26985958218574524 0.14375151693820953
-0.2965622544288635 -0.2407751828432083 -0.42697805166244507
-0.6730714440345764 -0.08217320591211319 0.2027752846479416
-0.1728232353925705 0.0002474862558301538 0.5458455681800842
0.889045000076294 0.21140547096729279 -0.053299322724342346
0.0866098403930664 0.1997002512216568 0.7919997572898865
-0.546168863773346 0.06492040306329727 0.026676522567868233
-0.10489796847105026 0.0674128383398056 0.5458455681800842
0.6938868761062622 0.07131682336330414 0.2072397619485855
0.996853768825531 0.0729529857635498 0.1987261325120926
0.5430235862731934 0.2520172595977783 0.13552653789520264
-0.546168863773346 0.06080946698784828 -0.14810259640216827
-0.24752071499824524 0.16337989270687103 -0.6028805375099182
-0.9999990463256836 -0.18577320873737335 -0.10033900290727615
-0.08623895794153214 0.18598265945911407 0.5458455681800842
-0.115594781935215 -0.29445669054985046 0.20692624151706696
-0.6188189387321472 0.24387946724891663 -0.16546575725078583
-0.148759126663208 0.12024512141942978 -0.5433468222618103
-0.15762460231781006 0.15250594913959503 0.9555816650390625
0.9494842886924744 -0.055618248879909515 0.21172122657299042
0.15914477407932281 0.295522540807724 -0.3110705614089966
0.633789598941803 0.28634586930274963 0.045284204185009
0.03439546376466751 0.295522540807724 -0.3697047829627991
-0.6271570324897766 -0.028715722262859344 -0.29225125908851624
-0.1777930110692978 -0.1275012195110321 0.8521952033042908
-0.18495365977287292 0.295522540807724 0.10882969945669174
0.07426781207323074 0.2047346830368042 0.9493392109870911
-0.17994332313537598 -0.23439331352710724 0.5620875358581543
-0.6369348764419556 0.20491057634353638 0.21149121224880219
-0.9999990463256836 -0.07316330820322037 -0.09439277648925781
0.29341697692871094 0.262814998626709 0.4453393518924713
0.11244115233421326 0.013693592511117458 0.5458455681800842
0.9440100789070129 0.13442473113536835 -0.17056959867477417
-0.9999990463256836 -0.13667379319667816 0.035748276859521866
0.29341697692871094 -0.017143184319138527 0.4471571743488312
0.633789598941803 -0.23079827427864075 -0.1610560566186905
0.19853678345680237 -0.15888893604278564 0.6366116404533386
0.17307497560977936 -0.12964461743831635 0.989100456237793
-0.546168863773346 -0.11298959702253342 0.12445942312479019
0.1993078738451004 0.09001689404249191 0.6366116404533386
-0.053685277700424194 -0.16100271046161652 -0.5433468222618103
0.5430235862731934 -0.093539759516716 0.053584858775138855
-0.007603388279676437 0.21827834844589233 0.6793802976608276
-0.1454598605632782 -0.2275771051645279 0.6366116404533386
-0.310940682888031 -0.27297618985176086 0.2962389886379242
0.5430235862731934 -0.1556423008441925 -0.04814629629254341
-0.14165177941322327 -0.16627484560012817 -0.9805928468704224
0.03562863543629646 0.1688338667154312 0.9996757507324219
-0.2965622544288635 -0.25373178720474243 -0.325190007686615
-0.22483082115650177 0.023465795442461967 -0.6341128349304199
-0.7563320994377136 0.13728870451450348 0.1708090752363205
0.1338195502758026 0.295522540807724 -0.43290048837661743
0.5430235862731934 0.15778735280036926 0.07062431424856186
0.2791876494884491 0.09095149487257004 0.6275652647018433
0.2842404544353485 0.295522540807724 0.3608464002609253
0.08516979217529297 -0.29445669054985046 -0.4345262050628662
0.2630387246608734 0.295522540807724 0.30434685945510864
-0.2965622544288635 -0.16393066942691803 -0.5108736157417297
-0.09390482306480408 0.1348644644021988 0.5458455681800842
-0.05538604408502579 0.2391347587108612 0.6366116404533386
-0.19888870418071747 -0.09175032377243042 0.9765101075172424
0.0836101844906807 0.15149974822998047 -0.9971770644187927
-0.17059235274791718 0.24229422211647034 0.5654098987579346
-0.7576547265052795 -0.20179393887519836 0.08195887506008148
0.38669928908348083 0.1828618049621582 0.2962389886379242
0.29592931270599365 -0.1787659227848053 -0.29374024271965027
-0.21387845277786255 -0.04817705228924751 0.7805242538452148
0.20633484423160553 -0.0644066110253334 -0.8152102828025818
-0.2965622544288635 -0.17023965716362 -0.3100990653038025
-0.6710967421531677 -0.20235282182693481 -0.07803811132907867
-0.546168863773346 -0.09201576560735703 -0.1732216775417328
-0.546168863773346 0.18218398094177246 -0.06408940255641937
-0.04176769405603409 -0.21355031430721283 -0.9379611015319824
-0.18289725482463837 -0.29445669054985046 0.2949569821357727
0.1415266990661621 0.295522540807724 0.010098118335008621
0.29341697692871094 0.05928540229797363 0.3139393627643585
0.20742174983024597 0.06194556504487991 -0.9940561056137085
0.5430235862731934 -0.05098917707800865 0.16922317445278168
0.11475171893835068 -0.29445669054985046 0.4985252916812897
0.6667807698249817 0.07632333785295486 -0.2029680460691452
-0.12576039135456085 0.17949508130550385 -0.812498152256012
0.29341697692871094 0.2006038874387741 -0.35152336955070496
-0.022840600460767746 -0.2936524748802185 -0.613227903842926
0.5430235862731934 -0.2817014753818512 -0.21670278906822205
-0.9999990463256836 -0.00043027763604186475 -0.047251034528017044
