0.9759718179702759 0.09545017778873444 -0.00040026093483902514
-0.4306902587413788 0.179454505443573 -0.6962465047836304
-0.15199677646160126 0.179454505443573 0.8022885918617249
0.4019937515258789 0.09774898737668991 -0.06527099758386612
-0.5276959538459778 0.02635762467980385 -0.1047835499048233
0.8573122620582581 -0.09178666770458221 -0.029006028547883034
0.24711547791957855 0.179454505443573 0.6026840806007385
0.33144015073776245 0.179454505443573 -0.727737545967102
-0.4084893465042114 -0.1793486326932907 0.17867815494537354
0.3855011463165283 0.179454505443573 0.30158889293670654
-0.17169947922229767 -0.049412183463573456 0.8810545802116394
-0.5252208113670349 0.14629991352558136 -0.7633412480354309
-0.14455045759677887 0.043282121419906616 0.7645529508590698
-0.5276959538459778 -0.12382446974515915 -0.03317124396562576
0.3736889660358429 0.179454505443573 -0.010753391310572624
-0.454715758562088 0.179454505443573 -0.4544033408164978
0.4019937515258789 0.03265852853655815 -0.45109841227531433
-0.0679851844906807 -0.05717404559254646 0.7743468880653381
-0.5108880996704102 0.179454505443573 0.4491809010505676
0.06873385608196259 -0.05367731675505638 -0.7633412480354309
-0.5246320962905884 0.179454505443573 -0.290883332490921
0.323596715927124 0.179454505443573 0.43678855895996094
-0.0699465200304985 0.179454505443573 0.7897131443023682
0.9210638403892517 -0.06057286262512207 -0.07724200934171677
0.379892498254776 0.179454505443573 0.5407311320304871
0.282392680644989 -0.14327068626880646 -0.09198299795389175
0.4019937515258789 0.09356118738651276 0.178903728723526
0.4019937515258789 -0.052537258714437485 -0.27837786078453064
0.282392680644989 0.01685251109302044 -0.22169354557991028
0.05038923770189285 0.16906291246414185 -0.7633412480354309
-0.32187750935554504 0.07283161580562592 0.6574050188064575
0.39077770709991455 0.12247026711702347 0.5304183959960938
-0.26116520166397095 0.036309923976659775 -0.6437402367591858
0.4784212112426758 -0.025678418576717377 -0.09537898749113083
0.22304479777812958 -0.1793486326932907 -0.7328721284866333
-0.09300407022237778 0.12879081070423126 0.7729805707931519
-0.5276959538459778 -0.08090309053659439 -0.3450115919113159
-0.22256286442279816 -0.1793486326932907 -0.6578316688537598
0.20575247704982758 -0.06791381537914276 -0.7633412480354309
-0.23003551363945007 -0.048926904797554016 0.7311469316482544
0.4312700033187866 0.08554919064044952 0.03870080038905144
-0.5276959538459778 0.07875244319438934 -0.1480136513710022
-0.02230210229754448 -0.15770892798900604 0.7719335556030273
0.282392680644989 0.11911458522081375 0.16945450007915497
-0.5276959538459778 -0.04826626554131508 -0.2258366346359253
-0.4057449698448181 0.179454505443573 0.5233113765716553
0.005531794857233763 -0.12463128566741943 -0.7633412480354309
-0.48289060592651367 -0.06704946607351303 -0.7633412480354309
0.4019937515258789 0.08610399067401886 0.25352126359939575
-0.5276959538459778 -0.14205706119537354 0.2600978910923004
0.3373502790927887 0.179454505443573 -0.42882293462753296
0.34645548462867737 0.0742424726486206 0.6495208740234375
0.3130854070186615 0.179454505443573 -0.7196645140647888
-0.40470901131629944 -0.01979866996407509 0.4766720235347748
-0.4080948829650879 -0.04794548079371452 -0.4670228362083435
0.38953897356987 0.179454505443573 0.2501251697540283
-0.20570318400859833 0.10583751648664474 -0.7633412480354309
-0.5276959538459778 0.12072035670280457 -0.19237832725048065
0.34053948521614075 0.10114109516143799 -0.7633412480354309
-0.15006540715694427 0.09886310249567032 0.763157844543457
-0.1589430570602417 0.10696162283420563 -0.6437402367591858
-0.4080948829650879 -0.10941651463508606 0.3756454885005951
-0.4064297676086426 -0.17349761724472046 0.46179965138435364
-0.14696890115737915 0.04703405871987343 -0.7633412480354309
0.4019937515258789 0.02714943327009678 -0.4881424903869629
-0.38500887155532837 1.3082733858027495e-05 0.5531161427497864
0.3950798511505127 0.179454505443573 -0.6261064410209656
-0.5075998306274414 0.05406409502029419 0.56392902135849
0.7979400753974915 0.0834847018122673 0.042741917073726654
0.5568664073944092 0.08865892887115479 -0.03912610933184624
-0.5130785703659058 0.179454505443573 0.07987023890018463
0.10163310915231705 0.179454505443573 -0.7186217308044434
0.4019937515258789 -0.1719902753829956 -0.40204811096191406
-0.22858262062072754 -0.1793486326932907 -0.7258164286613464
0.3884582817554474 0.11684087663888931 0.5403826236724854
-0.5276959538459778 -0.07152213901281357 -0.33208411931991577
0.07864903658628464 0.17334814369678497 0.871893584728241
-0.5276959538459778 -0.1035841703414917 -0.6117895245552063
-0.4080948829650879 -0.1733018010854721 -0.5431804060935974
-0.5276959538459778 -0.12231330573558807 -0.6631816029548645
-0.10962021350860596 0.179454505443573 0.7908934950828552
0.4019937515258789 0.001178837614133954 -0.709770143032074
-0.16512896120548248 -0.1614677757024765 -0.6437402367591858
0.8482003211975098 0.09140744805335999 -0.03175009414553642
-0.5276959538459778 0.17542581260204315 -0.6309897303581238
0.020804831758141518 -0.15008868277072906 -0.7633412480354309
0.1955081671476364 0.08973134309053421 0.8155747652053833
0.01655605621635914 0.179454505443573 0.7911033630371094
-0.4080948829650879 -0.14747682213783264 -0.49638184905052185
0.2594929337501526 0.030489031225442886 0.5525338053703308
0.282392680644989 -0.17526322603225708 -0.2548571228981018
0.4019937515258789 -0.1631871461868286 0.3582291007041931
0.2783290445804596 -0.06034497171640396 0.4809490144252777
-0.091059111058712 -0.14729514718055725 0.7731990218162537
0.4019937515258789 0.023535119369626045 -0.6296831369400024
-0.5276959538459778 0.11322840303182602 -0.320247620344162
-0.21219153702259064 0.034627486020326614 0.7403743863105774
-0.5276959538459778 0.07915342599153519 -0.29631030559539795
0.4019937515258789 0.02896587923169136 -0.5292940735816956
-0.283532977104187 0.12498940527439117 0.6946122646331787
0.3584139943122864 0.179454505443573 0.2759748101234436
-0.4080948829650879 0.06137779727578163 0.32924097776412964
0.4012652039527893 0.09930987656116486 0.4542398154735565
-0.023587793111801147 0.179454505443573 -0.761743426322937
0.8941616415977478 -0.0908462181687355 0.025417596101760864
0.4019937515258789 0.1673528552055359 -0.15207050740718842
-0.03025946207344532 0.13641828298568726 0.7727697491645813
0.9999989867210388 0.005360601469874382 0.045508384704589844
-0.3395465910434723 0.17836439609527588 0.8027083277702332
0.21941247582435608 0.13002930581569672 0.7984082102775574
0.2952452301979065 -0.05166435241699219 -0.7633412480354309
0.25510674715042114 -0.1793486326932907 -0.6920163035392761
0.2460481971502304 0.06564076244831085 0.7764050960540771
0.17577524483203888 -0.041300706565380096 -0.7633412480354309
-0.5029228329658508 -0.1793486326932907 -0.12232065945863724
-0.4687563180923462 -0.1793486326932907 -0.6805571913719177
-0.4080948829650879 -0.08624182641506195 -0.5966939330101013
0.4763861894607544 0.002022508531808853 0.0920507088303566
-0.41412976384162903 0.179454505443573 -0.18116585910320282
0.4133734107017517 0.002474108012393117 0.09194622933864594
0.323228120803833 -0.1793486326932907 -0.23635241389274597
-0.3803457021713257 0.16168023645877838 0.5647767186164856
-0.4272356927394867 -0.1793486326932907 -0.7355166077613831
-0.27498331665992737 0.15030217170715332 0.8427774906158447
-0.22474265098571777 0.179454505443573 -0.6837241053581238
-0.5275965332984924 -0.08469101041555405 0.4343606233596802
0.282392680644989 0.140896275639534 0.413187175989151
-0.5018807649612427 -0.1793486326932907 0.06158141791820526
-0.47944799065589905 0.179454505443573 0.2786984145641327
0.42819133400917053 -0.0844448059797287 0.041265975683927536
-0.4080948829650879 -0.10004565119743347 0.1605597883462906
-0.07064083218574524 -0.12487702071666718 -0.7633412480354309
-0.02898034267127514 -0.06759102642536163 0.7725876569747925
-0.03869295492768288 -0.05852506682276726 -0.7633412480354309
-0.47486504912376404 0.179454505443573 0.40447214245796204
-0.1458607316017151 -0.08241388946771622 -0.7633412480354309
0.35490724444389343 -0.1793486326932907 0.5981922149658203
-0.1860121488571167 0.008383807726204395 0.751655638217926
-0.18690405786037445 -0.026698095723986626 0.8771511316299438
0.282392680644989 -0.12554730474948883 -0.031096985563635826
-0.4080948829650879 -0.04831010848283768 -0.37302449345588684
-0.0866047739982605 0.06208415329456329 0.8933243751525879
-0.4080948829650879 0.07272813469171524 0.27240902185440063
-0.11516930162906647 -0.1793486326932907 -0.6582852602005005
0.3052728772163391 -0.1793486326932907 -0.6219709515571594
0.4019937515258789 0.10341992974281311 -0.5606329441070557
-0.4080948829650879 0.03837795555591583 -0.24949833750724792
-0.14838676154613495 0.12027402967214584 -0.6437402367591858
-0.19299863278865814 -0.06441722810268402 0.7488947510719299
-0.48927992582321167 -0.08012066036462784 0.6141467094421387
-0.3758853077888489 0.015375724993646145 -0.6437402367591858
0.32528600096702576 -0.1793486326932907 -0.44603344798088074
-0.16079822182655334 0.10756082087755203 0.7601719498634338
-0.035617563873529434 -0.01600903458893299 -0.7633412480354309
0.011505916714668274 -0.12907055020332336 0.8879733681678772
-0.4240696430206299 0.179454505443573 0.04209478572010994
0.5464613437652588 0.09299836307764053 0.01798788085579872
-0.4652470052242279 0.179454505443573 -0.6256071329116821
0.282392680644989 0.07183989137411118 -0.2547045052051544
0.23539011180400848 -0.1640159785747528 0.7857135534286499
0.6958222389221191 0.09047543257474899 0.02677135542035103
0.4019937515258789 -0.17707236111164093 0.42227888107299805
-0.4294993579387665 0.179454505443573 -0.5758050680160522
0.4019937515258789 -0.07107433676719666 -0.6333671808242798
-0.1173519641160965 -0.003753968980163336 -0.7633412480354309
0.4019937515258789 0.1495872288942337 -0.39439302682876587
-0.4428364038467407 0.179454505443573 0.08865416795015335
0.3500991463661194 -0.1793486326932907 -0.2568284869194031
-0.5005526542663574 0.17590779066085815 0.5857000350952148
-0.43970486521720886 0.179454505443573 -0.7463089823722839
-0.5276959538459778 -0.11451937258243561 -0.5633505582809448
0.282392680644989 -0.04009883105754852 0.3001616597175598
-0.009810704737901688 -0.09018149226903915 -0.7633412480354309
-0.11621085554361343 0.16499613225460052 0.8909285664558411
-0.4080948829650879 0.06337269395589828 -0.47664499282836914
-0.5276959538459778 -0.11618933081626892 0.26228803396224976
-0.02495993860065937 -0.008491994813084602 -0.6437402367591858
0.07531461864709854 -0.11186030507087708 0.7453862428665161
0.282392680644989 0.140257328748703 -0.37414732575416565
0.05773993209004402 0.06715067476034164 -0.7633412480354309
-0.4080948829650879 0.10756146907806396 -0.4537738561630249
0.23673461377620697 -0.15069586038589478 -0.7633412480354309
-0.28621649742126465 0.008810805156826973 -0.6437402367591858
-0.3804093897342682 0.179454505443573 0.7122768759727478
0.3972763419151306 0.179454505443573 0.1989712417125702
0.4019937515258789 0.020170962437987328 -0.18009483814239502
-0.431627094745636 0.179454505443573 -0.165601447224617
0.2691662907600403 -0.13054539263248444 0.5232335925102234
0.7914193868637085 0.021525191143155098 0.08944939821958542
-0.4080948829650879 0.10417564958333969 -0.6331743597984314
0.2549477815628052 0.04308643937110901 0.5639474391937256
0.2828708589076996 0.179454505443573 -0.7306281924247742
-0.013801086694002151 0.06498409062623978 0.7708227038383484
0.08719576895236969 -0.06711544096469879 -0.6437402367591858
0.22662730515003204 -0.08733151108026505 0.6172810792922974
-0.5276959538459778 0.0492289699614048 0.15293672680854797
0.04328491538763046 0.15619288384914398 0.8816735744476318
-0.5276959538459778 0.008417148143053055 -0.5737197995185852
0.3474736213684082 -0.05794021114706993 0.6474965214729309
0.9999989867210388 0.06966283172369003 -0.014201347716152668
-0.5254449248313904 -0.04947448521852493 0.4744247794151306
-0.4080948829650879 -0.10562144964933395 -0.5224168300628662
0.20808161795139313 -0.016143647953867912 -0.6437402367591858
-0.5276959538459778 -0.09523405134677887 -0.5479029417037964
-0.4080948829650879 0.11613643914461136 0.23410223424434662
-0.5276959538459778 -0.12860284745693207 0.031277839094400406
-0.19137011468410492 -0.04097132384777069 -0.6437402367591858
0.34335821866989136 0.179454505443573 -0.6431970000267029
0.32329174876213074 0.179454505443573 -0.5409583449363708
-0.4308899939060211 0.179454505443573 -0.4713953137397766
-0.20875275135040283 -0.055395521223545074 -0.7633412480354309
0.7641270160675049 0.02056359313428402 -0.09674525260925293
-0.2451612502336502 0.179454505443573 0.7986499667167664
-0.457133024930954 -0.1793486326932907 -0.29650306701660156
-0.4080948829650879 -0.13028496503829956 0.038538381457328796
0.282392680644989 0.11039799451828003 0.21350756287574768
0.282392680644989 -0.15157006680965424 0.3632541596889496
0.18805275857448578 -0.08787760883569717 -0.7633412480354309
-0.4080948829650879 -0.16366831958293915 -0.5002185106277466
0.282392680644989 0.08617398142814636 -0.03302392363548279
0.29408758878707886 0.179454505443573 -0.6811251640319824
-0.5156371593475342 -0.1793486326932907 0.27883729338645935
-0.32539352774620056 0.08107080310583115 0.653289794921875
0.7239425182342529 0.08891535550355911 -0.03845808282494545
0.2657901346683502 0.15478262305259705 0.5343437194824219
-0.4080948829650879 0.0841071605682373 -0.5778006911277771
-0.5276959538459778 -0.10558278113603592 -0.12024357914924622
-0.5276959538459778 -0.1695183664560318 0.27458035945892334
-0.4080948829650879 0.07071181386709213 -0.48932892084121704
-0.015369280241429806 0.10022301226854324 -0.6437402367591858
-0.22754384577274323 0.12998822331428528 -0.6437402367591858
-0.51835036277771 0.179454505443573 -0.261026531457901
-0.42933255434036255 0.179454505443573 -0.09526894241571426
-0.4080948829650879 0.15403863787651062 -0.417431503534317
-0.42719024419784546 -0.15974114835262299 0.7177428007125854
0.282392680644989 -0.15347924828529358 0.21443036198616028
-0.4080948829650879 0.15425746142864227 -0.4303971529006958
-0.4080948829650879 -0.015867941081523895 0.15490129590034485
-0.3570666015148163 0.014914795756340027 0.788960337638855
-0.4736533463001251 0.179454505443573 0.2943418323993683
0.1642647683620453 -0.1793486326932907 -0.7526707053184509
0.282392680644989 -0.08930448442697525 0.10591050982475281
0.12559537589550018 0.13052202761173248 0.8540034294128418
-0.36700648069381714 -0.13293643295764923 0.7805466651916504
-0.28069373965263367 0.179454505443573 -0.6496322154998779
0.19221389293670654 0.048055972903966904 0.6618241667747498
0.3825930058956146 -0.1793486326932907 -0.434781551361084
0.3610488176345825 0.179454505443573 -0.10196790099143982
0.399972140789032 0.179454505443573 -0.45602667331695557
0.3803158104419708 -0.1793486326932907 -0.498519629240036
0.282392680644989 -0.13734765350818634 -0.2639347314834595
-0.35974282026290894 0.179454505443573 0.7834766507148743
0.959995687007904 0.05404369905591011 -0.08218525350093842
-0.32681968808174133 -0.03705752268433571 -0.6437402367591858
0.4019937515258789 -0.11321862787008286 0.4291080832481384
-0.41457268595695496 -0.1793486326932907 0.4078909456729889
0.14079414308071136 -0.04956933856010437 -0.7633412480354309
-0.4080948829650879 0.1520603895187378 0.4099281430244446
0.314285546541214 0.15724699199199677 0.7008316516876221
-0.5276959538459778 -0.08910549432039261 0.10665254294872284
0.3482816219329834 -0.1793486326932907 -0.5250124931335449
-0.04575630649924278 0.0337790921330452 0.773960530757904
-0.16638189554214478 0.179454505443573 -0.6974359750747681
-0.4080948829650879 -0.002812993014231324 -0.5851664543151855
-0.5276959538459778 -0.009506858885288239 -0.32421955466270447
0.7185534238815308 0.054352086037397385 0.07516857236623764
0.5477331876754761 -0.06245248764753342 0.068856380879879
-0.04568951204419136 0.12264564633369446 0.7739242315292358
-0.16601184010505676 0.179454505443573 0.7987454533576965
0.700175404548645 -0.05890137702226639 0.07180077582597733
-0.5276959538459778 0.1454406976699829 -0.2715790271759033
-0.012413062155246735 0.1642255187034607 0.7706166505813599
0.2969467341899872 0.179454505443573 -0.7226493954658508
-0.3205031156539917 0.14151868224143982 -0.6437402367591858
0.282392680644989 -0.10737936943769455 0.378776878118515
0.33643847703933716 -0.1793486326932907 -0.055716659873723984
0.015317907556891441 -0.12017758935689926 -0.7633412480354309
0.003498370759189129 -0.1793486326932907 0.8529190421104431
0.9836627840995789 0.021633150056004524 0.08949118852615356
-0.05044884607195854 0.09097558259963989 0.8937397003173828
-0.46713903546333313 0.179454505443573 0.34166067838668823
-0.5276959538459778 -0.05913018062710762 -0.5370090007781982
-0.5276959538459778 0.141802579164505 -0.5079428553581238
0.4019937515258789 0.055718690156936646 -0.36696484684944153
0.31024736166000366 0.179454505443573 -0.265535831451416
-0.4674476385116577 0.179454505443573 0.17828369140625
0.4019937515258789 0.10616091638803482 0.15226641297340393
0.7325794100761414 0.08350007236003876 -0.050078969448804855
0.3120667040348053 -0.1793486326932907 -0.35891425609588623
-0.33063486218452454 -0.1793486326932907 -0.6591715216636658
-0.5276959538459778 -0.1610415279865265 -0.2228817343711853
-0.5200960040092468 -0.1793486326932907 -0.4903106391429901
-0.03377215936779976 -0.1793486326932907 -0.7074388861656189
0.282392680644989 -0.15254749357700348 -0.47823622822761536
0.30859997868537903 0.179454505443573 -0.4269304573535919
-0.4386521279811859 0.179454505443573 0.1374228596687317
0.11227088421583176 0.006204592064023018 0.8597544431686401
0.282392680644989 0.050258491188287735 0.01104515790939331
0.43116888403892517 -0.053394902497529984 0.07568074762821198
0.282392680644989 0.16246257722377777 -0.6280741691589355
0.42495080828666687 0.09322080761194229 -0.023697974160313606
0.2502356469631195 -0.10018870234489441 0.5746197700500488
-0.23289068043231964 0.03525907173752785 0.861745297908783
-0.5276959538459778 0.018661189824342728 -0.5612427592277527
-0.5066032409667969 -0.1793486326932907 0.4097222089767456
-0.2426058053970337 -0.0786813274025917 0.8578042984008789
0.8483321666717529 -0.014630955643951893 0.09096138179302216
0.08375155180692673 0.16899335384368896 -0.7633412480354309
-0.4080948829650879 0.04237479344010353 -0.48358818888664246
0.040279991924762726 -0.024316444993019104 0.882428765296936
0.37119683623313904 0.0741792619228363 0.5953031778335571
-0.5082431435585022 0.179454505443573 0.2508620023727417
-0.3921540677547455 -0.1793486326932907 0.5883044600486755
0.2944037914276123 -0.1793486326932907 -0.04367351904511452
0.7272741794586182 -0.022425595670938492 0.08938470482826233
-0.5276959538459778 -0.0027698324993252754 -0.41298916935920715
-0.4930349588394165 0.10192568600177765 0.6052628755569458
0.7233615517616272 -0.09520706534385681 0.004072961863130331
0.3604665994644165 0.179454505443573 -0.14722470939159393
-0.5276959538459778 -0.10182993859052658 0.029209239408373833
-0.0951370894908905 -0.07127531617879868 -0.7633412480354309
0.9146748185157776 0.010333455167710781 -0.09837586432695389
0.7611500024795532 -0.09091022610664368 0.02550847828388214
-0.4761658012866974 -0.1793486326932907 0.4392247200012207
0.282392680644989 -0.03424203023314476 -0.5015400648117065
0.348972886800766 0.003453180193901062 0.6447387337684631
-0.5245512127876282 -0.14128477871418 -0.7633412480354309
0.08131960034370422 -0.10781656205654144 -0.7633412480354309
0.13145649433135986 -0.10846631973981857 -0.6437402367591858
0.19554641842842102 -0.0307476744055748 -0.6437402367591858
-0.4080948829650879 -0.07861722260713577 0.11822055280208588
-0.5276959538459778 -0.08806870877742767 -0.4203200042247772
-0.15152712166309357 -0.050932563841342926 0.7627150416374207
0.3316299021244049 0.179454505443573 -0.4088750183582306
-0.48683372139930725 -0.1793486326932907 0.585849940776825
0.282392680644989 0.034848809242248535 0.233809694647789
-0.5276959538459778 -0.04146675765514374 0.27492502331733704
0.282392680644989 0.01440757978707552 -0.3089330792427063
0.005280268844217062 0.010401161387562752 0.8889523148536682
-0.13597209751605988 -0.1793486326932907 0.8595869541168213
0.3152238726615906 0.179454505443573 -0.15195369720458984
0.4019937515258789 0.01962573081254959 -0.16001057624816895
0.4019937515258789 0.17030198872089386 -0.04438447952270508
0.34086287021636963 -0.1793486326932907 -0.05500984936952591
0.282392680644989 0.12564440071582794 -0.2521701455116272
0.01895383559167385 -0.059339527040719986 -0.6437402367591858
-0.4906764626502991 0.179454505443573 0.031302109360694885
-0.03327973559498787 0.04046083614230156 0.7730967998504639
0.37159520387649536 -0.1793486326932907 0.23662661015987396
-0.5276959538459778 -0.12655854225158691 -0.06384620070457458
0.282392680644989 -0.17631901800632477 0.04473496600985527
-0.4503351151943207 0.179454505443573 0.04258834570646286
0.34748801589012146 0.179454505443573 -0.1802661120891571
-0.43811357021331787 -0.1793486326932907 0.02031881920993328
-0.4598829746246338 -0.016311727464199066 -0.7633412480354309
-0.46299755573272705 0.02476220391690731 0.6656231880187988
0.13496024906635284 -0.16186292469501495 0.8497290015220642
-0.4080948829650879 -0.1100689172744751 -0.45168954133987427
0.3393888771533966 -0.03575150668621063 0.662055492401123
0.24577175080776215 -0.1701754927635193 0.7767301201820374
0.4649348556995392 -0.016107309609651566 0.09071172773838043
-0.22296792268753052 -0.09877221286296844 0.7349966764450073
-0.2345203310251236 -0.03787040710449219 -0.6437402367591858
-0.46222469210624695 -0.1793486326932907 -0.6136921048164368
-0.36837199330329895 0.179454505443573 0.74522465467453
-0.4162823259830475 -0.1793486326932907 0.3412293493747711
-0.1899401694536209 -0.11382812261581421 0.7500134110450745
0.7050159573554993 0.06858129799365997 0.06297560036182404
0.19336405396461487 -0.1793486326932907 0.7979468107223511
0.8237542510032654 -0.01660928875207901 0.09055441617965698
-0.0008127035107463598 0.04402704909443855 0.7686771154403687
-0.4080948829650879 0.0149623928591609 -0.14086109399795532
0.4019937515258789 -0.07181213051080704 -0.6639094948768616
-0.5239744782447815 -0.1420080065727234 0.48716631531715393
0.282392680644989 0.14243033528327942 -0.14580722153186798
-8.873902697814628e-05 0.010778837837278843 -0.7633412480354309
-0.5009263753890991 0.179454505443573 -0.5101494193077087
-0.5276959538459778 -0.04815487191081047 0.05374555662274361
0.4246397018432617 0.09061223268508911 0.026348784565925598
0.4019937515258789 -0.06665675342082977 -0.48493337631225586
-0.4080948829650879 0.09841963648796082 -0.33059558272361755
0.22593367099761963 -0.07094759494066238 0.7933347821235657
-0.5276959538459778 0.0026090643368661404 -0.7485523819923401
0.282392680644989 0.030055589973926544 -0.29076626896858215
-0.3550061583518982 -0.1793486326932907 -0.6929547190666199
0.5356759428977966 -0.04053958132863045 -0.08953804522752762
-0.08715774118900299 0.1581369787454605 0.8932701349258423
-0.429641991853714 -0.1793486326932907 0.5428292155265808
0.4019937515258789 -0.0525636300444603 0.16090461611747742
-0.4080948829650879 0.05646512284874916 0.3035375773906708
0.16183793544769287 0.011576805263757706 -0.6437402367591858
0.282392680644989 -0.1299508810043335 0.24481232464313507
0.7929123640060425 0.07512641698122025 -0.06217065453529358
0.4019937515258789 0.09829739481210709 -0.6271393299102783
0.4019937515258789 -0.02498759888112545 0.21642504632472992
-0.19987496733665466 -0.02913041226565838 -0.7633412480354309
-0.4080948829650879 0.126915842294693 -0.36931049823760986
-0.5276959538459778 -0.03472309187054634 0.15984532237052917
-0.1620132476091385 0.07590596377849579 -0.7633412480354309
0.9246795177459717 0.06079110503196716 -0.07708264887332916
0.4019937515258789 -0.17459210753440857 -0.0824684426188469
-0.046572569757699966 -0.029897216707468033 0.7739599943161011
-0.4080948829650879 -0.10209318995475769 -0.03826883062720299
0.5518153309822083 -0.04664188250899315 0.07964521646499634
-0.4080948829650879 0.046058885753154755 -0.5219721794128418
-0.5276959538459778 -0.019162919372320175 -0.22310109436511993
-0.4080948829650879 -0.00682724779471755 -0.17290359735488892
0.14843380451202393 -0.07312799990177155 -0.7633412480354309
0.282392680644989 0.041878800839185715 0.27323710918426514
0.1392924040555954 -0.1793486326932907 -0.7409953474998474
-0.2793559432029724 -0.1793486326932907 -0.645972490310669
-0.07452782988548279 0.0379549041390419 0.7741802930831909
-0.4080948829650879 -0.06987202912569046 0.3822363615036011
-0.5276959538459778 0.0720788910984993 0.23696550726890564
-0.4080948829650879 -0.09793838113546371 0.02632332779467106
0.4187878966331482 -0.011531454510986805 0.09124297648668289
0.1798858344554901 0.15975376963615417 -0.6437402367591858
-0.03340068832039833 -0.15689769387245178 0.7730245590209961
0.8287237882614136 -0.08710946142673492 0.035747092217206955
0.2791609466075897 0.0814119204878807 0.4754188358783722
-0.4080948829650879 0.09167241305112839 0.2298448532819748
0.38742488622665405 0.179454505443573 0.29286253452301025
0.4019937515258789 -0.04946738854050636 0.3318621516227722
-0.13731887936592102 0.179454505443573 -0.6499981880187988
-0.3423495590686798 -0.1793486326932907 0.6923916339874268
0.282392680644989 -0.05863023176789284 -0.3354652523994446
-0.5067824125289917 0.06018706411123276 -0.7633412480354309
0.11779545247554779 0.045277539640665054 0.8574223518371582
-0.0030314987525343895 0.042403340339660645 0.7691307663917542
0.40613624453544617 0.06348802149295807 -0.074405737221241
0.45958977937698364 -0.08762189000844955 0.03435984253883362
0.32164737582206726 -0.1793486326932907 -0.24664157629013062
-0.4080948829650879 -0.1416098177433014 0.0943131223320961
0.10278359055519104 0.179454505443573 0.7664827704429626
-0.4888225793838501 0.179454505443573 -0.40456873178482056
-0.18005841970443726 0.179454505443573 -0.6972286701202393
-0.4167824387550354 -0.1793486326932907 0.10474937409162521
0.1948564499616623 -0.05382725968956947 0.6588131785392761
-0.49670398235321045 0.179454505443573 -0.6217084527015686
-0.4080948829650879 -0.038910843431949615 -0.14868395030498505
-0.5249162316322327 0.10750190913677216 0.479532390832901
0.282392680644989 0.16695021092891693 -0.5418187975883484
0.282392680644989 0.16092674434185028 -0.12753815948963165
0.282392680644989 0.11079102009534836 0.24047036468982697
0.32062026858329773 -0.1793486326932907 0.6671026349067688
0.4019937515258789 0.0719865933060646 -0.5480533242225647
0.0765899270772934 0.15112069249153137 -0.6437402367591858
0.282392680644989 0.14414918422698975 -0.6159936785697937
-0.4743547737598419 0.179454505443573 0.016691789031028748
-0.056111764162778854 0.179454505443573 -0.6946935653686523
0.34833741188049316 0.179454505443573 0.3236795663833618
0.36312970519065857 -0.1793486326932907 -0.45239904522895813
0.29940086603164673 -0.1793486326932907 -0.5509128570556641
0.4019937515258789 0.1792568862438202 -0.6072258353233337
0.4019937515258789 -0.12688837945461273 -0.49514275789260864
0.282392680644989 -0.15926668047904968 -0.5370298027992249
0.8662646412849426 -0.01890418492257595 -0.09684517234563828
-0.4762669801712036 0.179454505443573 -0.46111536026000977
-0.4080948829650879 0.08919374644756317 0.22843524813652039
-0.1502949446439743 0.1541164666414261 0.7630124688148499
0.031335096806287766 -0.06256652623414993 0.7612296938896179
-0.5276959538459778 0.16042634844779968 0.23523855209350586
-0.05805179476737976 -0.14300429821014404 -0.6437402367591858
-0.04884054884314537 0.002416005590930581 -0.6437402367591858
0.4019937515258789 -0.15198442339897156 -0.6236321330070496
0.4019937515258789 0.03451612964272499 -0.13221745193004608
-0.36421144008636475 -0.1529277265071869 0.5972954034805298
0.28920063376426697 0.0220335703343153 0.7325922250747681
-0.10628321766853333 -0.1793486326932907 0.8196831345558167
0.37492674589157104 0.179454505443573 -0.5598111748695374
0.6787990927696228 0.09495639055967331 -0.01092156209051609
-0.3385634422302246 -0.10579107701778412 -0.6437402367591858
0.061159808188676834 0.179454505443573 0.8121487498283386
-0.5276959538459778 -0.10073890537023544 0.3959706127643585
-0.5276959538459778 -0.05314565822482109 -0.7623662352561951
-0.33095410466194153 0.10227885097265244 0.6466042399406433
-0.4080948829650879 -0.056595370173454285 0.21363157033920288
-0.47436362504959106 0.179454505443573 0.09554542601108551
-0.057405438274145126 -0.1793486326932907 -0.7510485649108887
0.047248948365449905 -0.1793486326932907 -0.7139559388160706
0.3948326110839844 -0.1793486326932907 -0.5878775715827942
0.282392680644989 0.05964032560586929 0.07500213384628296
0.4019937515258789 -0.009965438395738602 -0.23997926712036133
-0.5057557821273804 0.179454505443573 -0.6102235913276672
0.7500574588775635 0.03216271847486496 0.08618389070034027
-0.4080948829650879 -0.0037810583598911762 -0.4605015516281128
0.30153509974479675 0.179454505443573 0.5461736917495728
-0.5276959538459778 -0.019124343991279602 -0.5171401500701904
-0.18519319593906403 0.179454505443573 0.8152544498443604
0.282392680644989 0.05471081659197807 0.4054960310459137
-0.4080948829650879 0.14685219526290894 -0.34640583395957947
-0.1859511137008667 -0.020662769675254822 -0.7633412480354309
0.37410968542099 -0.1793486326932907 -0.09511136263608932
-0.3597876727581024 -0.0686093345284462 -0.7633412480354309
0.2984920144081116 0.10284467786550522 -0.7633412480354309
-0.40396735072135925 -0.031280361115932465 0.48191526532173157
-0.17057397961616516 -0.11248432844877243 0.8812733888626099
0.2699057459831238 0.08345892280340195 0.7536625266075134
-0.5276959538459778 -0.1279934048652649 0.022818751633167267
-0.4080948829650879 0.03567799553275108 0.40167272090911865
0.282392680644989 0.060289524495601654 -0.16888219118118286
-0.5276959538459778 0.17840339243412018 -0.475371390581131
0.22322364151477814 -0.008664772845804691 0.7954933643341064
0.20104199647903442 0.010792240500450134 0.6515724062919617
0.4019937515258789 0.1565481573343277 0.15526045858860016
-0.032118234783411026 -0.14127731323242188 0.8929343819618225
-0.24508556723594666 0.12495636194944382 0.7223244905471802
-0.0630882978439331 0.01416061632335186 0.893949568271637
-0.5276959538459778 -0.07871273905038834 0.26183250546455383
0.637478232383728 -0.0919918417930603 0.021309593692421913
-0.5276959538459778 -0.13018342852592468 -0.3106505274772644
-0.45472314953804016 -0.1793486326932907 -0.6952999830245972
0.24981433153152466 -0.15478640794754028 0.7731484770774841
-0.4080948829650879 -0.014412392862141132 -0.5832990407943726
0.10491818189620972 -0.1793486326932907 0.7540922164916992
0.282392680644989 -0.16446088254451752 -0.5214977264404297
-0.3059249520301819 -0.019024381414055824 0.8253071308135986
0.3766171336174011 0.17390042543411255 0.5804719924926758
-0.4080948829650879 0.08488056808710098 -0.41402867436408997
-0.5276959538459778 -0.12630784511566162 -0.3116607367992401
0.04137310013175011 -0.1369367390871048 0.8820812702178955
-0.022819070145487785 0.179454505443573 0.8422081470489502
0.4019937515258789 0.04479562118649483 0.27896860241889954
-0.5103985071182251 0.179454505443573 0.5232983231544495
0.5221491456031799 -0.018116597086191177 -0.09721499681472778
0.4019937515258789 -0.08246738463640213 0.14891020953655243
-0.40847575664520264 0.04705813527107239 -0.7633412480354309
0.6545809507369995 -0.08633079379796982 0.03698277845978737
-0.4030611515045166 -0.0670185536146164 0.48741406202316284
-0.10032132267951965 -0.1793486326932907 0.8588106036186218
0.4019937515258789 0.13717946410179138 -0.3026997447013855
0.282392680644989 -0.07853275537490845 -0.046455588191747665
-0.45215579867362976 0.179454505443573 -0.56720370054245
-0.4839843213558197 0.179454505443573 -0.5617460608482361
0.13822394609451294 0.12180203199386597 -0.7633412480354309
0.4019937515258789 -0.17692123353481293 0.1550556868314743
0.282392680644989 -0.07172991335391998 -0.3591221868991852
-0.5276959538459778 0.01643417216837406 -0.6828173398971558
0.007967623881995678 0.026688696816563606 0.8885044455528259
0.12529362738132477 -0.03871922194957733 -0.6437402367591858
0.2521516680717468 0.05450238287448883 0.7709352970123291
0.3930697739124298 0.02083652839064598 0.5192652344703674
0.0076965708285570145 -0.023882262408733368 -0.7633412480354309
-0.5276959538459778 0.09970992058515549 0.26126569509506226
0.061844054609537125 -0.09186051040887833 -0.6437402367591858
-0.5276959538459778 0.04818522557616234 -0.5782535076141357
-0.4080948829650879 -0.03021526336669922 0.2768656015396118
0.225242018699646 -0.10186497867107391 -0.7633412480354309
0.12289495766162872 0.16277727484703064 -0.7633412480354309
0.3760095238685608 0.179454505443573 -0.6913816332817078
-0.5276959538459778 -0.08910448849201202 -0.701257050037384
-0.13524457812309265 -0.11001845449209213 0.7667454481124878
-0.19454780220985413 -0.06172208860516548 -0.7633412480354309
0.13090428709983826 0.11019664257764816 0.8516234755516052
0.4019937515258789 -0.0024807918816804886 0.1600317358970642
0.10821022093296051 -0.02194800227880478 0.7289854288101196
0.11693278700113297 0.1668151617050171 -0.7633412480354309
0.6486184000968933 0.0023731759283691645 0.091920405626297
-0.4080948829650879 -0.10748058557510376 0.3486247658729553
-0.5004073977470398 0.179454505443573 -0.6865323185920715
-0.3844998776912689 -0.14037860929965973 -0.6437402367591858
-0.3232737183570862 -0.0062453229911625385 -0.7633412480354309
0.03296271711587906 0.179454505443573 0.8097726106643677
-0.5276959538459778 -0.15855345129966736 0.09922939538955688
-0.4127276539802551 -0.1793486326932907 -0.07552768290042877
0.07370031625032425 -0.089540496468544 0.7461714148521423
-0.5276959538459778 0.17530988156795502 0.06665747612714767
0.3556591868400574 0.179454505443573 0.4210624694824219
-0.5276959538459778 -0.05139010772109032 0.24331000447273254
0.2693003714084625 0.015912344679236412 0.5232563018798828
0.4442143142223358 -0.07149410247802734 0.05928049981594086
0.016871456056833267 -0.0685267299413681 0.8871430158615112
-0.4080948829650879 -0.0019411491230130196 0.2820083498954773
0.31201687455177307 0.179454505443573 -0.21578946709632874
0.0008108785259537399 -0.09973357617855072 -0.7633412480354309
0.37738174200057983 0.179454505443573 -0.1610276699066162
0.09936586022377014 0.11728450655937195 -0.6437402367591858
-0.4080948829650879 0.060356490314006805 -0.3073229193687439
0.4019937515258789 0.0005778302438557148 -0.597771167755127
0.27427852153778076 0.179454505443573 -0.7418842911720276
0.18772634863853455 -0.0932290330529213 0.8206028938293457
-0.4080948829650879 -0.02733970806002617 0.38813337683677673
0.3997263014316559 0.15020738542079926 0.47427695989608765
-0.5276959538459778 -0.13292811810970306 -0.019211657345294952
-0.3822293281555176 -0.09240332245826721 0.5600224137306213
-0.3906670808792114 0.0751943290233612 0.537219762802124
0.4019937515258789 0.11298184841871262 0.18195077776908875
0.11782946437597275 -0.1793486326932907 0.8497669696807861
0.3076058328151703 -0.1793486326932907 0.44471949338912964
0.282392680644989 -0.03631250187754631 0.07584043592214584
-0.4973752796649933 0.179454505443573 0.2353636473417282
0.282392680644989 0.00748787447810173 0.03233494982123375
0.4019937515258789 0.1662791520357132 0.4195817708969116
-0.2931828498840332 -0.06159466132521629 0.6862280964851379
0.08303329348564148 -0.1793486326932907 -0.6440145969390869
0.4019937515258789 -0.17921258509159088 0.32823413610458374
-0.3920350670814514 -0.08974263817071915 -0.6437402367591858
0.282392680644989 0.16385039687156677 -0.4780784547328949
-0.5276959538459778 0.15258464217185974 0.3613828420639038
-0.17368116974830627 -0.03115384466946125 -0.7633412480354309
-0.37361931800842285 -0.04060571268200874 0.7748525738716125
-0.5276959538459778 -0.15482479333877563 -0.181813046336174
-0.3850187063217163 -0.02533714845776558 0.7642566561698914
-0.4080948829650879 -0.000433863140642643 0.25877395272254944
-0.2578323781490326 -0.014669759199023247 0.8510878682136536
0.4019937515258789 0.05116249993443489 -0.3309277296066284
0.3259512782096863 -0.1793486326932907 -0.4383459985256195
0.3446619510650635 -0.1793486326932907 0.2697398364543915
-0.2812667191028595 -0.16187775135040283 0.696497917175293
-0.2046920657157898 0.179454505443573 0.8468185663223267
-0.33857014775276184 0.10981733351945877 0.8032868504524231
-0.2709811329841614 -0.1793486326932907 0.791397213935852
0.282392680644989 0.10662555694580078 0.344375878572464
0.054244983941316605 -0.1793486326932907 0.7679587602615356
-0.07389333099126816 -0.1793486326932907 -0.7107149362564087
0.20624686777591705 -0.0788772851228714 -0.7633412480354309
0.282392680644989 -0.10402355343103409 -0.588683545589447
0.4019937515258789 -0.0798536166548729 0.32967785000801086
-0.5276959538459778 0.05514399707317352 -0.6263843774795532
0.4019937515258789 0.14127999544143677 -0.47580572962760925
-0.3570767343044281 -0.07050476968288422 0.6097275614738464
-0.14889894425868988 -0.11143787205219269 0.7633733153343201
0.3596287965774536 -0.13440845906734467 0.6228799819946289
-0.48467817902565 -0.1793486326932907 -0.6299734711647034
0.4019937515258789 -0.1373903602361679 -0.49316033720970154
0.19170978665351868 -0.15997473895549774 0.8180156350135803
0.2080707848072052 -0.17847247421741486 0.6430049538612366
-0.4289588928222656 -0.1793486326932907 -0.42056915163993835
0.282392680644989 0.15084302425384521 -0.0969121903181076
0.4255397319793701 0.04754698649048805 0.07961319386959076
-0.4080948829650879 -0.1317664086818695 0.09010045230388641
-0.19011390209197998 -0.011349732987582684 0.8762180209159851
-0.23312683403491974 0.11397426575422287 -0.7633412480354309
0.4019937515258789 0.0035459226928651333 0.3370639681816101
-0.5276959538459778 -0.013602860271930695 0.2572821378707886
0.282392680644989 0.03227939084172249 0.32236266136169434
0.8578180074691772 0.09054481238126755 -0.03401889279484749
-0.2982010543346405 0.12922722101211548 -0.6437402367591858
0.24497802555561066 -0.1338309496641159 -0.7633412480354309
0.12545469403266907 -0.09216853976249695 0.7183594703674316
0.2923400402069092 -0.1793486326932907 -0.7032983899116516
0.2966010570526123 -0.1793486326932907 0.5926002264022827
0.4019937515258789 -0.10395411401987076 0.29079264402389526
0.42196547985076904 0.09318216145038605 0.017339013516902924
-0.47354888916015625 -0.1793486326932907 -0.011675044894218445
-0.11352837830781937 0.004882095381617546 -0.7633412480354309
-0.2737489938735962 0.05752101540565491 0.7024730443954468
-0.34728071093559265 -0.03869419917464256 0.7967398166656494
0.4016553461551666 -0.011239596642553806 0.44615310430526733
-0.1240171492099762 0.179454505443573 -0.6577281355857849
-0.1702556610107422 -0.05785110592842102 -0.6437402367591858
-0.5008723735809326 -0.1793486326932907 0.5606703758239746
0.1964809149503708 0.12558594346046448 -0.6437402367591858
-0.4080948829650879 -0.08251583576202393 -0.2186681628227234
-0.11392093449831009 -0.05025000497698784 0.7705445885658264
0.282392680644989 -0.13156025111675262 0.26107779145240784
0.4019937515258789 0.08121603727340698 0.12334132194519043
0.18443860113620758 0.04513346776366234 -0.6437402367591858
0.4019937515258789 -0.023818958550691605 0.14151379466056824
-0.44101107120513916 0.179454505443573 0.12697939574718475
-0.2730330228805542 0.1742389053106308 0.7030344605445862
0.35047420859336853 -0.13425832986831665 -0.7633412480354309
0.4019937515258789 -0.1232089102268219 0.1752491295337677
-0.4996686279773712 0.10885065048933029 -0.7633412480354309
-0.4128226339817047 0.179454505443573 0.30783337354660034
0.4019937515258789 -0.09336743503808975 -0.08765828609466553
-0.1311819702386856 -0.06933138519525528 -0.6437402367591858
-0.2390769124031067 0.016736455261707306 0.8592298030853271
0.3571113646030426 0.179454505443573 -0.006068335380405188
-0.45531362295150757 0.179454505443573 -0.35950130224227905
0.24126160144805908 0.15789638459682465 0.7806829810142517
-0.4080948829650879 0.01924370974302292 0.42796412110328674
0.282392680644989 0.0413733534514904 -0.15344154834747314
-0.5276959538459778 -0.004051187541335821 0.11689937114715576
-0.1403818130493164 -0.11346819251775742 -0.7633412480354309
0.29791849851608276 0.179454505443573 0.27812644839286804
-0.5276959538459778 0.045020490884780884 -0.30048760771751404
0.18504928052425385 -0.11613704264163971 -0.7633412480354309
-0.5118950605392456 -0.12623682618141174 0.5492454171180725
-0.018041808158159256 -0.1793486326932907 -0.7009503841400146
0.22222265601158142 0.179454505443573 -0.6585028767585754
-0.15184351801872253 0.09768266975879669 0.8853934407234192
0.4019937515258789 -0.10597740858793259 -0.07479263097047806
-0.5276959538459778 0.048127979040145874 -0.2605833113193512
0.2924098074436188 -0.1793486326932907 -0.34811103343963623
-0.4080948829650879 0.04698915407061577 0.07989952713251114
0.4019937515258789 -0.12457119673490524 -0.5575219392776489
0.08801942318677902 -0.1793486326932907 -0.7435347437858582
-0.1592419445514679 -0.1793486326932907 -0.650015115737915
-0.2696415185928345 0.031773146241903305 0.7055641412734985
-0.1996953934431076 0.16768541932106018 0.8733658194541931
0.26464369893074036 0.12140697240829468 -0.6437402367591858
0.09894953668117523 -0.1793486326932907 -0.7440744638442993
0.7715222239494324 0.09462589770555496 -0.01705048605799675
0.282392680644989 0.08881327509880066 -0.004129307810217142
0.2560849189758301 -0.044033825397491455 -0.6437402367591858
-0.2053736001253128 -0.1793486326932907 0.7998612523078918
0.2640318274497986 -0.07657330483198166 0.5399869084358215
-0.21194671094417572 -0.1793486326932907 -0.6704239845275879
-0.06864874064922333 0.11319256573915482 0.7743583917617798
0.4019937515258789 0.16054339706897736 -0.5543769598007202
0.282392680644989 -0.14024591445922852 0.4027266502380371
-0.5250090956687927 -0.033564966171979904 0.478974312543869
-0.4080948829650879 0.09542917460203171 -0.4867602586746216
-0.394610732793808 -0.04229636490345001 0.5246713161468506
0.5572322010993958 0.08270260691642761 0.04426147788763046
0.21005995571613312 -0.1793486326932907 -0.7542213797569275
0.4412849545478821 0.0734909251332283 0.05766540393233299
-0.1598271131515503 -0.05920279026031494 -0.7633412480354309
0.282392680644989 0.07884982973337173 0.29101747274398804
-0.4240266680717468 0.025495659559965134 0.7216446995735168
-0.5276959538459778 -0.04589684307575226 0.04638272896409035
0.38153430819511414 0.179454505443573 0.19890819489955902
0.282392680644989 0.12382978200912476 0.39076095819473267
0.8483314514160156 -0.016734275966882706 -0.0973828062415123
-0.5276959538459778 -0.06522643566131592 0.15651877224445343
-0.0089116794988513 0.179454505443573 -0.731177568435669
0.37922850251197815 0.179454505443573 -0.5387780666351318
-0.5276959538459778 -0.062140852212905884 0.16898265480995178
-0.5264485478401184 0.16234678030014038 -0.7633412480354309
-0.470144659280777 -0.06300488114356995 0.6530431509017944
0.2642532289028168 -0.12878060340881348 0.7593689560890198
-0.17871300876140594 -0.1793486326932907 -0.6731827259063721
0.19112926721572876 -0.005459389183670282 0.6629042625427246
0.354552298784256 -0.1793486326932907 -0.49392902851104736
0.4019937515258789 0.060224078595638275 -0.2889808118343353
-0.4964943826198578 0.179454505443573 -0.2894127070903778
0.048651162534952164 0.08180359750986099 -0.7633412480354309
0.24816857278347015 0.023880528286099434 0.5787907838821411
-0.01881016418337822 -0.1793486326932907 -0.7425626516342163
-0.45305049419403076 -0.019831107929348946 0.6817123293876648
-0.35404619574546814 0.179454505443573 0.7145317792892456
-0.3692995309829712 -0.17777977883815765 0.5878867506980896
0.29503706097602844 -0.1793486326932907 -0.08520908653736115
-0.4080948829650879 0.13902227580547333 0.3657382130622864
0.8106275200843811 0.0925724133849144 -0.02679927833378315
-0.5260767936706543 -0.15660881996154785 0.4670301079750061
0.282392680644989 0.02245234325528145 -0.08212995529174805
-0.4080948829650879 0.05253908410668373 0.2596829831600189
0.2180972844362259 -0.0013829601230099797 0.6295853853225708
-0.5276959538459778 -0.03431710600852966 0.25532495975494385
0.282392680644989 -0.062172356992959976 -0.41356876492500305
-0.5191075205802917 0.14759334921836853 0.5174881815910339
-0.26484426856040955 -0.08315685391426086 -0.6437402367591858
0.282392680644989 -0.11452719569206238 -0.3295254409313202
0.282392680644989 0.12136561423540115 -0.27449992299079895
0.282392680644989 0.1735726296901703 0.14296774566173553
0.40018296241760254 -0.06808310747146606 0.4691087305545807
0.970204770565033 -0.012287857942283154 -0.09804139286279678
-0.4080948829650879 0.02273426577448845 0.3233650326728821
-0.5276959538459778 0.14265453815460205 -0.3270874619483948
0.01836601458489895 0.10737369954586029 0.764683723449707
-0.5276959538459778 0.1190294474363327 0.12610213458538055
-0.268848180770874 0.0889761671423912 0.7061226963996887
-0.43154433369636536 -0.1793486326932907 0.3023347556591034
0.282392680644989 0.0682695284485817 -0.6231949329376221
0.4019937515258789 -0.023185763508081436 -0.345231294631958
0.4019937515258789 0.04342950880527496 -0.5200930237770081
0.26990386843681335 0.179454505443573 0.6370704174041748
0.3376461863517761 0.179454505443573 0.07918678969144821
0.500494122505188 0.05589162930846214 0.07404439151287079
0.1745634227991104 0.12518315017223358 -0.7633412480354309
-0.13443438708782196 0.179454505443573 0.7858374714851379
-0.027328336611390114 -0.09817961603403091 -0.6437402367591858
-0.27393633127212524 -0.04101165384054184 0.7022126913070679
0.2217404991388321 0.0033814588095992804 -0.6437402367591858
0.3313322067260742 0.1387730836868286 0.6754055023193359
-0.5267524123191833 -0.1793486326932907 0.28994831442832947
-0.4809356927871704 0.179454505443573 -0.18332064151763916
0.27781274914741516 -0.06404436379671097 0.4843847155570984
0.282392680644989 -0.1276187300682068 -0.5945834517478943
-0.13240131735801697 0.17223261296749115 0.7673222422599792
0.4019937515258789 0.044092997908592224 -0.2802453339099884
0.9999989867210388 -0.03523652255535126 -0.04796013981103897
0.8874901533126831 0.058709219098091125 0.0719142034649849
-0.035588230937719345 -0.03804820403456688 0.7732654213905334
-0.5276959538459778 0.10663872957229614 0.19297705590724945
-0.5276959538459778 -0.14598098397254944 -0.6635085940361023
-0.479122519493103 -0.1793486326932907 -0.23724637925624847
0.4019937515258789 0.11508124321699142 0.27294912934303284
0.27816084027290344 -0.049447450786828995 0.48197683691978455
-0.48396605253219604 -0.1793486326932907 -0.7304126024246216
0.3150204122066498 -0.1793486326932907 -0.7451195120811462
-0.5276959538459778 -0.014127926900982857 -0.5150308609008789
-0.5276959538459778 0.17643219232559204 0.2742312550544739
-0.3531307280063629 0.179454505443573 0.6634930968284607
-0.2860274612903595 -0.017805783078074455 -0.6437402367591858
-0.3811611831188202 0.15696772933006287 0.7678619027137756
0.4019937515258789 -0.01866052858531475 0.29571732878685
-0.4080948829650879 0.00496002146974206 -0.16741925477981567
0.38747161626815796 -0.1793486326932907 0.22841526567935944
-0.4909190833568573 0.179454505443573 -0.6747485399246216
-0.5195857882499695 0.007427855860441923 0.5154114961624146
-0.25241920351982117 0.179454505443573 0.7206189632415771
-0.5276959538459778 -0.04854908958077431 0.3807569444179535
-0.3131970763206482 -0.07843420654535294 0.6668773293495178
0.8953552842140198 0.09311113506555557 -0.02395004779100418
0.282392680644989 0.12043247371912003 -0.042669057846069336
0.3392675220966339 -0.0013608779991045594 -0.7633412480354309
-0.19934691488742828 0.0426655188202858 0.8735238313674927
0.1536894142627716 0.11869931221008301 -0.7633412480354309
0.4019937515258789 0.04876983165740967 -0.6941762566566467
-0.1787407547235489 -0.1793486326932907 -0.7223771810531616
