0.8057834506034851 0.04954863712191582 0.5577364563941956
0.747018039226532 0.023702848702669144 -0.6249657869338989
-0.2896953225135803 -0.11407008767127991 0.5361243486404419
0.5994835495948792 -0.11407008767127991 0.26814180612564087
0.15568606555461884 0.1150740385055542 0.3891427516937256
-0.10467193275690079 -0.03842348977923393 0.3257102072238922
-0.627779483795166 0.1150740385055542 -0.0083235502243042
-0.7530162334442139 0.1150740385055542 -0.021703854203224182
-0.920545220375061 -0.11407008767127991 -0.5261117815971375
0.9413673877716064 -0.04257090017199516 0.5335013270378113
0.9841097593307495 0.04321615770459175 0.47188127040863037
-0.5913414359092712 -0.11407008767127991 -0.4319666624069214
0.4834257662296295 0.1150740385055542 0.08280809968709946
-0.23967823386192322 0.04053153470158577 0.13603153824806213
0.31627076864242554 0.1150740385055542 0.28324007987976074
-0.9999989867210388 0.044100649654865265 0.2723208963871002
0.8226560354232788 0.1150740385055542 -0.5327118635177612
0.9242465496063232 0.1005689725279808 0.5443225502967834
-0.7657437920570374 0.07954446971416473 -0.6307205557823181
-0.973151683807373 0.1150740385055542 -0.29079386591911316
0.7304925918579102 -0.11407008767127991 -0.557789146900177
0.3726136386394501 -0.11407008767127991 0.03855615109205246
0.9890993237495422 0.018462182953953743 0.41026586294174194
-0.4053279459476471 -0.11407008767127991 -0.11123305559158325
0.9316906332969666 0.1150740385055542 0.3961634039878845
0.6738064289093018 -0.11407008767127991 0.12381036579608917
-0.6975743174552917 0.1150740385055542 -0.5655848979949951
-0.9999989867210388 0.047067154198884964 0.4522795081138611
-0.9993076324462891 -0.11407008767127991 0.27166301012039185
0.039324432611465454 0.1150740385055542 0.4149414896965027
0.09278950095176697 -0.11407008767127991 -0.2380131632089615
0.38875576853752136 0.1150740385055542 -0.1884647011756897
-0.7251109480857849 0.1150740385055542 0.4223443269729614
-0.06249731406569481 -0.11407008767127991 -0.2863752841949463
0.9890993237495422 -0.04989546537399292 -0.5980821847915649
0.43415912985801697 0.1150740385055542 -0.17770062386989594
0.3709147870540619 -0.11407008767127991 0.029525868594646454
0.35354083776474 0.1150740385055542 0.4371584951877594
0.18402187526226044 0.1150740385055542 -0.22041887044906616
-0.6127842664718628 0.1150740385055542 -0.25087204575538635
0.8580085635185242 0.1150740385055542 -0.14261867105960846
-0.12129969149827957 -0.0007792140822857618 0.5577364563941956
-0.47208118438720703 -0.11407008767127991 0.493070513010025
0.7313368320465088 -0.11407008767127991 0.3497535288333893
0.7071126699447632 -0.017746616154909134 0.5577364563941956
-0.9964230060577393 -0.0016263241413980722 -0.6770374774932861
-0.7274788618087769 0.11369352787733078 -0.6033492088317871
-0.9999989867210388 0.001127715571783483 -0.11041036993265152
0.7153071761131287 0.02016439102590084 -0.602462112903595
-0.8119275569915771 -0.11407008767127991 -0.04860015958547592
-0.09618526697158813 0.02389661781489849 0.5577364563941956
0.1754385381937027 -0.06095077097415924 0.5577364563941956
0.4052242040634155 0.04035208746790886 0.5577364563941956
0.15354466438293457 0.10004953294992447 0.2857878804206848
0.760316789150238 0.1150740385055542 0.5215029716491699
-0.2774735391139984 -0.11407008767127991 0.47524234652519226
-0.7802170515060425 0.1150740385055542 0.5224512815475464
0.32956311106681824 0.1150740385055542 0.37543192505836487
0.23490381240844727 -0.11056225001811981 -0.3611728250980377
-0.7927222847938538 -0.11407008767127991 0.2949175238609314
-0.9999989867210388 -0.02463550865650177 -0.37017887830734253
-0.5281351208686829 -0.11407008767127991 0.4267914593219757
-0.2559228539466858 0.1150740385055542 0.4584156274795532
-0.9999989867210388 -0.10771238803863525 0.21442575752735138
0.9890993237495422 -0.09672743827104568 -0.6114031672477722
-0.4803638160228729 0.1150740385055542 0.3781794011592865
0.16957154870033264 -0.11407008767127991 -0.06371091306209564
-0.11696859449148178 0.051917191594839096 0.5577364563941956
-0.5288615822792053 -0.11407008767127991 0.016987942159175873
0.6964743137359619 0.1150740385055542 0.2819938063621521
0.5596617460250854 -0.11407008767127991 -0.017954450100660324
0.7205191850662231 0.1150740385055542 -0.5110135078430176
0.5601415634155273 -0.11407008767127991 0.4896702468395233
-0.8186423182487488 0.1150740385055542 -0.2078114002943039
0.8889210224151611 0.1150740385055542 -0.5622679591178894
0.8418754935264587 0.1150740385055542 0.1257072538137436
-0.46462520956993103 -0.11407008767127991 -0.1634455919265747
-0.9798061847686768 -0.11407008767127991 -0.03286350145936012
0.2891148328781128 -0.11407008767127991 0.33287930488586426
-0.6050467491149902 0.1150740385055542 -0.4610152244567871
0.9862104654312134 0.1150740385055542 -0.6109890341758728
-0.5378786325454712 -0.11407008767127991 -0.15682639181613922
-0.9049537777900696 0.09423893690109253 0.5577364563941956
0.18037518858909607 0.1150740385055542 -0.14133502542972565
0.6065635085105896 0.1150740385055542 -0.0555843859910965
0.5731593370437622 0.1150740385055542 0.26049941778182983
-0.013245129957795143 -0.11407008767127991 0.5232395529747009
-0.6684455871582031 -0.11407008767127991 0.3317662179470062
-0.4584069848060608 -0.11407008767127991 -0.08825454860925674
0.6279466152191162 0.1150740385055542 0.4281786382198334
-0.33775854110717773 -0.11407008767127991 -0.07034584134817123
-0.6221137046813965 -0.11407008767127991 -0.09476696699857712
0.4980355501174927 0.08663392812013626 -0.48254913091659546
0.840355634689331 -0.11407008767127991 0.5236636400222778
-0.15572677552700043 -0.06405901908874512 0.29329776763916016
0.6068991422653198 0.1150740385055542 0.4359416663646698
0.5010418891906738 -0.11407008767127991 -0.0013043859507888556
-0.756881058216095 -0.11407008767127991 -0.14534421265125275
0.1304873675107956 0.1150740385055542 0.5354856848716736
-0.3875422477722168 0.04058590158820152 0.5577364563941956
-0.8853700160980225 0.1150740385055542 -0.02229740098118782
-0.30244067311286926 0.1150740385055542 -0.15236328542232513
-0.6596229672431946 0.1150740385055542 0.1380390226840973
0.3122061491012573 -0.039436981081962585 -0.3779732882976532
0.24487519264221191 -0.09170906990766525 0.5577364563941956
0.529982328414917 0.1150740385055542 0.16549555957317352
-0.20785483717918396 0.1150740385055542 -0.3078062832355499
0.18664495646953583 -0.04420739412307739 -0.3531036376953125
-0.7449358105659485 0.1150740385055542 -0.47193923592567444
0.6517374515533447 -0.11407008767127991 0.33641332387924194
-0.956203281879425 -0.11407008767127991 0.3360282778739929
-0.6242505311965942 -0.11407008767127991 0.2982535660266876
-0.17989936470985413 0.1150740385055542 -0.24557717144489288
-0.9794391989707947 -0.11407008767127991 0.1250433474779129
0.4637361466884613 -0.11407008767127991 0.5439267754554749
0.5316433310508728 -0.11407008767127991 0.4149525761604309
-0.8630999326705933 0.006119692698121071 -0.7110259532928467
-0.4870660901069641 -0.0352286621928215 -0.47337961196899414
0.29158008098602295 -0.11407008767127991 0.36182722449302673
0.1722186803817749 0.1150740385055542 -0.13573572039604187
0.504936933517456 -0.11407008767127991 -0.07612738758325577
0.5980188250541687 0.1150740385055542 0.4411658048629761
-0.933956503868103 0.1150740385055542 -0.2410496175289154
0.9585010409355164 0.1150740385055542 -0.5925307273864746
0.36399775743484497 -0.11407008767127991 0.4521152079105377
0.09090419858694077 0.09008751809597015 -0.10263758897781372
-0.8833819031715393 0.1150740385055542 0.05745994672179222
-0.8608707785606384 0.1150740385055542 -0.7040656208992004
-0.19570979475975037 -0.11407008767127991 -0.2946266233921051
-0.4956962764263153 0.10565946996212006 0.5577364563941956
-0.09744448959827423 0.1150740385055542 0.5570991039276123
-0.29587554931640625 0.004213922191411257 -0.37149134278297424
0.9890993237495422 9.853395749814808e-05 -0.2488761842250824
0.4757274389266968 -0.11407008767127991 -0.35334160923957825
-0.5786530375480652 0.1150740385055542 -0.3895992934703827
-0.3415830731391907 0.07267430424690247 -0.38274842500686646
0.5019998550415039 -0.11407008767127991 0.21230806410312653
0.7548481225967407 0.1150740385055542 -0.4245764911174774
0.5437089800834656 0.1150740385055542 -0.055091261863708496
-0.7190893888473511 -0.11407008767127991 -0.13240721821784973
0.5339594483375549 -0.08836560696363449 0.5577364563941956
-0.9999989867210388 0.05431247130036354 -0.09689532965421677
0.45121440291404724 -0.11407008767127991 -0.18085238337516785
0.6302052140235901 -0.11407008767127991 0.11620678752660751
0.25410500168800354 0.1150740385055542 -0.15061256289482117
0.9890993237495422 -0.06735669821500778 -0.6426545977592468
0.9890993237495422 0.0864172950387001 -0.4144313931465149
-0.7696136236190796 0.1150740385055542 -0.13970838487148285
0.334959477186203 0.1150740385055542 -0.09286965429782867
0.35813605785369873 -0.11407008767127991 -0.3049139082431793
-0.8071374297142029 -0.11407008767127991 0.29219117760658264
-0.9703251719474792 -0.003121910849586129 -0.7174550890922546
-0.0043031638488173485 -0.03977898135781288 -0.12301330268383026
-0.03462668135762215 0.1150740385055542 0.4340764284133911
-0.9304332137107849 -0.11407008767127991 0.5314242839813232
0.17326709628105164 -0.11407008767127991 0.4506462812423706
-0.8215256333351135 0.1150740385055542 0.5493769645690918
-0.0633895993232727 -0.11407008767127991 -0.16498342156410217
0.28176581859588623 -0.11407008767127991 0.1870182603597641
-0.18322576582431793 0.0956738144159317 -0.35107648372650146
-0.7016177773475647 0.1150740385055542 0.15736764669418335
-0.9363073706626892 0.1150740385055542 -0.10017947107553482
0.759263277053833 -0.11407008767127991 -0.026470240205526352
0.7865996956825256 0.1150740385055542 -0.15974168479442596
0.4093441367149353 0.1150740385055542 -0.22552260756492615
0.19004826247692108 0.09549597650766373 -0.3536229431629181
-0.48513197898864746 0.1150740385055542 -0.32864484190940857
-0.9926238656044006 -0.11407008767127991 -0.4259849488735199
-0.755266547203064 -0.04280649125576019 0.5577364563941956
0.8147280216217041 0.1150740385055542 -0.24978189170360565
-0.6031186580657959 -0.06447653472423553 0.5577364563941956
-0.9999989867210388 0.006271018646657467 0.13609999418258667
-0.17730455100536346 -0.10260451585054398 0.27307140827178955
0.9456078410148621 0.1150740385055542 0.18055464327335358
0.9890993237495422 -0.05665769428014755 -0.24334269762039185
-0.20327706634998322 -0.09162377566099167 -0.015396486967802048
0.17567282915115356 0.1150740385055542 0.28327393531799316
-0.74146968126297 -0.11407008767127991 -0.11522369831800461
-0.7871751189231873 -0.11407008767127991 0.3938489556312561
-0.8221231698989868 -0.11407008767127991 -0.4956585466861725
0.9697272777557373 -0.11407008767127991 -0.43307507038116455
0.3212968409061432 0.09523651003837585 -0.3802780508995056
-0.49958351254463196 0.012871324084699154 -0.47855451703071594
-0.9330976009368896 -0.11407008767127991 0.24427025020122528
-0.8748412132263184 0.1150740385055542 -0.1173456534743309
-0.5845527052879333 0.04581935331225395 -0.5180907249450684
0.45393192768096924 0.1150740385055542 -0.03962155058979988
0.7778697609901428 -0.11407008767127991 -0.09685039520263672
0.9176120162010193 -0.11407008767127991 -0.08841801434755325
0.9890993237495422 0.0012757076183333993 0.1887020617723465
-0.7349472045898438 0.1150740385055542 -0.5319627523422241
0.9890993237495422 0.038989920169115067 0.04157315567135811
0.8814036846160889 -0.11407008767127991 0.16059471666812897
0.9890993237495422 -0.054350655525922775 -0.3418040871620178
0.06944151222705841 -0.11407008767127991 0.533521294593811
-0.9902533292770386 -0.11407008767127991 -0.1488354206085205
0.7761985063552856 0.1150740385055542 0.2633987069129944
0.2619713842868805 0.1150740385055542 0.5342777371406555
0.217105895280838 -0.10586751252412796 0.035640183836221695
-0.8476690649986267 0.1150740385055542 0.3259598910808563
0.94296795129776 -0.11407008767127991 -0.1373995989561081
0.16611029207706451 -0.0597088560461998 0.5577364563941956
-0.44899410009384155 -0.0704590454697609 -0.4585188627243042
-0.31851842999458313 0.049789559096097946 -0.3768270015716553
-0.3242426812648773 0.1150740385055542 0.24250289797782898
0.43440067768096924 0.1150740385055542 -0.19838406145572662
0.6756666898727417 -0.11407008767127991 -0.5620614886283875
-0.8636786341667175 0.1150740385055542 0.10598143190145493
-0.8667905330657959 0.1150740385055542 0.5225059390068054
0.5883613228797913 -0.11407008767127991 0.034361034631729126
-0.42258545756340027 0.1150740385055542 -0.14077164232730865
-0.020127341151237488 -0.11407008767127991 0.5107195377349854
-0.19195057451725006 -0.11407008767127991 -0.3312584459781647
0.3060092329978943 -0.11407008767127991 -0.2537229657173157
0.4044307470321655 -0.11407008767127991 0.18011261522769928
-0.5563362836837769 0.1150740385055542 -0.46508973836898804
0.11522740125656128 0.09923961013555527 0.5577364563941956
0.7487655878067017 -0.11407008767127991 -0.18455904722213745
0.9890993237495422 -0.10764145851135254 -0.6453057527542114
-0.26267656683921814 -0.11407008767127991 0.09508778154850006
0.9815881848335266 -0.11407008767127991 -0.5558295249938965
-0.06224648654460907 0.05198584496974945 -0.11636494845151901
0.6894223690032959 0.1150740385055542 0.5369877815246582
0.47595667839050293 -0.11407008767127991 -0.3199760317802429
-0.9999989867210388 -0.08496472239494324 -0.14993488788604736
0.7915237545967102 -0.11407008767127991 0.13337229192256927
-0.165995791554451 0.09583965688943863 -0.06001265347003937
0.18986143171787262 0.1150740385055542 0.3544074594974518
-0.5771151781082153 -0.11407008767127991 0.17824852466583252
-0.9168444871902466 -0.11407008767127991 0.27560266852378845
0.7805365920066833 0.1150740385055542 0.2865547239780426
-0.3858548700809479 -0.04080723226070404 0.5577364563941956
-0.4462953507900238 -0.11407008767127991 0.2613144516944885
-0.22639819979667664 -0.11407008767127991 0.2434193640947342
0.9409517645835876 -0.11407008767127991 -0.1748364269733429
-0.9240882992744446 -0.059538133442401886 -0.7348542809486389
-0.9999989867210388 0.023387601599097252 0.40715426206588745
0.8511671423912048 -0.11407008767127991 0.3784690499305725
-0.9009438753128052 -0.11407008767127991 0.4619770050048828
0.025304732844233513 0.060392457991838455 -0.33933576941490173
0.9070324301719666 -0.11407008767127991 -0.3471023142337799
-0.3890223205089569 -0.10555188357830048 -0.40508216619491577
0.37211066484451294 -0.11407008767127991 -0.07474447041749954
0.3225291967391968 0.1150740385055542 -0.24948765337467194
-0.9999989867210388 -0.05144926905632019 -0.5982479453086853
0.4709723889827728 0.1150740385055542 -0.26195329427719116
0.5552850365638733 0.05445190891623497 -0.5089036226272583
0.8811492323875427 -0.11407008767127991 0.15150579810142517
0.37837716937065125 -0.06635681539773941 -0.4314028024673462
-0.9999989867210388 0.05181879550218582 -0.30063101649284363
0.5218604803085327 -0.11407008767127991 -0.45641136169433594
-0.2965734601020813 0.1150740385055542 -0.23860321938991547
-0.0034270095638930798 -0.0022916134912520647 -0.12320248037576675
-0.8435790538787842 0.1150740385055542 -0.34116119146347046
-0.38845548033714294 0.07770657539367676 -0.4246193766593933
0.4008864164352417 0.1150740385055542 -0.08682321012020111
0.9890993237495422 0.08413809537887573 -0.4942087233066559
-0.5097304582595825 -0.04425570368766785 0.5577364563941956
0.36005064845085144 -0.11407008767127991 -0.13777853548526764
-0.5194323658943176 0.1150740385055542 -0.024165794253349304
-0.26044341921806335 -0.11407008767127991 0.39544394612312317
0.6597155332565308 -0.11407008767127991 0.39733871817588806
-0.15117044746875763 0.1150740385055542 0.407365620136261
-0.24418292939662933 -0.11407008767127991 0.40947070717811584
0.8455386757850647 0.1150740385055542 0.3625572621822357
0.81241375207901 -0.11407008767127991 -0.34365543723106384
-0.9999989867210388 0.014658354222774506 -0.05335741862654686
-0.1466256082057953 -0.11407008767127991 -0.2574286162853241
-0.9866008758544922 0.1150740385055542 -0.04263678938150406
0.3781520128250122 -0.11407008767127991 -0.06685181707143784
-0.1816904991865158 -0.023423179984092712 -0.35085785388946533
-0.6203207969665527 -0.11407008767127991 -0.10714945197105408
0.8110184669494629 -0.036898039281368256 -0.6750561594963074
0.3581828773021698 -0.11407008767127991 0.06298602372407913
-0.9215503931045532 -0.11407008767127991 -0.07623784989118576
0.2522202730178833 -0.11407008767127991 0.0657896175980568
-0.46960246562957764 -0.06383109092712402 0.5577364563941956
-0.24850057065486908 0.03169989585876465 0.5577364563941956
0.9265553951263428 0.1150740385055542 0.09922979027032852
-0.9999989867210388 0.038105420768260956 -0.007120637688785791
-0.8678873777389526 0.10553742200136185 -0.7151584625244141
0.2162994146347046 -0.012553604319691658 -0.357828289270401
0.9300506114959717 0.1150740385055542 0.4582381248474121
-0.20230288803577423 0.1150740385055542 -0.3199305534362793
0.5184419751167297 0.1150740385055542 0.1562405824661255
-0.4850772023200989 0.061408501118421555 0.5577364563941956
-0.11940522491931915 -0.00773177295923233 0.31822773814201355
0.9795628190040588 0.1150740385055542 -0.4530932307243347
0.33838656544685364 -0.11407008767127991 0.2749370336532593
-0.7160276174545288 0.1150740385055542 -0.1227041482925415
0.7742171883583069 -0.11407008767127991 -0.536059558391571
0.17565074563026428 0.1150740385055542 0.4622967541217804
-0.2055208832025528 -0.002863124944269657 0.23637959361076355
-0.3188339173793793 -0.00405485276132822 0.5577364563941956
0.6393867135047913 -0.11407008767127991 -0.08415024727582932
0.18483488261699677 0.1150740385055542 0.2573297917842865
-0.5082195401191711 -0.11407008767127991 0.005607665050774813
0.5594137907028198 0.1150740385055542 -0.428507000207901
-0.7645128965377808 0.1150740385055542 0.4064037501811981
-0.9075986742973328 0.1150740385055542 0.27446088194847107
0.5878768563270569 -0.11407008767127991 0.3638967275619507
-0.8616910576820374 -0.10365880280733109 -0.7097415924072266
0.3116588592529297 -0.11295966058969498 -0.37783336639404297
-0.5428571105003357 0.03914828971028328 -0.4977455735206604
0.00952217262238264 -0.11407008767127991 -0.13998308777809143
0.2640799582004547 0.1150740385055542 -0.2944925129413605
-0.911129891872406 0.1150740385055542 -0.05598635971546173
-0.20862972736358643 -0.015574065037071705 -0.3547823131084442
0.7906795740127563 0.1150740385055542 0.12870614230632782
0.9890993237495422 0.09074155241250992 -0.300262451171875
-0.7897534370422363 -0.11407008767127991 0.43150198459625244
-0.5373153686523438 -0.09827031195163727 -0.49519139528274536
0.4058583378791809 0.03481503203511238 -0.44701245427131653
0.9791667461395264 -0.075429767370224 -0.6936533451080322
-0.7303901314735413 -0.11407008767127991 -0.49718549847602844
0.5766195058822632 0.079654760658741 -0.519601047039032
0.40033113956451416 0.1150740385055542 -0.38785138726234436
-0.8610244989395142 0.1150740385055542 -0.628786027431488
0.44477078318595886 -0.11407008767127991 -0.20078472793102264
-0.9999989867210388 0.05887281522154808 0.12053386867046356
0.2956450581550598 0.1150740385055542 -0.11476742476224899
-0.5220141410827637 -0.11407008767127991 0.24284790456295013
0.5990818738937378 0.019058017060160637 -0.5314656496047974
-0.1815394014120102 0.1150740385055542 -0.1743038296699524
-0.5215368866920471 -0.11407008767127991 -0.41737788915634155
0.580348789691925 -0.11407008767127991 0.35059162974357605
-0.62126225233078 0.1150740385055542 0.16459926962852478
-0.1351603865623474 -0.105295330286026 0.3085147738456726
0.6503539681434631 0.1150740385055542 -0.37555885314941406
0.5587643980979919 0.1150740385055542 -0.42173078656196594
0.8170297145843506 -0.11407008767127991 -0.17072179913520813
0.6042832732200623 -0.11407008767127991 -0.012711621820926666
0.4867928922176361 -0.11407008767127991 0.13120536506175995
0.5332793593406677 -0.043639443814754486 0.5577364563941956
0.3787105977535248 0.05400186777114868 -0.43807968497276306
-0.6014311909675598 -0.11407008767127991 0.12091357260942459
-0.568203330039978 -0.05558859184384346 0.5577364563941956
-0.40905383229255676 0.0910039022564888 0.5577364563941956
-0.6794477105140686 0.1150740385055542 0.548998236656189
-0.012690351344645023 0.1150740385055542 0.4027116000652313
0.26325738430023193 -0.07214939594268799 0.5577364563941956
-0.906066358089447 -0.11407008767127991 0.3543825149536133
-0.32537373900413513 -0.11407008767127991 -0.34097152948379517
0.8291165828704834 0.1150740385055542 0.04510518163442612
-0.08822250366210938 0.1150740385055542 -0.12978382408618927
0.9325990080833435 0.07385902851819992 -0.7310969233512878
0.8994047045707703 0.1150740385055542 0.34056395292282104
-0.9869922399520874 -0.11407008767127991 -0.5109428763389587
-0.4262813329696655 0.1150740385055542 0.11604265123605728
0.25755494832992554 0.1150740385055542 0.4578261077404022
-0.8801923990249634 -0.11407008767127991 0.17029210925102234
0.5593366622924805 -0.11407008767127991 -0.34758836030960083
0.37837716937065125 0.10918327420949936 -0.3993811309337616
0.7788292169570923 -0.11407008767127991 -0.08891367167234421
0.9890993237495422 0.11340174823999405 -0.487492173910141
-0.9568008184432983 -0.11407008767127991 0.2439158856868744
-0.821649432182312 -0.11407008767127991 -0.64000004529953
0.5984092354774475 0.1150740385055542 0.5546448230743408
0.34133023023605347 0.1150740385055542 0.1121569275856018
-0.39389026165008545 -0.11407008767127991 0.43352848291397095
-0.9999989867210388 0.0201797503978014 -0.33534884452819824
0.5953269004821777 -0.06950882822275162 0.5577364563941956
-0.8777547478675842 0.1150740385055542 -0.2545595169067383
0.979731559753418 0.08350985497236252 0.48385855555534363
0.18935570120811462 -0.07867170870304108 0.24420982599258423
-0.9812886118888855 -0.11407008767127991 -0.2538074553012848
-0.2409413456916809 0.062431707978248596 0.10972261428833008
-0.8530732989311218 -0.11407008767127991 -0.08624271303415298
-0.4581041932106018 -0.11407008767127991 0.43073415756225586
-0.31849434971809387 -0.11407008767127991 0.5128584504127502
-0.2607560455799103 0.1150740385055542 0.3263006806373596
0.8480797410011292 0.1150740385055542 0.022400833666324615
-0.9999989867210388 -0.056947119534015656 -0.18656466901302338
0.30585411190986633 0.1150740385055542 -0.1673978865146637
-0.9999989867210388 -0.07557239383459091 0.017168663442134857
-0.9999989867210388 -0.05451890081167221 -0.287030965089798
0.9890993237495422 0.09696666151285172 0.061332814395427704
0.12949159741401672 -0.11407008767127991 0.4120631515979767
0.5665254592895508 -0.11407008767127991 -0.44728079438209534
-0.9051772356033325 -0.09128701686859131 0.5577364563941956
-0.49186408519744873 -0.11407008767127991 -0.1283852756023407
0.19152024388313293 0.004117586649954319 0.5577364563941956
0.27472102642059326 -0.004109736066311598 -0.3692127764225006
-0.4065566062927246 -0.11407008767127991 0.24043089151382446
-0.29639932513237 -0.11297505348920822 -0.3716074228286743
0.429141640663147 -0.11407008767127991 0.3631123900413513
-0.829775333404541 -0.11407008767127991 0.10011576116085052
-0.6459536552429199 -0.11407008767127991 -0.4035318195819855
-0.7839694619178772 0.09021604806184769 -0.6445815563201904
-0.20961980521678925 -0.11407008767127991 0.48683881759643555
-0.9160934686660767 -0.11407008767127991 -0.5755436420440674
-0.5926045179367065 -0.0059337494894862175 -0.5222545266151428
0.9890993237495422 -0.08141821622848511 -0.43290019035339355
0.6783075332641602 -0.11407008767127991 -0.1693001240491867
0.20986267924308777 -0.0046098739840090275 -0.3567648231983185
0.4612526297569275 -0.08599438518285751 0.5577364563941956
-0.6072441935539246 -0.05942779406905174 -0.5299623012542725
-0.0890623927116394 0.1150740385055542 -0.16639061272144318
0.5179592967033386 -0.11407008767127991 -0.12996722757816315
-0.97810959815979 0.1150740385055542 -0.38971030712127686
-0.6695874929428101 0.1150740385055542 -0.22770430147647858
0.17372572422027588 0.1150740385055542 -0.19617745280265808
0.9453049302101135 -0.11407008767127991 -0.49137789011001587
0.5127800703048706 -0.11407008767127991 0.18984489142894745
0.2323140799999237 0.1150740385055542 0.46067023277282715
0.9890993237495422 0.05934281647205353 -0.3300160765647888
-0.9301778078079224 0.1150740385055542 -0.5128632187843323
0.644601583480835 -0.11407008767127991 -0.011931044980883598
-0.7700059413909912 -0.11407008767127991 0.14077436923980713
-0.22127917408943176 -0.04986828193068504 0.206227108836174
0.3402572274208069 -0.11407008767127991 -0.3244660794734955
0.5540658235549927 0.05758863687515259 0.5577364563941956
-0.8661627769470215 0.0011441578390076756 -0.7138029336929321
0.8932394981384277 0.09180662781000137 -0.7332197427749634
0.4074702560901642 -0.11407008767127991 0.09231974929571152
0.7423123121261597 -0.11407008767127991 0.31542423367500305
-0.5747100114822388 0.1150740385055542 0.04845236986875534
-0.8210658431053162 -0.11407008767127991 -0.4904004633426666
-0.3676551282405853 0.012258575297892094 0.5577364563941956
0.8698959350585938 0.1150740385055542 -0.016842782497406006
-0.47452467679977417 -0.11407008767127991 0.5083369612693787
-0.14426173269748688 0.11250091344118118 0.3023882210254669
0.819176971912384 -0.06517672538757324 -0.6819733381271362
0.2304050475358963 0.1150740385055542 -0.11812373995780945
-0.592459499835968 -0.11407008767127991 0.47361132502555847
-0.21319931745529175 0.0713433176279068 0.001378854038193822
0.587577760219574 -0.11407008767127991 0.44437357783317566
0.5291803479194641 -0.07088848948478699 -0.4964468777179718
0.32961395382881165 0.1150740385055542 0.5491674542427063
0.5105243921279907 0.1150740385055542 0.21490488946437836
0.06923352926969528 -0.11407008767127991 0.45805981755256653
-0.9617780447006226 -0.10678614675998688 0.5535728931427002
0.6366674900054932 0.08604682981967926 0.5577364563941956
-0.1142808198928833 -0.05888007581233978 -0.09653579443693161
-0.9616091251373291 0.1150740385055542 -0.07204005867242813
0.777414083480835 0.1150740385055542 -0.3397488594055176
0.31433185935020447 -0.11407008767127991 0.3659548759460449
0.15207083523273468 -0.11407008767127991 0.5277299880981445
0.8608646392822266 -0.11407008767127991 -0.5799733400344849
-0.926999568939209 -0.11407008767127991 0.4749055802822113
0.5638715624809265 -0.11407008767127991 0.47988882660865784
-0.3475266396999359 0.1150740385055542 -0.07556682080030441
-0.1742587834596634 -0.11407008767127991 0.2842657268047333
-0.7235133647918701 0.1150740385055542 0.35040730237960815
-0.7905429005622864 -0.11407008767127991 -0.6404881477355957
0.5008283257484436 -0.11407008767127991 -0.3478207290172577
-0.9999989867210388 0.010180806741118431 -0.1970464140176773
0.5642498135566711 0.1150740385055542 -0.03784291818737984
0.030866993591189384 0.07248617708683014 0.34480002522468567
0.45396342873573303 0.1150740385055542 0.43893834948539734
0.19811592996120453 0.0698823481798172 -0.005984306801110506
0.5684840083122253 -0.11407008767127991 0.5458826422691345
-0.8502926826477051 0.1150740385055542 -0.6818204522132874
0.2760372757911682 0.1150740385055542 0.11954207718372345
-0.853583037853241 0.1150740385055542 -0.6168224811553955
-0.9405225515365601 -0.11407008767127991 -0.492502897977829
-0.6237422227859497 0.1150740385055542 -0.22498449683189392
0.10624583810567856 0.05351879820227623 0.5577364563941956
-0.23180681467056274 -0.11407008767127991 0.37416425347328186
0.5234339833259583 0.1150740385055542 -0.07965147495269775
0.8466652631759644 0.05136672407388687 0.5577364563941956
0.8623643517494202 0.1150740385055542 0.545684814453125
0.39883002638816833 -0.11407008767127991 -0.14776016771793365
0.9133948087692261 -0.11407008767127991 0.5276268720626831
0.6166613698005676 -0.04900252819061279 -0.5411152243614197
0.24202995002269745 -0.10171342641115189 -0.362513929605484
0.095378078520298 0.1150740385055542 0.40218985080718994
0.09643351286649704 -0.0497305653989315 0.5577364563941956
0.8468111157417297 -0.11407008767127991 0.04493511840701103
-0.24074234068393707 0.08299505710601807 0.12064150720834732
-0.04506949707865715 0.11336877942085266 -0.33957353234291077
-0.9999989867210388 0.08887225389480591 0.30977460741996765
0.008204512298107147 -0.07160238921642303 -0.12289118021726608
-0.3269098103046417 0.1150740385055542 0.11820261180400848
0.6150686144828796 0.1150740385055542 0.5392734408378601
0.09759071469306946 -0.11407008767127991 0.4633851945400238
-0.7338612079620361 -0.11407008767127991 0.4464922249317169
0.661106288433075 0.1150740385055542 0.3345208466053009
-0.8869321942329407 -0.11407008767127991 0.19753068685531616
0.9890993237495422 -0.052307792007923126 0.3130963146686554
-0.5562378168106079 -0.11407008767127991 0.22276370227336884
0.9890993237495422 -0.07356437295675278 -0.21791720390319824
0.8802433609962463 -0.04992668703198433 -0.729341983795166
0.7887992858886719 -0.11407008767127991 -0.07042302936315536
0.3868917226791382 0.1150740385055542 0.24934172630310059
-0.06773209571838379 0.1150740385055542 0.5281650424003601
-0.4610151946544647 0.1150740385055542 0.18986450135707855
0.12258986383676529 -0.015463869087398052 0.30979955196380615
-0.5852306485176086 0.1150740385055542 -0.09803882986307144
0.45905524492263794 -0.11407008767127991 0.5507103204727173
-0.7108952403068542 0.1150740385055542 -0.5575366020202637
-0.2873273193836212 0.1150740385055542 -0.13678205013275146
0.9890993237495422 -0.022273346781730652 -0.5991356372833252
-0.5461421012878418 0.1150740385055542 0.04145299643278122
0.5569344162940979 0.1150740385055542 0.4467945098876953
-0.4979321360588074 0.1150740385055542 0.1020398810505867
-0.7468038201332092 0.00598280131816864 -0.6168837547302246
0.5433629155158997 0.1150740385055542 0.3341778516769409
0.9026792049407959 0.1150740385055542 -0.4714994430541992
0.7236091494560242 -0.11407008767127991 -0.49768510460853577
-0.1575445830821991 -0.06457068026065826 0.5577364563941956
-0.5001283288002014 0.1150740385055542 -0.25049832463264465
-0.6962864398956299 0.1150740385055542 -0.41050776839256287
0.0856533944606781 0.04808243736624718 0.3292745351791382
-0.10106690973043442 0.1150740385055542 0.5097985863685608
-0.6514426469802856 0.02827148512005806 -0.5548421144485474
-0.9997849464416504 0.10782179236412048 -0.6576568484306335
0.03827821463346481 -0.058379292488098145 -0.3396954834461212
0.21264326572418213 0.1150740385055542 0.007562045007944107
-0.6399431824684143 0.1150740385055542 -0.30808091163635254
0.08221638947725296 -0.05124910548329353 -0.10627404600381851
-0.8838308453559875 0.1150740385055542 -0.2898878753185272
0.8662975430488586 -0.11407008767127991 0.3867975175380707
0.09904162585735321 -0.03797701373696327 0.3231331706047058
0.7479701042175293 0.10163518786430359 0.5577364563941956
-0.03516141325235367 -0.11407008767127991 -0.3129924535751343
0.9204214215278625 -0.11407008767127991 -0.3462909758090973
0.9125128984451294 0.1150740385055542 0.28704217076301575
-0.2679841220378876 0.1150740385055542 0.4252186417579651
-0.04703541100025177 -0.11407008767127991 0.5205368399620056
0.9424974322319031 0.1150740385055542 0.5222518444061279
0.9890993237495422 -0.09280505776405334 -0.40941154956817627
-0.9456879496574402 0.1150740385055542 -0.10118641704320908
0.8362066149711609 0.1150740385055542 -0.6888030767440796
-0.41150686144828796 0.1150740385055542 -0.08964305371046066
-0.6652225852012634 0.03479656204581261 0.5577364563941956
0.8216359615325928 -0.050503361970186234 0.5577364563941956
-0.39109236001968384 -0.11407008767127991 -0.4296032190322876
-0.2302410900592804 0.07907690852880478 0.18233299255371094
0.5404592156410217 0.1150740385055542 -0.29754555225372314
-0.19868406653404236 -0.04426417499780655 -0.02229759283363819
-0.9999989867210388 -0.059912219643592834 0.4251500070095062
0.16405031085014343 -0.07691090553998947 -0.05117480456829071
-0.8292117118835449 0.1150740385055542 0.19033300876617432
-0.6347728371620178 -0.11407008767127991 -0.14034414291381836
-0.6297792792320251 0.1150740385055542 0.22552819550037384
0.21459248661994934 0.1150740385055542 0.4207572638988495
-0.53858482837677 -0.0659274011850357 0.5577364563941956
0.27623504400253296 0.0071798586286604404 -0.36954382061958313
0.5909551382064819 0.1150740385055542 0.013132714666426182
0.9135540723800659 0.1150740385055542 -0.596752941608429
0.2051400989294052 0.06246636062860489 0.21756738424301147
-0.19707787036895752 0.1150740385055542 -0.15884052217006683
0.9890993237495422 0.03815904259681702 -0.39671221375465393
0.9705621004104614 0.1150740385055542 -0.5513851642608643
0.37006446719169617 -0.11407008767127991 -0.1864405870437622
0.26318612694740295 0.02173146978020668 0.5577364563941956
0.6101996302604675 -0.11407008767127991 -0.04940243810415268
-0.9490997195243835 -0.11407008767127991 -0.11009509861469269
0.40396156907081604 0.1150740385055542 -0.19570712745189667
0.45649901032447815 0.1150740385055542 0.2541491687297821
-0.46970677375793457 -0.00017526044393889606 -0.46643131971359253
0.4621065855026245 0.03285720944404602 0.5577364563941956
0.35206297039985657 -0.11407008767127991 0.46648579835891724
0.8930878043174744 -0.11407008767127991 -0.23255854845046997
-0.8020521998405457 -0.11407008767127991 -0.0053301542066037655
0.2923271059989929 0.1150740385055542 0.1962701827287674
0.9890993237495422 0.03661184757947922 -0.1538480520248413
0.8130457401275635 -0.11407008767127991 0.07716860622167587
-0.12198711186647415 0.04459325596690178 0.31673359870910645
-0.44318610429763794 0.1150740385055542 0.12184245884418488
0.961147129535675 0.1150740385055542 0.0047124228440225124
-0.3803025782108307 -0.11407008767127991 -0.28314629197120667
-0.9708260893821716 -0.11407008767127991 -0.5860163569450378
-0.2244458943605423 0.03761063516139984 0.19867773354053497
-0.5188055634498596 -0.05874384194612503 -0.48684436082839966
0.09383733570575714 -0.08052337914705276 -0.34272828698158264
-0.4215066134929657 -0.11407008767127991 0.07145616412162781
0.9890993237495422 0.018999924883246422 -0.5571641325950623
-0.22881869971752167 0.1150740385055542 -0.05799642205238342
0.16626493632793427 -0.11407008767127991 0.4937913119792938
0.9890993237495422 -0.11153702437877655 0.4063943028450012
-0.3368832468986511 -0.11407008767127991 -0.2670026421546936
0.26013150811195374 0.1150740385055542 0.40448737144470215
0.2195921689271927 -0.0511554591357708 0.04314463585615158
0.8220210075378418 -0.11407008767127991 0.02969411574304104
0.3580349385738373 -0.11407008767127991 -0.020336806774139404
0.30138030648231506 0.1150740385055542 0.011863555759191513
-0.2293677031993866 0.062838613986969 0.5577364563941956
-0.8338669538497925 -0.11407008767127991 -0.5305124521255493
-0.950301468372345 0.01795785501599312 -0.7290196418762207
0.5194965600967407 0.1150740385055542 0.1547047644853592
-0.2843453586101532 0.1150740385055542 0.35634860396385193
0.3890099823474884 -0.11407008767127991 0.3672555387020111
0.40593358874320984 0.042781829833984375 -0.4470560550689697
0.7143446803092957 -0.11407008767127991 0.4495381712913513
-0.3354301154613495 -0.11407008767127991 -0.2710634469985962
-0.6933813691139221 -0.11407008767127991 0.20017579197883606
0.1426340639591217 0.05252780020236969 0.2951953113079071
-0.9999989867210388 -0.05825527012348175 0.3373486399650574
0.4032290279865265 0.025150153785943985 -0.44612738490104675
0.9854350090026855 0.1150740385055542 -0.3215377926826477
-0.9962686896324158 -0.11407008767127991 -0.20050358772277832
0.130646213889122 -0.11407008767127991 0.44117528200149536
0.21125461161136627 -0.06154957413673401 0.20430737733840942
0.03115498647093773 -0.11407008767127991 -0.13529565930366516
-0.24066519737243652 0.053399503231048584 0.5577364563941956
-0.3881559371948242 0.013045628555119038 -0.43494242429733276
0.883493185043335 0.1150740385055542 0.3714441955089569
-0.9399713277816772 0.1150740385055542 0.4008195102214813
0.7145067453384399 -0.11407008767127991 -0.16505037248134613
-0.5114157795906067 -0.11407008767127991 0.030591459944844246
-0.3011664152145386 0.1150740385055542 -0.27060073614120483
-0.3606683611869812 0.028924310579895973 0.5577364563941956
-0.9431800842285156 6.005720206303522e-05 -0.7310848236083984
-0.8876544833183289 0.03568340092897415 0.5577364563941956
-0.25305938720703125 0.1150740385055542 -0.2516086995601654
-0.20378148555755615 0.09925231337547302 -0.014650802128016949
0.3609490692615509 -0.046483710408210754 0.5577364563941956
0.09605339169502258 0.1150740385055542 -0.11180078983306885
0.4054320752620697 0.07739469408988953 0.5577364563941956
-0.5843273401260376 -0.11407008767127991 0.050146736204624176
0.5011141300201416 0.1150740385055542 -0.16205282509326935
0.9095280170440674 -0.11407008767127991 -0.26033487915992737
0.9890993237495422 -0.030331168323755264 0.07665354013442993
-0.5705268383026123 -0.11407008767127991 -0.3088580071926117
0.5377018451690674 -0.11407008767127991 0.092558354139328
0.22292134165763855 0.023948030546307564 -0.35901033878326416
0.9389528632164001 -0.11407008767127991 -0.3398340344429016
0.8810615539550781 0.1150740385055542 -0.4037013053894043
-0.6802451610565186 0.019729161635041237 -0.5723153352737427
-0.8696687817573547 0.1150740385055542 0.4501101076602936
0.8335558176040649 -0.11407008767127991 -0.5268545150756836
0.5062931776046753 0.1150740385055542 -0.24977706372737885
0.37283527851104736 -0.04069311544299126 0.5577364563941956
-0.923822283744812 -0.11407008767127991 -0.2648073136806488
0.3880190849304199 -0.06336522102355957 -0.4410932660102844
0.5968796610832214 -0.11407008767127991 0.4182862341403961
-0.44835594296455383 -0.11407008767127991 0.35280337929725647
0.9890993237495422 0.09023474156856537 -0.005170750431716442
-0.3860693573951721 0.1150740385055542 0.18776237964630127
-0.6164275407791138 0.1150740385055542 -0.029537532478570938
0.15737828612327576 0.1150740385055542 -0.3383089601993561
0.4087909758090973 0.062106817960739136 -0.44802939891815186
0.015166125260293484 -0.0014555207453668118 -0.12230628728866577
-0.32278770208358765 -0.11407008767127991 0.5021522045135498
-0.9617205262184143 -0.11407008767127991 0.07409562170505524
-0.13624930381774902 0.0977516770362854 -0.34551453590393066
0.6250970959663391 -0.08786576241254807 -0.5458750128746033
-0.15241116285324097 0.03302726149559021 0.2961340546607971
-0.9999989867210388 0.024102510884404182 0.29151350259780884
-0.8885242342948914 -0.11407008767127991 0.03852331265807152
-0.9999989867210388 -0.060873277485370636 0.2839910686016083
-0.9177934527397156 -0.11407008767127991 0.42981216311454773
-0.3965499997138977 -0.11407008767127991 -0.12820842862129211
-0.7174454927444458 0.1150740385055542 -0.11563996225595474
-0.19244492053985596 -0.11407008767127991 -0.28081953525543213
0.6005769371986389 -0.11407008767127991 0.5423440933227539
0.23203739523887634 0.1150740385055542 0.1331098973751068
-0.9765004515647888 -0.11407008767127991 -0.3856281638145447
-0.22941263020038605 0.05855235457420349 0.03942534327507019
-0.7690737843513489 0.1150740385055542 0.36777931451797485
0.374594122171402 0.1150740385055542 -0.15097419917583466
0.6831765174865723 -0.11407008767127991 -0.3448980748653412
0.2358289510011673 0.1150740385055542 0.3500468134880066
-0.419216513633728 0.1150740385055542 -0.10178177803754807
-0.29472899436950684 0.1150740385055542 0.10636457800865173
-0.9999989867210388 -0.06361886858940125 -0.002560305641964078
-0.5014133453369141 -0.031215643510222435 0.5577364563941956
-0.2657824158668518 -0.11407008767127991 0.15251269936561584
-0.9630787968635559 0.1150740385055542 -0.401847779750824
0.8911664485931396 -0.11407008767127991 -0.14114364981651306
0.36839696764945984 -0.0508464016020298 -0.3933587968349457
0.03685455769300461 -0.11407008767127991 -0.22020788490772247
-0.8236457109451294 -0.11407008767127991 -0.66495281457901
-0.7648969888687134 0.1150740385055542 -0.5181529521942139
-0.613810122013092 -0.11407008767127991 0.4528689682483673
0.3518698215484619 -0.11407008767127991 -0.09240549802780151
0.2229290008544922 0.024770529940724373 0.16948337852954865
-0.6878909468650818 0.1150740385055542 0.5157415270805359
0.7604902982711792 -0.11407008767127991 0.0656743273139
0.2978489100933075 0.1150740385055542 -0.1712319403886795
-0.23578336834907532 0.06466282904148102 0.06324499100446701
-0.5283561944961548 -0.11407008767127991 -0.2861475944519043
-0.6312958002090454 -0.11407008767127991 -0.4993659555912018
0.7757537961006165 0.1150740385055542 0.038773052394390106
0.44162437319755554 -0.028653737157583237 -0.45982497930526733
0.7779390811920166 0.1150740385055542 0.5406661033630371
0.7168200016021729 -0.11407008767127991 -0.2273647040128708
-0.6982531547546387 0.0745660662651062 -0.5837724208831787
-0.6611176133155823 0.1150740385055542 -0.19582919776439667
-0.31633880734443665 -0.11407008767127991 -0.3225747048854828
0.7309132814407349 -0.11407008767127991 -0.047520898282527924
-0.7233060598373413 -0.11407008767127991 0.49176040291786194
-0.7742971777915955 0.1150740385055542 -0.5625408887863159
0.4247863292694092 -0.11407008767127991 -0.11699788272380829
-0.37494122982025146 -0.11407008767127991 0.17001640796661377
-0.9999989867210388 -0.06064566969871521 0.4068162441253662
0.30087125301361084 -0.11407008767127991 -0.0838172435760498
-0.6294313669204712 -0.11407008767127991 0.07615482807159424
0.15933673083782196 0.1150740385055542 -0.07850104570388794
-0.8513526320457458 -0.11407008767127991 -0.0945291742682457
-0.6082707643508911 0.1150740385055542 0.10977328568696976
0.9097357988357544 -0.11407008767127991 -0.26706981658935547
-0.46821391582489014 -0.11407008767127991 0.20862910151481628
0.4995747208595276 -0.11407008767127991 -0.3217431902885437
-0.23759670555591583 -0.11407008767127991 0.37204626202583313
0.3332342803478241 0.1150740385055542 0.20454856753349304
-0.6748369336128235 -0.11407008767127991 0.2745562791824341
0.3515625596046448 -0.11407008767127991 0.1620660126209259
0.9142764806747437 -0.11407008767127991 -0.6640549302101135
-0.22011537849903107 0.09684817492961884 0.20871753990650177
-0.47021910548210144 -0.11407008767127991 -0.2250949591398239
-0.9959421753883362 -0.00954380165785551 0.518435001373291
0.37884560227394104 0.1150740385055542 -0.3011285364627838
-0.9999989867210388 -0.10718823969364166 0.08092785626649857
0.9890993237495422 -0.0470176562666893 -0.3115551471710205
-0.9036387801170349 -0.11407008767127991 -0.6320438981056213
-0.4930216372013092 0.1150740385055542 0.3923061490058899
-0.4813137352466583 0.031456273049116135 0.5577364563941956
0.6062764525413513 0.006253465078771114 0.5577364563941956
0.7082384824752808 0.031207816675305367 -0.5976449251174927
-0.5972033739089966 -0.11407008767127991 -0.04391751438379288
0.6355370283126831 -0.10805275291204453 -0.5518989562988281
0.27804136276245117 -0.11407008767127991 -0.2617873549461365
0.8734154105186462 0.1150740385055542 0.4824989438056946
-0.8210476636886597 0.1150740385055542 0.5326131582260132
0.9890993237495422 0.1054297611117363 0.006042763125151396
0.243602454662323 0.1150740385055542 -0.31460040807724
-0.3854575455188751 -0.11407008767127991 0.3841622769832611
0.9890993237495422 -0.04367723688483238 0.3313310742378235
0.17343273758888245 0.019753795117139816 0.26524922251701355
-0.9999989867210388 0.04658811166882515 -0.370870977640152
0.8752502799034119 -0.11407008767127991 -0.6601219177246094
-0.9975004196166992 0.07698440551757812 0.5146173238754272
-0.9999989867210388 0.062063656747341156 0.06307903677225113
-0.8024228811264038 0.05002335086464882 -0.6591283082962036
0.24325276911258698 -0.11407008767127991 -0.18447048962116241
-0.768893301486969 -0.11407008767127991 -0.5469168424606323
0.9872581958770752 0.1150740385055542 -0.512536346912384
-0.6647779941558838 0.1150740385055542 0.4598882794380188
-0.35688120126724243 0.1150740385055542 0.4756452739238739
0.7265346050262451 -0.11407008767127991 0.2811087965965271
-0.6718815565109253 0.05683928355574608 -0.5671156048774719
0.5875423550605774 -0.11407008767127991 -0.4529884457588196
-0.4363892078399658 0.1150740385055542 -0.06705055385828018
-0.9999989867210388 -0.053911469876766205 0.24704937636852264
-0.9756187796592712 0.1150740385055542 0.48210009932518005
-0.355241060256958 -0.11407008767127991 0.30477550625801086
-0.9301689863204956 -0.11407008767127991 0.33156564831733704
-0.16458222270011902 0.009354488924145699 -0.06131574884057045
-0.7615746855735779 0.04339327663183212 -0.627633810043335
-0.6949681639671326 0.1150740385055542 -0.4781704545021057
0.6914607286453247 0.1150740385055542 0.4096563458442688
0.6877189874649048 -0.11407008767127991 0.16263939440250397
0.18662172555923462 0.1150740385055542 0.532295286655426
0.6740615963935852 0.1150740385055542 -0.3058303892612457
0.43217676877975464 0.1150740385055542 -0.3647632896900177
-0.5176714658737183 0.1150740385055542 -0.24354229867458344
-0.24850085377693176 -0.11407008767127991 -0.19845743477344513
-0.231162428855896 0.1150740385055542 0.38335269689559937
-0.9055848717689514 -0.11407008767127991 -0.09951399266719818
0.6626452803611755 -0.11407008767127991 0.5196526646614075
0.04739846661686897 -0.11407008767127991 0.5159657597541809
-0.36212363839149475 -0.11407008767127991 -0.32420814037323
-0.2235623449087143 -0.011363537050783634 0.02368294633924961
0.8581447005271912 0.1150740385055542 -0.15908175706863403
-0.005879674106836319 -0.11407008767127991 0.42377346754074097
-0.9999989867210388 0.11222343146800995 0.21640132367610931
0.5074448585510254 0.1150740385055542 0.5530130863189697
-0.5113549828529358 0.1150740385055542 0.5391235947608948
0.6033660173416138 -0.11407008767127991 -0.5309474468231201
0.7034638524055481 0.1150740385055542 -0.4178633391857147
-0.5167779922485352 0.1150740385055542 -0.42750585079193115
-0.9350711703300476 -0.11407008767127991 -0.3229539692401886
-0.2763903737068176 -0.11407008767127991 0.5338364839553833
0.8410046100616455 0.1150740385055542 -0.08326920121908188
0.28109094500541687 0.049084872007369995 -0.370623379945755
-0.39268678426742554 0.1150740385055542 0.12855882942676544
-0.7041496634483337 -0.11407008767127991 -0.26818978786468506
0.4358987510204315 0.06991811096668243 -0.45769667625427246
-0.9999989867210388 0.11309241503477097 0.30465227365493774
0.7329273819923401 -0.11407008767127991 0.2978142201900482
-0.9347904920578003 0.09231182187795639 0.5577364563941956
-0.3233690559864044 0.11165071278810501 -0.37803664803504944
0.22916902601718903 -0.11407008767127991 0.06963040679693222
-0.6153103113174438 0.1150740385055542 0.5428120493888855
0.9890993237495422 0.03889824077486992 0.347324401140213
-0.973644495010376 -0.11407008767127991 0.12151877582073212
-0.9853430390357971 -0.11407008767127991 0.5136927366256714
-0.9999989867210388 0.037175919860601425 0.09678563475608826
-0.30264633893966675 0.1150740385055542 -0.020157327875494957
-0.027133328840136528 -0.015345558524131775 -0.3391539454460144
0.9496751427650452 -0.11407008767127991 -0.2179540991783142
-0.6695871353149414 0.1150740385055542 -0.0888974666595459
0.34162637591362 0.1150740385055542 0.25871896743774414
0.21492072939872742 0.037931375205516815 0.029113905504345894
-0.1516251564025879 -0.06507433205842972 0.5577364563941956
-0.9729537963867188 0.1150740385055542 -0.4441159963607788
0.10890312492847443 -0.09371721744537354 0.5577364563941956
0.1267022043466568 -0.11407008767127991 0.41792067885398865
0.6462411880493164 -0.08369159698486328 -0.5582143664360046
-0.7014456391334534 -0.11407008767127991 0.07484059035778046
0.6317281723022461 0.1150740385055542 -0.32407453656196594
0.42336511611938477 0.1150740385055542 0.4635486602783203
0.747946560382843 -0.11407008767127991 -0.3323505222797394
0.44857093691825867 0.1150740385055542 0.07593352347612381
-0.41333481669425964 0.07648160308599472 -0.44586417078971863
-0.1852705031633377 0.1150740385055542 -0.18162530660629272
-0.04173217713832855 0.1150740385055542 -0.12748582661151886
