0.1582055538892746 -0.44249793887138367 0.0552293136715889
0.21039153635501862 0.03973129019141197 -0.12102024257183075
0.31318795680999756 -0.5708925724029541 -0.1407216340303421
-0.5329149961471558 0.17034503817558289 0.09601406008005142
0.42683425545692444 -0.07633843272924423 -0.04916150122880936
-0.08315043151378632 0.9019380807876587 0.0008730169502086937
-0.12433391809463501 -0.24432098865509033 -0.1407216340303421
0.1382286101579666 -0.3973492383956909 -0.12102024257183075
-0.05358082056045532 -0.20487092435359955 -0.1407216340303421
0.48171526193618774 -0.5639448165893555 0.22867923974990845
0.5324950218200684 -0.7172095775604248 0.057031549513339996
-0.029563073068857193 0.49438875913619995 -0.12102024257183075
-0.017184702679514885 -0.21043771505355835 -0.1407216340303421
-0.5021020174026489 -0.5726714134216309 0.19250145554542542
-0.13833950459957123 0.8482761383056641 0.2117612063884735
-0.44751375913619995 -0.43887612223625183 0.035626120865345
0.5537752509117126 -0.8128939270973206 0.22867923974990845
-0.5443788170814514 -0.7927284240722656 0.21251416206359863
0.5956299901008606 -0.8278205394744873 -0.07904612272977829
0.002167047467082739 -0.3651019036769867 0.1809706836938858
-0.537121593952179 -0.7094666361808777 0.09758038818836212
-0.21031266450881958 0.5671308636665344 0.11448128521442413
0.10078836232423782 0.41817906498908997 -0.016739580780267715
-0.23472043871879578 -0.3553047776222229 -0.1407216340303421
0.2524148225784302 0.34795820713043213 0.16288618743419647
0.26562976837158203 -0.13747189939022064 -0.12102024257183075
0.5353512763977051 -0.6692876815795898 0.10638643056154251
0.8044936060905457 0.20223209261894226 -0.06071380525827408
0.029184382408857346 0.5643091201782227 -0.1407216340303421
0.6111580729484558 0.2851414978504181 0.1090487465262413
-0.013559059239923954 0.7743464708328247 -4.253291990607977e-05
0.6353882551193237 0.3020811676979065 -0.010420025326311588
0.13009081780910492 -0.15100769698619843 -0.12102024257183075
-0.7362663149833679 0.4663938581943512 -0.07556819915771484
-0.09908699989318848 -0.4642705023288727 0.1756564974784851
0.002439137315377593 -0.15978823602199554 -0.1407216340303421
-0.14106367528438568 0.8160476088523865 0.22867923974990845
-0.007958769798278809 -0.397052139043808 -0.00017264466441702098
-0.27414625883102417 0.106532022356987 -0.12102024257183075
-0.3658143877983093 0.13215301930904388 -0.1407216340303421
0.6417973041534424 0.10670464485883713 -0.0104762502014637
0.3277609646320343 0.08669087290763855 -0.12102024257183075
-0.5277389883995056 -0.7804543972015381 0.04105791077017784
-0.7917023301124573 0.4098737835884094 0.012754850089550018
0.029323529452085495 0.6615652441978455 -0.11601625382900238
-0.3159394860267639 -0.5997448563575745 0.1516607701778412
-0.28680843114852905 0.21697990596294403 -0.12102024257183075
-0.1630053073167801 -0.5114181637763977 0.21926483511924744
0.5500286817550659 0.014532683417201042 0.20980237424373627
-0.2691892087459564 0.41044196486473083 0.14914526045322418
0.5341746211051941 -0.7979959845542908 0.22867923974990845
0.2895581126213074 0.3236664831638336 0.1515442579984665
0.33487433195114136 0.3182379901409149 0.1619819849729538
0.6425783634185791 0.3012198507785797 0.18380597233772278
-0.29665616154670715 -0.3345138728618622 -0.1407216340303421
-0.46633321046829224 0.43405812978744507 0.20987817645072937
-0.4842929542064667 -0.6595714092254639 -0.12102024257183075
-0.017620857805013657 0.7850289940834045 0.12316597253084183
0.21039830148220062 -0.3170393109321594 -0.1407216340303421
-0.38261377811431885 -0.10592032223939896 0.11947286874055862
0.2359967976808548 0.34992489218711853 0.05119522660970688
0.6750472784042358 0.277488112449646 -0.09414792060852051
-0.13951894640922546 0.7749055624008179 0.22867923974990845
-0.7654112577438354 0.41238462924957275 0.16707350313663483
-0.21957045793533325 -0.5254790782928467 -0.12102024257183075
0.5145972371101379 0.2967086732387543 0.22439923882484436
-0.5108317732810974 -0.6862121820449829 0.18702618777751923
-0.10227341949939728 0.9891592860221863 0.05438467860221863
-0.5467497706413269 -0.7470766305923462 0.16798821091651917
0.43072953820228577 -0.6947411298751831 -0.04857637360692024
0.14367827773094177 0.34114164113998413 0.06843110173940659
-0.4398038983345032 -0.32931941747665405 0.17665185034275055
-0.3456709682941437 -0.04105273261666298 0.1994657963514328
0.044543493539094925 0.32932403683662415 -0.1407216340303421
-0.25604456663131714 -0.5800461173057556 0.06495259702205658
-0.5105157494544983 0.22378699481487274 -0.12102024257183075
-0.7674246430397034 0.4502841532230377 -0.043071307241916656
-0.02836027927696705 0.7578399181365967 -0.023665212094783783
0.5781466960906982 0.15433578193187714 -0.12102024257183075
0.45623743534088135 0.32354193925857544 0.05619829148054123
-0.1371101438999176 -0.4923172891139984 0.198919415473938
-0.6550817489624023 0.3102656602859497 0.08992918580770493
-0.5607860088348389 0.22298720479011536 -0.0860275849699974
0.4775536358356476 -0.738080620765686 0.08783234655857086
0.3541460931301117 -0.1927179992198944 -0.02487029694020748
-0.6872094869613647 0.4605173170566559 0.08994757384061813
-0.4817214906215668 -0.49305981397628784 0.16951723396778107
-0.3476318418979645 -0.04871243238449097 -0.026652781292796135
0.3590799570083618 0.3351805508136749 -0.033629752695560455
-0.6949254870414734 0.320298969745636 -0.10815994441509247
0.4315391778945923 -0.07286800444126129 0.21537227928638458
-0.21363592147827148 0.4747091829776764 0.11786524951457977
-0.04122012481093407 0.8470950722694397 0.21470347046852112
-0.07175353169441223 0.37591272592544556 -0.1407216340303421
-0.6206464767456055 0.43270131945610046 -0.07947791367769241
-0.4643750786781311 -0.42530035972595215 0.17591175436973572
-0.48396050930023193 -0.5018060803413391 0.011526256799697876
-0.24989691376686096 -0.5755115151405334 0.1509576141834259
0.22520886361598969 0.34749171137809753 -0.1407216340303421
-0.43517372012138367 -0.3906729221343994 -0.05787616968154907
-0.6271065473556519 0.25752705335617065 -0.06398632377386093
-0.4729558229446411 -0.4588190019130707 0.0780029222369194
0.8630936741828918 0.24545693397521973 0.22390693426132202
0.3927408456802368 -0.29422226548194885 0.06352321803569794
0.5553321242332458 -0.7772709131240845 0.16227544844150543
0.36384695768356323 0.3147673010826111 0.13103170692920685
0.034555718302726746 0.39628663659095764 -0.1407216340303421
0.7685074806213379 0.17568784952163696 0.09306321293115616
-0.6161250472068787 0.39449232816696167 -0.12102024257183075
-0.1134917289018631 -0.47489574551582336 -0.09736395627260208
0.7731289863586426 0.17909681797027588 0.18952330946922302
-0.8068523406982422 0.45500725507736206 -0.06621332466602325
-0.4183535575866699 0.09115443378686905 0.055144552141427994
-0.06691300123929977 0.7068531513214111 -0.12102024257183075
0.6156472563743591 -0.880466103553772 0.05656912177801132
0.3317232131958008 -0.0946977436542511 -0.1407216340303421
-0.6065282821655273 0.29479819536209106 -0.12102024257183075
0.3494798541069031 -0.23587949573993683 -0.013397564180195332
-0.09370570629835129 0.4965660870075226 -0.12102024257183075
0.07695277035236359 -0.017037123441696167 -0.1407216340303421
-0.468179315328598 -0.4401606619358063 -0.039760928601026535
0.7075535655021667 0.2735941708087921 0.18828897178173065
-0.10459953546524048 0.9006326794624329 0.15699413418769836
-0.7823373079299927 0.40120571851730347 -0.009467883966863155
-0.37615591287612915 -0.6686431169509888 0.09034257382154465
0.0602470226585865 -0.2314176708459854 -0.12102024257183075
0.3555833697319031 0.33559945225715637 0.1833045780658722
-0.6440570950508118 0.30006143450737 0.09906292706727982
0.09801637381315231 0.07324321568012238 -0.12102024257183075
-0.46660879254341125 0.10897333174943924 0.05611203983426094
0.11333620548248291 0.43094927072525024 0.22867923974990845
-0.13166122138500214 0.794922947883606 0.149932861328125
0.5457465648651123 -0.7520610094070435 0.02885359525680542
-0.09896834939718246 0.5343770384788513 -0.1407216340303421
0.49235519766807556 -0.5562079548835754 0.088067427277565
0.15710124373435974 -0.2447417825460434 -0.1407216340303421
0.35056811571121216 -0.10811297595500946 -0.00358521263115108
-0.3073985278606415 -0.30085131525993347 -0.1407216340303421
0.4245089590549469 -0.43320611119270325 0.04946814477443695
-0.10661368072032928 -0.20381218194961548 -0.12102024257183075
-0.5057883858680725 -0.7642631530761719 0.11649966239929199
-0.49826517701148987 0.2878175377845764 -0.1407216340303421
0.06240947172045708 0.5191155076026917 -0.11086486279964447
-0.5592483282089233 -0.7958990931510925 0.19582399725914001
0.381479412317276 -0.6652754545211792 0.22867923974990845
-0.23488065600395203 -0.5399539470672607 0.059144724160432816
0.46496060490608215 -0.48416027426719666 -0.06564351171255112
0.3374141752719879 -0.6352154016494751 0.19476789236068726
-0.11240663379430771 0.0449015274643898 -0.12102024257183075
-0.41051673889160156 -0.2943565845489502 0.21404577791690826
0.2352791726589203 -0.0746024027466774 -0.12102024257183075
-0.47337034344673157 0.11523168534040451 0.15822651982307434
-0.6785451769828796 0.3051377236843109 0.2184198945760727
-0.09495948255062103 -0.43674471974372864 0.09060654044151306
0.7507143616676331 0.1625632643699646 0.05738944932818413
0.09113761782646179 -0.40726637840270996 0.1371554434299469
-0.22082337737083435 -0.5540661811828613 0.15647153556346893
0.10279481112957001 0.4683357775211334 -0.12344645708799362
-0.054155509918928146 -0.406646728515625 0.17213287949562073
-0.5045996904373169 0.14413699507713318 0.14908626675605774
-0.14247296750545502 0.6121938228607178 -0.1407216340303421
0.823540449142456 0.21628153324127197 -0.042138613760471344
-0.43738365173339844 -0.39930543303489685 0.09598539769649506
-0.5517681837081909 -0.7666797637939453 0.06403283029794693
-0.08893467485904694 0.9725843667984009 0.09011877328157425
0.5010414719581604 0.13841533660888672 -0.1407216340303421
0.6987596154212952 0.1242402046918869 -0.029878541827201843
0.036979325115680695 0.5651968717575073 -0.1407216340303421
-0.7587829232215881 0.4062495529651642 0.14496922492980957
-0.3933780789375305 -0.1479683667421341 0.032874446362257004
0.11326096951961517 0.44080984592437744 -0.05767766758799553
-0.028842303901910782 0.8145413994789124 0.004415696486830711
0.4261426329612732 0.3073047995567322 -0.02047155611217022
0.12532292306423187 0.2680279314517975 -0.1407216340303421
-0.20391328632831573 0.5126882791519165 0.16716228425502777
0.3496575951576233 -0.18091332912445068 -0.023985231295228004
-0.1750631183385849 0.7048245072364807 0.1392884999513626
-0.49015045166015625 0.29801058769226074 -0.1407216340303421
-0.8217008709907532 0.47662824392318726 -0.08137399703264236
-0.30427393317222595 0.39480262994766235 0.22184783220291138
0.3886098563671112 -0.6826011538505554 0.1706697791814804
-0.48779532313346863 -0.596226155757904 0.12636415660381317
-0.7899410128593445 0.4728236496448517 0.0860452800989151
-0.19990184903144836 -0.47149911522865295 -0.1407216340303421
-0.3085229992866516 -0.6187554597854614 0.06961054354906082
-0.4226534962654114 0.08398689329624176 -0.1407216340303421
-0.42077597975730896 -0.7015559673309326 0.17306703329086304
0.3989686369895935 -0.07241156697273254 -0.012869085185229778
-0.3810305595397949 -0.17917612195014954 0.02130415476858616
-0.5561301708221436 -0.8013964891433716 0.06435539573431015
0.07275828719139099 -0.39025482535362244 0.03597138822078705
-0.5454502701759338 0.18392403423786163 -0.1407216340303421
-0.0769859179854393 0.8857253193855286 0.16600863635540009
0.8132215142250061 0.23315121233463287 -0.11979508399963379
-0.4624142348766327 -0.5172457695007324 -0.12102024257183075
0.48259079456329346 -0.5305275917053223 -0.14010851085186005
0.27564001083374023 0.21592354774475098 -0.12102024257183075
0.08765985816717148 -0.37720218300819397 0.21441501379013062
-0.40099143981933594 0.07508434355258942 0.07816983014345169
0.5335362553596497 -0.6645141243934631 -0.008322689682245255
0.4015576243400574 -0.552229106426239 -0.1407216340303421
0.6865667104721069 0.13972759246826172 0.0027076159603893757
-0.4477298855781555 -0.3602800667285919 -0.02762215957045555
0.026238782331347466 -0.19514364004135132 -0.1407216340303421
-0.4214235246181488 -0.33696117997169495 0.126142218708992
-0.5518757104873657 -0.7982583045959473 -0.09726759791374207
-0.31672731041908264 -0.6248072385787964 -0.08729805052280426
-0.058098938316106796 0.7002221345901489 -0.12102024257183075
0.33076027035713196 -0.18664701282978058 0.007363667245954275
0.4996556043624878 -0.7337868213653564 -0.1407216340303421
-0.536116361618042 0.20015348494052887 0.018061436712741852
-0.04044634476304054 -0.3965345621109009 0.044133588671684265
-0.5140001773834229 0.4199260175228119 0.003335346467792988
-0.45579516887664795 -0.3917851448059082 0.2081756740808487
-0.09046483784914017 0.9766086935997009 0.13680171966552734
-0.35966601967811584 0.4014381468296051 0.1314208060503006
-0.33616334199905396 0.41846492886543274 0.12501969933509827
0.5546636581420898 -0.8362973928451538 0.09271179139614105
-0.20904399454593658 0.49264636635780334 -0.0681147649884224
0.5328783392906189 -0.6627838015556335 0.05058414861559868
0.19579072296619415 -0.2621512711048126 -0.1407216340303421
-0.5613073110580444 -0.8052151799201965 -0.06000056117773056
0.4657219350337982 -0.4861624836921692 0.17798744142055511
-0.1361929476261139 0.8566612005233765 0.0988897979259491
-0.5090104341506958 -0.599657416343689 -0.034090474247932434
-0.49115797877311707 -0.7534713745117188 0.19533003866672516
-0.2874191105365753 0.392783522605896 0.17455169558525085
-0.4071491062641144 -0.2377042919397354 0.22867923974990845
-0.1429825872182846 0.7506987452507019 0.1516944020986557
0.8023129105567932 0.22510477900505066 0.1757061630487442
-0.30707550048828125 0.3951382040977478 -0.04365803301334381
-0.7670491337776184 0.4502391517162323 0.1528869867324829
-0.3367469608783722 -0.266685426235199 -0.1407216340303421
-0.35151609778404236 -0.510774552822113 -0.12102024257183075
0.0029427565168589354 -0.30644363164901733 -0.1407216340303421
0.2897641956806183 -0.5911114811897278 0.06475922465324402
0.5485092997550964 -0.7593269944190979 0.08255183696746826
0.43460962176322937 -0.4936967194080353 -0.1407216340303421
0.6026751399040222 0.1593339741230011 -0.1407216340303421
-0.7775130271911621 0.47133490443229675 -0.0682992935180664
-0.3323696553707123 0.3981682360172272 0.21526861190795898
-0.800682783126831 0.44503119587898254 0.03276771679520607
0.23349705338478088 0.25908833742141724 -0.1407216340303421
0.101655974984169 -0.41700199246406555 -0.08309616893529892
0.7849912643432617 0.26431775093078613 -0.09456571191549301
-0.2431246042251587 0.43895936012268066 -0.12029239535331726
0.5681383013725281 -0.8487692475318909 0.07563363760709763
0.14355842769145966 -0.4557861387729645 -0.13548320531845093
0.1161557137966156 0.43319666385650635 -0.021358078345656395
0.6044586300849915 0.07916268706321716 -0.03582417964935303
-0.019180309027433395 -0.3808481991291046 0.12261128425598145
-0.05815833434462547 -0.21784357726573944 -0.1407216340303421
0.42084723711013794 -0.621728241443634 -0.12102024257183075
-0.21288907527923584 0.4776265025138855 0.20592893660068512
-0.252312570810318 0.40842029452323914 -0.09058269113302231
-0.2047460973262787 0.588875412940979 0.02656940557062626
-0.16694222390651703 0.7365468144416809 -0.09337490797042847
-0.22358684241771698 0.20075882971286774 -0.1407216340303421
0.10216116905212402 -0.4174695909023285 0.15955591201782227
-0.5337527990341187 -0.7678933143615723 0.22867923974990845
0.3514969050884247 0.31623703241348267 -0.12102024257183075
-0.5039737224578857 -0.6594228744506836 -0.03424879163503647
-0.3314056098461151 -0.635634183883667 -0.10315785557031631
-0.19536562263965607 0.5460774898529053 0.11142417788505554
-0.44156602025032043 0.1126394271850586 -0.02819357067346573
0.8193167448043823 0.28004807233810425 0.017586974427103996
0.43346062302589417 0.3262704014778137 0.028236737474799156
0.4819365441799164 -0.6911817789077759 -0.1407216340303421
-0.7618367075920105 0.4694570004940033 0.04477722942829132
-0.4753442406654358 -0.46814873814582825 -0.06009138002991676
-0.4140107333660126 -0.4822468161582947 -0.12102024257183075
0.5512567162513733 -0.7111188173294067 -0.018016695976257324
0.40993204712867737 -0.059585001319646835 -0.12102024257183075
-0.2330772429704666 0.19708557426929474 -0.1407216340303421
0.25565603375434875 0.1058739721775055 -0.12102024257183075
-0.43309783935546875 -0.3825640380382538 0.12580761313438416
0.3661831021308899 -0.2798091173171997 -0.05643639340996742
-0.07175201922655106 0.7842696309089661 -0.12102024257183075
-0.5710358619689941 0.32857558131217957 -0.1407216340303421
-0.490757018327713 0.4369839131832123 0.09693402796983719
-0.5147915482521057 -0.6222397685050964 0.09556952863931656
-0.4787153899669647 0.15789024531841278 -0.1407216340303421
-0.20575200021266937 -0.05726488679647446 -0.12102024257183075
-0.5779027342796326 0.4275810122489929 0.07110757380723953
-0.44659000635147095 -0.3558274805545807 -0.1214902251958847
-0.39870166778564453 -0.24820385873317719 0.03405043110251427
0.0941510871052742 0.4910687804222107 0.04565593972802162
-0.1349550485610962 0.8020921349525452 0.22867923974990845
-0.4311649203300476 0.07616710662841797 0.0445093959569931
0.2960909307003021 -0.22805266082286835 -0.1407216340303421
-0.5052975416183472 -0.7394198775291443 0.004582822322845459
-0.09240210056304932 -0.4348583519458771 0.05707854405045509
-0.36663663387298584 -0.12294984608888626 0.19791093468666077
0.372165709733963 -0.2401096075773239 -0.10042771697044373
-0.5181952118873596 0.18356597423553467 -0.0038733372930437326
0.017150623723864555 -0.3785308599472046 0.22541239857673645
-0.45409688353538513 -0.4645915627479553 0.060936179012060165
0.5312533378601074 -0.6585100889205933 -0.12346986681222916
0.4885810613632202 0.31966742873191833 -0.056480567902326584
-0.5031262636184692 0.4384656846523285 0.17483115196228027
-0.41084644198417664 -0.21620410680770874 0.08566343784332275
-0.14276477694511414 0.31162187457084656 -0.12102024257183075
-0.21297378838062286 0.5567359328269958 0.09667583554983139
-0.40031489729881287 -0.17506539821624756 -0.0916653648018837
0.3378294110298157 -0.6001826524734497 -0.1407216340303421
0.5086402297019958 -0.5990375876426697 0.14950676262378693
0.619048535823822 0.06544338911771774 -0.09607453644275665
-0.4467571973800659 -0.7207203507423401 0.08075086027383804
-0.15252947807312012 0.23742100596427917 -0.12102024257183075
0.6979151964187622 0.2747487425804138 0.15043403208255768
-0.16160385310649872 0.6779594421386719 0.04490102455019951
0.5290799736976624 0.033905431628227234 -0.12102024257183075
0.4605315625667572 -0.05148251727223396 -0.08773016929626465
0.45865193009376526 -0.5230021476745605 0.010558826848864555
-0.7578921914100647 0.4054250121116638 0.17137210071086884
0.029722895473241806 -0.3447760343551636 0.05601685121655464
-0.08552775532007217 -0.3799068331718445 -0.1407216340303421
-0.37826064229011536 -0.16835609078407288 0.04930206388235092
0.5303704738616943 -0.6561881303787231 -0.04287508502602577
0.06841013580560684 0.48460134863853455 -0.12102024257183075
-0.31433728337287903 -0.24184811115264893 -0.1407216340303421
-0.3396909534931183 -0.6372939944267273 -0.1407216340303421
0.28282833099365234 0.20633132755756378 -0.1407216340303421
-0.5697380900382996 0.20442786812782288 0.15439163148403168
-0.5243896245956421 -0.6597322225570679 -0.07915474474430084
-0.41024693846702576 -0.2933027446269989 -0.05009609833359718
-0.46700575947761536 -0.43557655811309814 0.0664883553981781
0.38133957982063293 -0.10989639908075333 0.1388213187456131
0.5022986531257629 -0.7878294587135315 0.018537893891334534
-0.1858839988708496 0.6625553965568542 -0.039074718952178955
0.14718256890773773 -0.4322952926158905 0.22327297925949097
0.03924018517136574 -0.05083031952381134 -0.1407216340303421
0.7699202299118042 0.220195010304451 -0.1407216340303421
0.23901505768299103 -0.06535603106021881 -0.1407216340303421
0.3782758116722107 -0.25617918372154236 -0.017126040533185005
0.2145775854587555 -0.06472793966531754 -0.1407216340303421
0.4793691635131836 -0.7397609949111938 0.13333600759506226
-0.36886435747146606 -0.6632646918296814 -0.046791378408670425
-0.12900418043136597 -0.3259905278682709 -0.12102024257183075
-0.13767826557159424 0.5403088927268982 -0.12102024257183075
0.5543839931488037 -0.8122302293777466 -0.1407216340303421
-0.44578248262405396 -0.4505476653575897 -0.12102024257183075
-0.6048714518547058 0.23694665729999542 0.12278711050748825
-0.2057214379310608 -0.5184454321861267 0.12307300418615341
0.05575418472290039 0.430331289768219 -0.12102024257183075
-0.16789942979812622 0.6533674597740173 0.124000683426857
-0.24994896352291107 0.4123016595840454 0.20816496014595032
0.598452091217041 0.21853484213352203 -0.1407216340303421
-0.3713735044002533 -0.14145313203334808 0.1602306216955185
0.43127182126045227 -0.3955586850643158 0.2185877114534378
-0.03766687586903572 0.7596388459205627 -0.1407216340303421
0.22526629269123077 0.1886824667453766 -0.1407216340303421
-0.492506206035614 0.13294346630573273 0.14824876189231873
-0.3791385293006897 -0.0923452079296112 -0.06079299747943878
-0.44322293996810913 0.41144752502441406 -0.11927144229412079
-0.43716418743133545 -0.603704571723938 -0.12102024257183075
-0.45884108543395996 -0.48312345147132874 -0.05600568652153015
0.7041699290275574 0.1527121365070343 0.04279139265418053
-0.10445194691419601 0.9012091755867004 0.07822190970182419
-0.16073136031627655 0.6813676953315735 0.11702299863100052
-0.40717047452926636 -0.28128519654273987 0.18396130204200745
0.5522105693817139 -0.8071815967559814 -0.09697472304105759
0.20327308773994446 -0.48421165347099304 -0.09218280762434006
-0.1835378110408783 0.6717202663421631 0.22650673985481262
-0.8622642755508423 0.4814873933792114 -0.10113870352506638
-0.026060473173856735 -0.020947838202118874 -0.1407216340303421
-0.027457693591713905 -0.24758410453796387 -0.12102024257183075
0.5993050336837769 0.28656142950057983 -0.11562924832105637
-0.5576512217521667 -0.7908920049667358 0.22867923974990845
-0.026182234287261963 -0.13667714595794678 -0.12102024257183075
-0.07688174396753311 0.4555344581604004 -0.12102024257183075
-0.8212984204292297 0.47658005356788635 0.10247974842786789
0.11640246212482452 0.3771139681339264 0.21514691412448883
0.08805076777935028 0.2926084101200104 -0.1407216340303421
-0.3955696225166321 -0.4200722575187683 -0.12102024257183075
-0.22026272118091583 0.5282635688781738 -0.08329072594642639
-0.4267294108867645 -0.3576872646808624 -0.005454148165881634
-0.7827551960945129 0.401592493057251 0.13098257780075073
0.06916676461696625 -0.38693055510520935 0.029649296775460243
0.698804497718811 0.2944844365119934 0.13063427805900574
-0.5752766132354736 0.4471086859703064 -0.02073727548122406
-0.5040324926376343 -0.5802122354507446 -0.07438977062702179
-0.5063134431838989 0.43884748220443726 -0.13159924745559692
0.6371121406555176 0.28203240036964417 0.01653936319053173
0.14378368854522705 0.36097124218940735 -0.013899152167141438
-0.5435577630996704 -0.7921227216720581 0.09730366617441177
0.383556991815567 -0.10826079547405243 0.1892700493335724
-0.462844580411911 -0.4193219840526581 0.14554722607135773
-0.15906670689582825 -0.5085129737854004 0.10590966045856476
-0.21472595632076263 0.470451295375824 0.0011300698388367891
-0.06910685449838638 0.8236193656921387 -0.1407216340303421
-0.016204260289669037 -0.37865301966667175 0.10210007429122925
-0.6273249387741089 0.45334360003471375 -0.04525204375386238
0.0047224280424416065 0.7262662053108215 -0.06367466598749161
0.8163972496986389 0.2354937344789505 0.17318309843540192
-0.10885660350322723 0.9634437561035156 -0.012535890564322472
0.8724913001060486 0.2523888051509857 -0.13351331651210785
0.7082794904708862 0.27350717782974243 0.21422919631004333
-0.323635995388031 -0.6054219603538513 -0.09035737067461014
0.5415604710578918 0.00828638020902872 -0.041257306933403015
-0.5399388074874878 0.42303329706192017 0.10300174355506897
-0.3122970759868622 -0.621539294719696 0.13439778983592987
-0.2617541253566742 -0.5842576026916504 0.22083796560764313
-0.38370516896247864 -0.18962393701076508 -0.0895373597741127
-0.21815401315689087 -0.025124037638306618 -0.12102024257183075
-0.14124104380607605 -0.49536433815956116 -0.008014061488211155
0.33965983986854553 -0.3057875335216522 -0.1407216340303421
0.2039875090122223 0.280155748128891 -0.12102024257183075
-0.7550922632217407 0.3759882152080536 0.1800687313079834
0.1254122406244278 0.353418231010437 -0.04409949854016304
0.6210423111915588 -0.8946549296379089 0.22445014119148254
0.8077940344810486 0.26158615946769714 0.13946537673473358
0.6409063935279846 0.10604743659496307 -0.05585112422704697
0.09187670797109604 0.44161665439605713 0.05613322556018829
-0.15362249314785004 0.7361297011375427 -0.1407216340303421
0.38474199175834656 -0.32861900329589844 0.02288045547902584
-0.2579803764820099 -0.5569928884506226 0.15504011511802673
0.4479241371154785 -0.00932336412370205 -0.1407216340303421
0.38837483525276184 -0.28273963928222656 -0.055744946002960205
0.6711320281028748 0.14236794412136078 -0.1407216340303421
0.38138535618782043 0.33250856399536133 0.1485784947872162
0.5760018229484558 0.058172326534986496 0.0899890661239624
-0.19717173278331757 -0.5366201400756836 0.14470785856246948
0.003608816070482135 0.43873146176338196 -0.1407216340303421
0.052155643701553345 0.5460831522941589 -0.030995529145002365
0.08503857254981995 0.5150347352027893 0.20322811603546143
-0.5192171335220337 -0.7189674377441406 -0.0516379214823246
-0.38495898246765137 -0.11508128046989441 0.11324182152748108
-0.6142615079879761 0.28334325551986694 -0.1407216340303421
-0.6320306658744812 0.3302593231201172 -0.12102024257183075
0.3798934817314148 -0.6745333671569824 0.07549946755170822
-0.13544905185699463 -0.06505847722291946 -0.12102024257183075
0.46152886748313904 -0.026265675202012062 0.15169008076190948
-0.47879186272621155 -0.5283746123313904 0.22867923974990845
-0.4742622375488281 0.1429024636745453 0.12340271472930908
0.4002849757671356 -0.0959218218922615 0.08389803767204285
-0.37832456827163696 -0.16860593855381012 0.1441449075937271
0.27178695797920227 0.3217368721961975 -0.12102024257183075
0.3997957706451416 -0.3127766251564026 0.22129997611045837
-0.037065718322992325 0.8361690044403076 0.0008435891359113157
-0.48983868956565857 -0.6042079329490662 -0.08630090951919556
-0.27333593368530273 0.09588902443647385 -0.12102024257183075
0.4058455526828766 -0.09182020276784897 0.026373015716671944
0.3322291076183319 -0.20957472920417786 -0.1407216340303421
-0.8208507895469666 0.4765264093875885 0.05451288819313049
0.38153383135795593 0.14664657413959503 -0.12102024257183075
0.3076106607913971 -0.5158882737159729 -0.1407216340303421
0.8892160654067993 0.26472538709640503 0.09624534845352173
-0.28738048672676086 -0.6031602621078491 0.06003837287425995
0.37014561891555786 -0.29023054242134094 -0.015170183964073658
-0.018498079851269722 0.7873361110687256 0.01623106375336647
0.07431512326002121 0.5432373881340027 0.1741320788860321
-0.17495764791965485 -0.1940227448940277 -0.1407216340303421
0.46916937828063965 -0.49522924423217773 0.0012247883714735508
0.06566794216632843 0.5659794211387634 -0.14047564566135406
-0.10527503490447998 0.6018096804618835 -0.1407216340303421
0.5928239822387695 -0.8716180324554443 -0.05924433842301369
0.41531458497047424 -0.08483565598726273 0.1142171248793602
0.0033904032316058874 0.6009020805358887 -0.1407216340303421
-0.20529921352863312 -0.528918981552124 -0.1407216340303421
0.3581845164299011 -0.10249494016170502 0.08210933208465576
-0.5237835645675659 -0.7775368094444275 -0.13384054601192474
-0.39148515462875366 -0.22001433372497559 0.21323703229427338
0.34239456057548523 -0.6129798293113708 0.11169131845235825
-0.0030684119556099176 -0.2919071912765503 -0.12102024257183075
0.5067043304443359 -0.6493798494338989 -0.0777198076248169
0.47212183475494385 -0.5584278702735901 0.21827663481235504
0.2119027078151703 0.3232332170009613 -0.1407216340303421
-0.4001733660697937 0.047481898218393326 -0.003065799130126834
-0.16638508439064026 0.73872309923172 0.13730734586715698
-0.42059072852134705 0.42857858538627625 0.09545926749706268
0.7521639466285706 0.28809240460395813 0.054810360074043274
0.5299490094184875 0.30543968081474304 -0.1407216340303421
-0.07685895264148712 -0.3737412095069885 -0.12102024257183075
-0.03255226090550423 0.7325093746185303 -0.12102024257183075
-0.6414414048194885 0.2976403534412384 0.18479888141155243
0.5906270742416382 0.30744317173957825 -0.05051976069808006
-0.6954407691955566 0.32077595591545105 -0.11344144493341446
-0.4342261552810669 0.07900054007768631 -0.03523975610733032
0.5711967349052429 -0.7635611295700073 0.20056714117527008
0.6312848925590515 0.28273046016693115 -0.010918747633695602
0.7425888776779175 0.28923940658569336 0.06554711610078812
0.1944870948791504 -0.10664664208889008 -0.1407216340303421
-0.0352286659181118 0.16477635502815247 -0.12102024257183075
-0.18738113343715668 0.12680518627166748 -0.12102024257183075
-0.03038228489458561 -0.41359224915504456 -0.040962088853120804
0.15658555924892426 0.3395954966545105 0.13087430596351624
0.24775950610637665 0.3485158383846283 -0.06745406240224838
-0.4669334888458252 -0.711121678352356 0.21072863042354584
0.13592666387557983 0.24945129454135895 -0.12102024257183075
-0.5834324359893799 0.21710309386253357 0.06254121661186218
0.5036367177963257 -0.7622225880622864 -0.08110731840133667
0.8391129374504089 0.2522493004798889 0.0952947586774826
0.3155149519443512 -0.14655184745788574 -0.07408908009529114
0.07728888094425201 -0.392377108335495 -0.1407216340303421
0.06707045435905457 0.5622908473014832 -0.05127302184700966
-0.4782492518424988 -0.7194684147834778 0.2256714254617691
-0.37698253989219666 0.4233546853065491 0.024009257555007935
0.36446771025657654 0.3146929442882538 0.13334964215755463
0.27303120493888855 -0.5756237506866455 0.21240371465682983
0.19681388139724731 -0.07427066564559937 -0.1407216340303421
0.22241823375225067 -0.5287773013114929 0.21287529170513153
-0.29396024346351624 -0.596190333366394 0.22867923974990845
-0.08142638951539993 0.28034597635269165 -0.12102024257183075
0.6771954894065857 0.1328151375055313 0.12197647243738174
-0.4654998481273651 -0.5091343522071838 0.1939835250377655
0.14569072425365448 -0.2946723997592926 -0.12102024257183075
-0.4454977214336395 -0.7140875458717346 -0.1407216340303421
0.044078197330236435 0.6227604746818542 0.059764668345451355
0.37885621190071106 0.3129693269729614 0.13461428880691528
-0.36208534240722656 -0.02573104202747345 0.13159668445587158
0.10562792420387268 -0.2880609929561615 -0.1407216340303421
0.5900319218635559 0.0440400056540966 0.14680218696594238
0.18411709368228912 0.2894779443740845 -0.1407216340303421
-0.4386199712753296 -0.4041348695755005 -0.11785253882408142
-0.2226538360118866 0.43948298692703247 0.06509238481521606
0.41033774614334106 0.06873385608196259 -0.12102024257183075
0.14823319017887115 -0.4332676827907562 0.1805507093667984
0.5099349021911621 -0.6024424433708191 0.19034868478775024
-0.5514553785324097 0.4442550539970398 -0.08814544975757599
0.4984802305698395 -0.6277504563331604 0.049085184931755066
-0.46813955903053284 -0.590158224105835 -0.1407216340303421
-0.23804844915866852 -0.5667718052864075 0.060870442539453506
0.09252391010522842 0.4953482747077942 -0.02038338966667652
-0.020269490778446198 0.7365611791610718 0.08580856770277023
-0.18152645230293274 0.6001368165016174 0.11016295850276947
-0.37754619121551514 0.3618933856487274 -0.1407216340303421
-0.11071483045816422 -0.08792055398225784 -0.1407216340303421
-0.7990453243255615 0.4435156285762787 -0.024662446230649948
-0.4523939788341522 0.09882618486881256 0.22867923974990845
0.011825173161923885 0.7075859904289246 -0.054671406745910645
0.3731898069381714 -0.09351956099271774 -0.1407216340303421
-0.27376118302345276 -0.5686331391334534 0.047810956835746765
-0.22322407364845276 -0.5028048753738403 -0.12102024257183075
0.40104278922080994 -0.3160563111305237 -0.06701990216970444
-0.012761631049215794 0.1010856032371521 -0.1407216340303421
0.5090914964675903 -0.6556581854820251 -0.06217673793435097
0.5792146921157837 -0.8590214252471924 0.16765421628952026
-0.16607554256916046 0.7399322390556335 0.031216084957122803
0.4532040059566498 0.3040630519390106 -0.11742471903562546
0.03704259544610977 -0.26525774598121643 -0.1407216340303421
0.801810085773468 0.2623029947280884 0.1444990634918213
-0.4533974826335907 -0.701137125492096 0.2031073272228241
-0.1767822653055191 0.6981091499328613 0.201755553483963
0.5229975581169128 0.01907508634030819 0.16769260168075562
-0.3256359398365021 0.3920820951461792 -0.12102024257183075
-0.0067345802672207355 -0.37166792154312134 0.01311279833316803
0.6678146123886108 0.2783545255661011 0.22520232200622559
-0.3876199424266815 -0.20491589605808258 -0.013973109424114227
0.47158998250961304 0.30186060070991516 0.027652809396386147
-0.4650917649269104 -0.4280999004840851 -0.08755440264940262
-0.13793669641017914 0.7704092860221863 0.22488577663898468
-0.10628821700811386 0.8738440871238708 -0.12102024257183075
-0.08327814936637878 0.902273952960968 -0.06604904681444168
-0.23177996277809143 0.049779485911130905 -0.1407216340303421
-0.5255971550941467 -0.7438895106315613 0.16520407795906067
-0.3171321451663971 -0.6251058578491211 -0.07077531516551971
-0.59897381067276 0.43010517954826355 0.16313837468624115
-0.49185922741889954 -0.6121006011962891 -0.08221080154180527
-0.3321746289730072 -0.3679717183113098 -0.12102024257183075
-0.6164382696151733 0.4520394802093506 0.040852680802345276
0.39313846826553345 -0.2952679991722107 -0.0539141483604908
0.09562991559505463 -0.15804067254066467 -0.1407216340303421
0.5112074613571167 0.20159675180912018 -0.12102024257183075
0.3381121754646301 0.31785011291503906 0.11647254973649979
0.4588978886604309 -0.4682152271270752 0.1707935929298401
-0.5613910555839539 0.1967020034790039 0.07834718376398087
0.3445974886417389 -0.245524063706398 -0.12102024257183075
0.3695625066757202 -0.6649712324142456 0.20718888938426971
-0.46769243478775024 -0.5176992416381836 0.02183857560157776
0.2941170036792755 0.3231203854084015 -0.054373908787965775
-0.13485422730445862 0.8618905544281006 0.009226473048329353
0.049782656133174896 0.5523240566253662 0.11672506481409073
0.7002655863761902 0.12535101175308228 0.1545477658510208
0.03874484822154045 0.6367871761322021 0.07218804955482483
-0.6736133098602295 0.32741811871528625 0.014567160978913307
-0.08805045485496521 -0.45612969994544983 -0.1351192593574524
0.5738078951835632 -0.8258622884750366 -0.08934975415468216
-0.15255135297775269 0.38237684965133667 -0.12102024257183075
0.4847848415374756 0.05251326411962509 -0.12102024257183075
0.3572264313697815 -0.25625303387641907 0.20758330821990967
0.0930129736661911 -0.4090021848678589 0.21276739239692688
-0.03647701069712639 -0.4180878698825836 0.1442623734474182
0.6819531321525574 0.16403701901435852 -0.12102024257183075
-0.33735448122024536 -0.41952264308929443 -0.1407216340303421
0.42764222621917725 -0.7187287211418152 0.10974308848381042
0.6008654832839966 -0.8790609836578369 0.18656419217586517
0.2338215857744217 -0.47334662079811096 -0.1407216340303421
-0.3440135717391968 0.3995630145072937 0.19534535706043243
0.34813451766967773 -0.23234134912490845 0.12122457474470139
-0.7854377031326294 0.43092072010040283 -0.08065377920866013
0.23804378509521484 0.19577550888061523 -0.12102024257183075
-0.7962263822555542 0.4735766053199768 0.17302656173706055
-0.38376444578170776 0.4043249189853668 -0.013548366725444794
-0.48505061864852905 -0.5855045318603516 0.16097380220890045
-0.5316115021705627 -0.7833108305931091 0.17955578863620758
0.1182631328701973 0.3722204267978668 0.10179445147514343
0.6955561637878418 0.29487353563308716 -0.03826088458299637
-0.10412716120481491 -0.4340722858905792 -0.12102024257183075
0.2869161069393158 -0.3812183439731598 -0.12102024257183075
-0.8660576939582825 0.4819417893886566 0.008402165956795216
0.8853247761726379 0.2618550658226013 0.009161017835140228
-0.5088714361190796 0.1753474920988083 -0.12102024257183075
-0.4782998263835907 0.18520747125148773 -0.1407216340303421
-0.6246301531791687 0.2820802330970764 0.055131446570158005
-0.2119324952363968 -0.5230268836021423 0.03070092387497425
0.2728580832481384 0.34550923109054565 -0.09034283459186554
-0.5212862491607666 -0.7270498871803284 0.06303685158491135
-0.13720664381980896 0.7732611298561096 0.11948186159133911
0.6913769245147705 0.29537415504455566 0.044227235019207
-0.8264656662940979 0.47168007493019104 -0.1407216340303421
0.5513297319412231 -0.7113109230995178 0.020045053213834763
0.22047339379787445 -0.21216094493865967 -0.1407216340303421
0.04024621471762657 0.4845248758792877 -0.1407216340303421
0.43735140562057495 -0.7277154326438904 0.051078300923109055
0.5523984432220459 -0.8342007994651794 -0.01747807115316391
0.5121070742607117 -0.608155369758606 0.12148962169885635
0.3667429983615875 -0.22584782540798187 0.21251896023750305
-0.36474093794822693 0.014686292968690395 -0.047589898109436035
-0.17730766534805298 -0.4974867105484009 0.09567835181951523
-0.3655546307563782 -0.039283085614442825 0.10693459212779999
0.5560973882675171 -0.7238497734069824 0.18994960188865662
-0.3859473168849945 -0.11894203722476959 0.09415179491043091
-0.18084043264389038 0.22187718749046326 -0.12102024257183075
-0.4994717538356781 0.41818562150001526 0.1995040476322174
0.2823944687843323 0.3443668782711029 -0.06574346870183945
0.6259685158729553 0.07054775953292847 0.21190914511680603
0.35913264751434326 -0.24190059304237366 0.22867923974990845
0.3153826594352722 -0.587978184223175 0.22555842995643616
-0.3525465428829193 -0.0679105818271637 0.13193368911743164
-0.14742602407932281 0.056715428829193115 -0.12102024257183075
0.2960427701473236 -0.5510174036026001 -0.12102024257183075
-0.24992720782756805 -0.01835334114730358 -0.12102024257183075
-0.10781542956829071 -0.4462275803089142 0.07522185146808624
-0.0917874276638031 0.4657588005065918 -0.1407216340303421
-0.00833684578537941 0.1663985252380371 -0.12102024257183075
-0.06769543141126633 -0.4171883165836334 -0.1407216340303421
-0.4844393730163574 0.43622711300849915 0.18541933596134186
-0.08948171883821487 0.1596657782793045 -0.1407216340303421
-0.5185332298278809 0.1838788539171219 0.18132111430168152
-0.26579391956329346 0.2037380188703537 -0.12102024257183075
0.12008999288082123 0.37722301483154297 -0.1407216340303421
-0.4176434278488159 -0.24275493621826172 -0.13207431137561798
0.3501935601234436 -0.21169185638427734 -0.1407216340303421
0.5701434016227722 0.29005470871925354 0.2212812304496765
-0.06377667188644409 0.3077494502067566 -0.12102024257183075
-0.7182832360267639 0.4642396569252014 0.12116004526615143
0.4381895363330841 0.3257039189338684 0.18912045657634735
0.4663238823413849 -0.0472099594771862 0.20695342123508453
0.4624584913253784 -0.5330133438110352 0.019076988101005554
0.24744412302970886 -0.5519407987594604 0.22864238917827606
-0.4687038064002991 -0.4422095715999603 0.16455520689487457
-0.20106446743011475 -0.42879608273506165 -0.1407216340303421
0.305642306804657 -0.5789626836776733 -0.02455105260014534
-0.015571234747767448 -0.37818607687950134 0.07769182324409485
0.5866400003433228 -0.8344334959983826 0.22867923974990845
0.37722429633140564 -0.30884742736816406 0.030864102765917778
0.13982275128364563 0.370952308177948 -0.005412812810391188
-0.09457111358642578 0.9874081611633301 -0.10063163936138153
-0.08246984332799911 0.9555819034576416 0.032746389508247375
-0.38802337646484375 0.06308136880397797 0.13918882608413696
0.24578559398651123 0.2147933542728424 -0.12102024257183075
-0.2547663152217865 0.2414003610610962 -0.12102024257183075
-0.5284402966499329 -0.6755552291870117 -0.0030527410563081503
-0.3994123041629791 -0.1715395301580429 0.03389643505215645
0.11820938438177109 -0.05220191925764084 -0.12102024257183075
0.17387643456459045 0.3375241756439209 0.06440700590610504
-0.03321368247270584 0.7706044316291809 -0.05714336410164833
-0.5065448880195618 -0.6694665551185608 0.02983499877154827
-0.17848773300647736 -0.49835720658302307 0.1567121297121048
-0.5438247919082642 -0.7356507778167725 0.16573643684387207
-0.5221119523048401 -0.7302752137184143 -0.11839804798364639
-0.4305819869041443 0.18374848365783691 -0.12102024257183075
0.20736411213874817 0.33351263403892517 0.006333036348223686
-0.39799800515174866 -0.16601496934890747 -0.09854205697774887
-0.06977564841508865 0.5898339152336121 -0.12102024257183075
0.040380507707595825 0.16549044847488403 -0.1407216340303421
0.44951319694519043 -0.49896734952926636 -0.08256325125694275
0.13555368781089783 -0.4483771026134491 -0.06022607162594795
0.1874462366104126 0.33589860796928406 0.18448197841644287
0.3036794364452362 -0.5771459341049194 -0.053467776626348495
-0.479139506816864 0.354386568069458 -0.1407216340303421
0.09032250195741653 0.5011380314826965 0.13075700402259827
0.46823805570602417 -0.7134535908699036 -0.12102024257183075
0.40686967968940735 -0.33138102293014526 0.13611118495464325
0.3259802460670471 -0.17407558858394623 0.08108461648225784
0.4738611876964569 -0.04165026172995567 -0.010922129265964031
-0.7062235474586487 0.3307562470436096 0.1640716791152954
-0.373552143573761 -0.6667225360870361 -0.019205598160624504
0.447785347700119 -0.4389893114566803 -0.017541952431201935
0.2507482171058655 0.30750423669815063 -0.12102024257183075
0.3562573194503784 0.3156764805316925 0.13247428834438324
0.028481818735599518 -0.3456915020942688 0.06362384557723999
0.4934910535812378 -0.027170784771442413 -0.09859588742256165
-0.49305611848831177 -0.5373356342315674 -0.04747319594025612
-0.14017562568187714 -0.010443087667226791 -0.1407216340303421
-0.2483540177345276 -0.549892246723175 0.039675626903772354
-0.49711382389068604 0.22975295782089233 -0.12102024257183075
0.7497234344482422 0.1863134652376175 0.1239713504910469
0.5338380336761475 0.002590092597529292 -0.11037151515483856
-0.678826630115509 0.305398166179657 -0.13056765496730804
0.17771826684474945 -0.41287997364997864 -0.12102024257183075
-0.4167424738407135 0.4082753360271454 0.06362781673669815
-0.4440348744392395 0.3482251465320587 -0.12102024257183075
-0.37214481830596924 0.14483557641506195 -0.1407216340303421
-0.35897618532180786 0.4211977422237396 0.16990572214126587
0.3503931760787964 0.33622118830680847 0.17307396233081818
-0.2876724302768707 -0.2748509645462036 -0.12102024257183075
0.17242729663848877 0.14022685587406158 -0.12102024257183075
0.6093641519546509 0.28535640239715576 -0.07549828290939331
0.3233203887939453 -0.1670801043510437 -0.1071367859840393
-0.5236060619354248 0.16172891855239868 -0.07159025222063065
-0.3082479238510132 -0.325723260641098 -0.12102024257183075
-0.39946049451828003 -0.17172777652740479 0.21050164103507996
0.6033321022987366 -0.8480771780014038 0.12010341882705688
-0.1760171353816986 -0.13229705393314362 -0.12102024257183075
-0.7238361835479736 0.45326685905456543 0.22867923974990845
-0.3708275854587555 -0.5128916501998901 -0.1407216340303421
-0.298681378364563 -0.611496090888977 -0.12895232439041138
0.4591485261917114 -0.5243081450462341 0.1972525268793106
0.4336561858654022 0.06477418541908264 -0.12102024257183075
-0.017591606825590134 -0.4041575789451599 0.18338872492313385
-0.2057868093252182 0.5053699016571045 0.22696755826473236
0.6221369504928589 0.09220267832279205 0.13923455774784088
0.20312228798866272 0.353863000869751 -0.1392470747232437
0.3764638900756836 -0.2514137923717499 0.18476325273513794
0.2241000533103943 -0.5034886598587036 0.048835765570402145
0.37417444586753845 -0.2453925758600235 -0.0646955743432045
-0.022432832047343254 0.7976844906806946 0.07637201249599457
0.5433312654495239 -0.6902751326560974 0.18245504796504974
-0.8298976421356201 0.47761014103889465 0.04392276704311371
0.3476414680480957 -0.6178363561630249 0.033752430230379105
-0.16187575459480286 0.756337583065033 0.09201756119728088
-0.8071838617324829 0.4275590181350708 0.22867923974990845
0.4511404037475586 -0.05840965732932091 0.13522204756736755
0.40421220660209656 -0.09302502125501633 0.053448695689439774
-0.04667479917407036 0.8614409565925598 -0.08698432892560959
-0.6580167412757874 0.43717798590660095 0.19805121421813965
0.4762936234474182 0.3164893686771393 0.22867923974990845
0.4153363108634949 -0.3536483645439148 0.058658190071582794
0.6582075357437134 0.22850649058818817 -0.1407216340303421
-0.4773036241531372 -0.5877885818481445 -0.1407216340303421
0.09539227187633514 0.43237072229385376 0.13545843958854675
0.5865944623947144 -0.804057240486145 -0.04614182934165001
0.2505015730857849 -0.5547706484794617 0.21893994510173798
-0.022322436794638634 0.7973942160606384 -0.10967915505170822
-0.5149238109588623 -0.6227565407752991 0.1678767055273056
0.13671885430812836 -0.44945552945137024 -0.09832147508859634
-0.10561402887105942 0.97611004114151 -0.13916026055812836
-0.17844101786613464 0.6916295886039734 0.19052599370479584
-0.8457931280136108 0.459939181804657 0.13836617767810822
-0.5068286061286926 0.1462000161409378 0.21934404969215393
-0.3435022532939911 -0.6445570588111877 0.003267730586230755
-0.4621226191520691 0.14481660723686218 -0.1407216340303421
0.35669177770614624 0.3156244456768036 -0.06727451086044312
-0.4661855101585388 0.1912911981344223 -0.1407216340303421
0.06179891526699066 0.5207213163375854 -0.028214050456881523
0.4562871754169464 -0.7183967232704163 0.22710378468036652
-0.46266302466392517 0.4336184859275818 0.21782416105270386
0.13537783920764923 0.016827242448925972 -0.12102024257183075
-0.7543420791625977 0.4021390378475189 0.1037050411105156
0.39659038186073303 0.33068713545799255 0.17291082441806793
0.6409409642219543 0.3010900616645813 0.22867923974990845
0.5459066033363342 0.2929580807685852 -0.07945071905851364
-0.19846776127815247 -0.11447614431381226 -0.12102024257183075
0.556404709815979 -0.7800918817520142 0.19358941912651062
0.347690224647522 -0.23117280006408691 -0.03814465180039406
-0.44080185890197754 0.16171938180923462 -0.1407216340303421
-0.23731382191181183 -0.5417486429214478 -0.08979321271181107
-0.16978490352630615 -0.10958513617515564 -0.12102024257183075
0.12061206996440887 0.35756686329841614 -0.1407216340303421
0.4855308532714844 0.32003283500671387 0.011069996282458305
0.06168602406978607 0.0885704904794693 -0.1407216340303421
0.45030835270881653 -0.4456247389316559 0.010148199275135994
-0.5960904955863953 0.2556644380092621 0.19625581800937653
-0.22969533503055573 -0.15889135003089905 -0.12102024257183075
0.5823708176612854 -0.861942708492279 0.11798258125782013
-0.46852460503578186 -0.44150954484939575 -0.13734671473503113
-0.0857282355427742 -0.45441678166389465 -0.09318866580724716
0.5865533351898193 -0.8039489984512329 -0.0009102185722440481
0.009184015914797783 0.714532196521759 -0.0024212058633565903
0.466911256313324 -0.54472416639328 -0.06366334855556488
0.06590845435857773 0.565346896648407 0.07851589471101761
-0.1991659253835678 0.6106729507446289 0.08843520283699036
-0.5584280490875244 0.4450903832912445 0.18219758570194244
-0.4902477562427521 0.41708067059516907 -0.033637385815382004
-0.43990597128868103 0.08425769209861755 0.17854580283164978
-0.14813902974128723 0.5265882611274719 -0.1407216340303421
0.4490288197994232 -0.059967201203107834 -0.005733677186071873
-0.07226516306400299 -0.4444860517978668 -0.1030842736363411
0.20628143846988678 0.3336423337459564 0.17661720514297485
0.16518303751945496 0.35840779542922974 -0.08952465653419495
-0.12070038914680481 0.8377386927604675 -0.09738034754991531
0.3056398034095764 -0.18105623126029968 -0.1407216340303421
-0.13635121285915375 0.19314956665039062 -0.12102024257183075
0.05199543759226799 0.18469879031181335 -0.1407216340303421
