-0.6039245128631592 0.15352629125118256 0.24439086019992828
-0.08441513031721115 0.1235518828034401 -0.8468572497367859
-0.20869582891464233 0.12351395934820175 -0.8544724583625793
0.5557841062545776 0.15352629125118256 -0.22924718260765076
-0.31023433804512024 0.15352629125118256 0.4638930559158325
0.25276052951812744 0.09303048998117447 -0.1463272124528885
-0.638045608997345 -0.15476858615875244 -0.545454740524292
-0.8082677721977234 0.15352629125118256 -0.45778408646583557
-0.2776775062084198 -0.09983190149068832 -0.09726173430681229
0.1782684028148651 0.07502742111682892 -0.8521741628646851
-0.6932597756385803 0.03393324464559555 -0.9481214880943298
-0.8460771441459656 -0.05617469921708107 0.02490638755261898
-0.6254632472991943 -0.15476858615875244 -0.7774860262870789
0.8277025818824768 -0.15476858615875244 0.9477607607841492
0.005053600296378136 0.15352629125118256 -0.3822481036186218
-0.8496465682983398 0.10429441183805466 -0.13371871411800385
0.7808680534362793 0.15352629125118256 0.06750929355621338
-0.010256867855787277 0.11381503194570541 0.2919779121875763
-0.4174436628818512 0.15352629125118256 0.4399047791957855
-0.07180991023778915 -0.15476858615875244 -0.6335709691047668
0.7226433157920837 -0.15476858615875244 0.8297475576400757
0.8474958539009094 0.039132483303546906 -0.13779327273368835
-0.5500561594963074 0.15352629125118256 0.6255186200141907
-0.07868076860904694 -0.15476858615875244 0.6981645226478577
-0.009276163764297962 0.0009533860720694065 0.8441016674041748
-0.13932928442955017 0.15352629125118256 0.3779749572277069
-0.19352512061595917 0.15352629125118256 -0.5537508726119995
0.16742278635501862 -0.15476858615875244 -0.5609546899795532
0.4360552728176117 0.0918477401137352 -0.8858978748321533
-0.9745544195175171 0.1276431828737259 0.771671712398529
-0.8998895287513733 0.15352629125118256 0.7094706892967224
0.6806942820549011 -0.15476858615875244 0.1869783103466034
0.282802015542984 0.15352629125118256 -0.2091067135334015
-0.8501977324485779 -0.11348743736743927 0.1420067995786667
0.20113922655582428 0.15352629125118256 -0.5871465802192688
0.3156904876232147 -0.15476858615875244 0.49234917759895325
-0.9233785271644592 -0.03838823363184929 -0.6032425761222839
-0.3453066945075989 -0.026681050658226013 -0.8703798651695251
0.3844064772129059 -0.0894201397895813 0.8754833936691284
-0.8507685661315918 0.07098181545734406 0.15121899545192719
0.23595793545246124 -0.15476858615875244 -0.30844151973724365
0.18101835250854492 -0.12681131064891815 -0.229773610830307
0.7005727887153625 0.15352629125118256 -0.005261214915663004
0.7593184113502502 0.11060202866792679 -0.9700296521186829
-0.8845586180686951 -0.136505588889122 -0.42799317836761475
0.33633750677108765 0.15352629125118256 -0.10804373770952225
-0.3562919497489929 0.15352629125118256 0.44573667645454407
0.6474905014038086 -0.15476858615875244 -0.10454464703798294
0.7536300420761108 0.15352629125118256 -0.3907681703567505
0.7626274824142456 -0.15476858615875244 0.9484373331069946
0.29373306035995483 -0.15476858615875244 -0.011072326451539993
0.08418808877468109 -0.15476858615875244 -0.5792255997657776
-0.07082244753837585 -0.15476858615875244 0.7756187319755554
-0.53873211145401 -0.15476858615875244 -0.8529773950576782
0.0699186772108078 0.11966504156589508 -0.2846966087818146
-0.4449847936630249 -0.15476858615875244 0.656042754650116
-0.7313652038574219 -0.15476858615875244 0.06703367084264755
0.43800172209739685 -0.15476858615875244 0.6857239007949829
-0.8674774765968323 -0.0924062505364418 -0.32021284103393555
0.8436915278434753 -0.12065988034009933 -0.02727416530251503
0.23789070546627045 0.14638762176036835 -0.16940899193286896
-0.16074034571647644 0.15352629125118256 0.7676653265953064
-0.676613986492157 0.15352629125118256 -0.7168191075325012
-0.24439366161823273 0.06902887672185898 0.16207201778888702
0.10077828913927078 0.02012307196855545 -0.8475919961929321
-0.7785234451293945 -0.06266994029283524 -0.9757673144340515
0.5271812081336975 0.15352629125118256 -0.8193718791007996
-0.9558609127998352 -0.02981819026172161 -0.8880487084388733
-0.2933174967765808 -0.15476858615875244 0.36319494247436523
0.7183619737625122 0.15352629125118256 -0.9560683369636536
-0.7179630994796753 -0.15476858615875244 0.7003114819526672
0.6416729092597961 -0.15476858615875244 0.2805359661579132
0.7600916624069214 -0.15476858615875244 -0.632969081401825
-0.8735994696617126 0.15352629125118256 0.8504984974861145
-0.627918004989624 -0.15476858615875244 0.1721155047416687
0.5746298432350159 0.15352629125118256 0.15106508135795593
-0.5616181492805481 -0.15476858615875244 0.32462194561958313
0.9252063632011414 0.15352629125118256 -0.9023141860961914
0.7492566704750061 -0.15476858615875244 -0.06749110668897629
-0.8495633602142334 0.11123780161142349 -0.13226564228534698
-0.8862828612327576 0.15352629125118256 -0.7814620137214661
-0.2721129357814789 0.15352629125118256 -0.14398197829723358
-0.29343873262405396 -0.1403495967388153 0.015914270654320717
0.862857460975647 0.12695541977882385 0.30201205611228943
-0.8599866628646851 0.04925115033984184 -0.9839228987693787
-0.6728524565696716 -0.15476858615875244 0.8854125738143921
0.19758418202400208 -0.15476858615875244 0.33227142691612244
0.36915573477745056 0.15352629125118256 0.09852778166532516
0.4428308606147766 0.15352629125118256 -0.3785066306591034
-0.6506136059761047 0.15352629125118256 -0.34825578331947327
0.1403382271528244 -0.15476858615875244 -0.838265061378479
-0.7428094744682312 -0.15476858615875244 -0.004866104107350111
0.8436275124549866 -0.14360737800598145 -0.020249608904123306
0.7021782398223877 0.15352629125118256 -0.8542022109031677
-0.15659117698669434 -0.021549338474869728 -0.8504754304885864
-0.15105606615543365 0.15352629125118256 -0.4796052873134613
-0.05617106705904007 -0.15476858615875244 0.6892476081848145
-0.044432688504457474 0.09293321520090103 -0.29025909304618835
0.48014822602272034 -0.15476858615875244 0.14886388182640076
0.551110565662384 -0.15476858615875244 -0.6093421578407288
-0.4960952401161194 0.00869191624224186 0.8960439562797546
0.7707259058952332 0.041383642703294754 0.9725711345672607
0.2772790491580963 -0.03546931594610214 -0.09085064381361008
-0.65514075756073 -0.15476858615875244 0.7033129930496216
-0.7809819579124451 0.15352629125118256 0.5006413459777832
-0.3112291991710663 -0.15476858615875244 -0.4557845890522003
-0.6933894157409668 -0.15476858615875244 -0.16476118564605713
0.49648571014404297 0.15352629125118256 0.8370377421379089
-0.7036261558532715 -0.15476858615875244 -0.22428612411022186
-0.45571810007095337 0.15352629125118256 0.0942378118634224
-0.37795355916023254 -0.15476858615875244 -0.5048489570617676
0.10011480748653412 0.15093624591827393 -0.8475596308708191
0.4566369950771332 -0.15476858615875244 0.49675068259239197
0.47031068801879883 0.15352629125118256 -0.8690585494041443
-0.7743784189224243 0.15352629125118256 -0.0826416015625
-0.5403716564178467 -0.15476858615875244 -0.11553355306386948
-0.5996595025062561 -0.15476858615875244 0.08470553159713745
-0.5642253160476685 -0.12349721789360046 -0.9128747582435608
-0.9477596282958984 -0.12770438194274902 -0.6898059248924255
0.8771052956581116 -0.10465894639492035 0.39788681268692017
0.2217351645231247 0.15352629125118256 0.22353899478912354
-0.41927751898765564 -0.15476858615875244 -0.43322739005088806
-0.8629234433174133 0.15352629125118256 0.5112137794494629
0.9404669404029846 -0.15476858615875244 0.6903815865516663
0.13442127406597137 -0.15476858615875244 0.3724091053009033
-0.9179995656013489 0.09234069287776947 -0.5823009014129639
0.660903811454773 -0.05574648454785347 0.9379134178161621
-0.5471972823143005 -0.15476858615875244 -0.16002680361270905
0.958102822303772 -0.15476858615875244 -0.7942371964454651
-0.9739154577255249 0.1363084316253662 0.769794225692749
0.47548139095306396 0.15352629125118256 -0.7247172594070435
0.35991087555885315 0.15352629125118256 -0.3855239152908325
-0.8502503633499146 0.0811944454908371 -0.14416161179542542
0.7072010040283203 -0.15476858615875244 0.28408536314964294
-0.29280462861061096 0.08730994910001755 0.024749742820858955
0.13032595813274384 -0.15476858615875244 0.6052502393722534
-0.8300062417984009 0.15352629125118256 0.9896819591522217
0.548288881778717 -0.15476858615875244 0.43853121995925903
0.8817539215087891 -0.003951550927013159 -0.425658255815506
0.7851579189300537 -0.15476858615875244 -0.647796094417572
0.31023484468460083 -0.09379152208566666 -0.8658349514007568
0.5160191655158997 0.15352629125118256 -0.1773000955581665
-0.7493699789047241 0.15352629125118256 -0.22999931871891022
0.7169782519340515 0.15352629125118256 0.34600961208343506
0.6202060580253601 -0.15476858615875244 -0.12154465168714523
-0.5074073672294617 -0.15476858615875244 -0.010735941119492054
-0.5611099600791931 -0.15476858615875244 0.06758307665586472
-0.26931482553482056 0.12465036660432816 0.1165514886379242
-0.0834231898188591 0.1302490532398224 0.2802080512046814
-0.36564886569976807 -0.15476858615875244 0.09544264525175095
0.25544866919517517 0.15352629125118256 -0.43884193897247314
0.7320119738578796 0.15352629125118256 -0.623718798160553
-0.49637338519096375 0.15352629125118256 0.24383848905563354
-0.22621145844459534 -0.15476858615875244 0.6993154287338257
-0.1846056878566742 0.03544887155294418 0.8511377573013306
0.8812297582626343 -0.15476858615875244 -0.5009886026382446
-0.6709927916526794 0.15352629125118256 -0.2406592220067978
-0.8987324833869934 0.13988734781742096 -0.49951955676078796
0.9262953400611877 0.07645858824253082 -0.6231823563575745
-0.23715540766716003 -0.1495780199766159 -0.1740812510251999
-0.6125898361206055 0.15352629125118256 0.459000825881958
0.3470062017440796 0.15352629125118256 -0.06276705861091614
-0.8856586813926697 0.15352629125118256 0.5741493105888367
0.7727952599525452 0.15352629125118256 0.8148342370986938
0.35758787393569946 -0.15476858615875244 -0.26884177327156067
0.622908353805542 -0.15476858615875244 0.2150704711675644
-0.9282695651054382 0.023505955934524536 0.6202871203422546
0.5606569647789001 -0.15476858615875244 0.8892088532447815
-0.6782682538032532 0.15352629125118256 -0.01726464554667473
0.8069232106208801 -0.15476858615875244 0.6550277471542358
0.7300455570220947 -0.15476858615875244 -0.45053455233573914
-0.3816463053226471 -0.15476858615875244 -0.23690706491470337
-0.2877517640590668 0.12035564333200455 0.0594853013753891
-0.8271380066871643 -0.15476858615875244 -0.28661516308784485
0.26338115334510803 0.15352629125118256 0.379376083612442
-0.25392860174179077 0.07078520953655243 -0.14843885600566864
0.22903753817081451 0.11342231184244156 0.18006838858127594
-0.5465755462646484 -0.15476858615875244 -0.5876761674880981
-0.8878116011619568 0.08162154257297516 0.9547622203826904
-0.8689137101173401 -0.10322604328393936 -0.9749957919120789
0.44588881731033325 -0.15476858615875244 0.6949800848960876
0.6820524334907532 -0.15476858615875244 -0.43811750411987305
0.5023548007011414 -0.15476858615875244 -0.6916929483413696
0.4128326177597046 -0.15476858615875244 -0.7921791076660156
-0.7159949541091919 0.15352629125118256 0.18235719203948975
0.548829972743988 -0.15476858615875244 0.8715938925743103
-0.480411559343338 0.06247364357113838 0.8927628397941589
-0.7553304433822632 0.11248135566711426 0.9665330052375793
-0.8542193174362183 -0.15476858615875244 0.7056399583816528
0.2913254201412201 0.10440575331449509 0.0118416091427207
-0.008133169263601303 0.07335123419761658 -0.8454350829124451
-0.7990912199020386 0.15352629125118256 0.13220882415771484
-0.4959717094898224 0.15352629125118256 -0.7840386629104614
-0.16391249001026154 0.14245589077472687 -0.8509743213653564
-0.9749357104301453 -0.03693072870373726 0.7727609276771545
-0.3637566864490509 0.15352629125118256 -0.5169957280158997
-0.587432861328125 -0.15476858615875244 -0.026178907603025436
0.02249845117330551 0.15352629125118256 0.3633543848991394
-0.08667279779911041 0.15352629125118256 0.7775703072547913
-0.2561240494251251 -0.15476858615875244 0.1973348706960678
-0.3230663239955902 0.15352629125118256 0.38484418392181396
-0.45384711027145386 0.15352629125118256 -0.6797517538070679
-0.3537219762802124 -0.08120670169591904 0.8702927231788635
0.8725923895835876 -0.15476858615875244 -0.5203243494033813
0.14586853981018066 -0.03515258803963661 -0.2538057863712311
-0.22379812598228455 0.03935913369059563 -0.19072823226451874
-0.39049214124679565 0.15352629125118256 -0.41071540117263794
0.21766288578510284 -0.15476858615875244 0.19891497492790222
0.8590889573097229 -0.15476858615875244 0.9800422787666321
-0.42918461561203003 0.15352629125118256 -0.8163099884986877
0.8010972738265991 -0.15476858615875244 -0.7307435870170593
-0.05279884114861488 0.15352629125118256 -0.5727794170379639
0.39164626598358154 -0.15476858615875244 -0.10344305634498596
0.3410819470882416 -0.15476858615875244 -0.6731870174407959
-0.45527946949005127 0.15352629125118256 -0.5127061605453491
0.5237751007080078 0.15352629125118256 0.056703951209783554
0.2756524682044983 0.09292905777692795 -0.8615615963935852
-0.8312058448791504 0.06615839898586273 -0.9946473240852356
-0.6014821529388428 -0.15476858615875244 0.09051497280597687
-0.17016586661338806 0.15352629125118256 0.46093514561653137
-0.24837420880794525 -0.15476858615875244 0.7414734959602356
0.5075179934501648 -0.08432061970233917 0.8990111351013184
0.5372720956802368 -0.15476858615875244 -0.040818747133016586
-0.29852211475372314 0.15352629125118256 0.276001900434494
0.1959155648946762 0.022128770127892494 -0.21713075041770935
0.2513158619403839 -0.05339143052697182 0.8574957847595215
-0.17119531333446503 -0.15476858615875244 0.6935516595840454
-0.7648744583129883 0.15352629125118256 0.4924532473087311
0.9476523995399475 0.15352629125118256 -0.8195921182632446
0.7826665639877319 0.05272573232650757 -0.9780108332633972
0.1372101753950119 0.03088112361729145 -0.8494225740432739
0.7939665913581848 0.15352629125118256 0.6276603937149048
0.264091432094574 -0.15228284895420074 0.12269697338342667
0.6432147026062012 0.08083371073007584 0.932853639125824
0.055620793253183365 0.15352629125118256 -0.4893600344657898
-0.5068156719207764 0.15352629125118256 0.6191714406013489
-0.9547091126441956 -0.05404714122414589 -0.7124268412590027
0.03804970905184746 -0.15476858615875244 -0.6076014041900635
-0.5046049952507019 -0.15476858615875244 0.6543736457824707
0.17457282543182373 0.15352629125118256 0.5092869997024536
-0.3318403363227844 0.15352629125118256 0.09232616424560547
-0.48539724946022034 0.15352629125118256 0.08585887402296066
-0.897705078125 -0.15476858615875244 0.9223392009735107
0.31649354100227356 0.13149915635585785 0.8653480410575867
-0.19986245036125183 0.14722679555416107 -0.2157728374004364
-0.8518123030662537 -0.10490593314170837 -0.16800527274608612
-0.28384867310523987 -0.12298990041017532 0.07495685666799545
0.38345760107040405 -0.15476858615875244 -0.2086922824382782
0.3517986536026001 -0.15476858615875244 0.09567337483167648
-0.5667176842689514 -0.15476858615875244 0.19432783126831055
0.5507726073265076 -0.15476858615875244 0.47825565934181213
-0.581119179725647 0.15352629125118256 -0.44527947902679443
-0.9190970063209534 -0.15476858615875244 0.6927007436752319
0.6010442972183228 -0.15476858615875244 0.40459418296813965
0.1569492369890213 0.15352629125118256 0.6301141381263733
0.5763550400733948 0.15352629125118256 -0.41274377703666687
-0.6367076635360718 -0.15476858615875244 0.21556119620800018
0.21406331658363342 -0.15476858615875244 0.4216165542602539
0.0698964074254036 0.15352629125118256 0.6142981052398682
0.25976601243019104 -0.15476858615875244 -0.1770300567150116
-0.6193121671676636 -0.15476858615875244 -0.010548919439315796
0.4299590289592743 -0.15476858615875244 -0.10345683991909027
-0.036436527967453 0.15352629125118256 0.7083024978637695
-0.21740828454494476 -0.15476858615875244 0.4274875223636627
0.033248212188482285 0.15352629125118256 -0.3455479145050049
0.8021461963653564 0.15352629125118256 0.5987937450408936
0.9324397444725037 -0.15476858615875244 0.8774504065513611
-0.9121076464653015 0.15352629125118256 0.9277891516685486
-0.8125799298286438 0.031112411990761757 -0.987807035446167
0.4553179442882538 -0.15476858615875244 -0.08120070397853851
-0.608930230140686 -0.15476858615875244 -0.27031657099723816
-0.7166553139686584 -0.15476858615875244 0.782046377658844
0.10132934153079987 -0.15476858615875244 -0.27886927127838135
-0.8842905163764954 -0.15476858615875244 0.7778222560882568
-0.3511694669723511 -0.15476858615875244 -0.7594112157821655
-0.4914737939834595 0.15352629125118256 -0.7455342411994934
-0.5711427927017212 -0.15476858615875244 0.4669605493545532
-0.862488865852356 -0.01312405988574028 -0.28112056851387024
-0.7955772280693054 0.046512726694345474 -0.9817189574241638
0.4220602512359619 0.15352629125118256 -0.47129425406455994
-0.7021790146827698 -0.15476858615875244 -0.3657207190990448
0.09706637263298035 0.15352629125118256 0.5171022415161133
0.31278523802757263 -0.13800756633281708 -0.866183340549469
0.8560378551483154 0.1298024207353592 0.24288028478622437
0.7674760818481445 -0.15476858615875244 0.8094699382781982
-0.13461296260356903 0.03439435362815857 0.25998520851135254
-0.07263052463531494 0.15352629125118256 -0.7774196267127991
0.7480120062828064 -0.022281143814325333 -0.9662370681762695
0.3555045425891876 0.15352629125118256 0.15813367068767548
0.582219660282135 0.15352629125118256 -0.47884783148765564
-0.14709657430648804 0.06725752353668213 0.2529343068599701
0.8609208464622498 0.15352629125118256 -0.9148118495941162
-0.6025394797325134 -0.038113608956336975 -0.9225212931632996
0.4255763590335846 0.15352629125118256 0.5613465905189514
-0.09323237091302872 -0.15476858615875244 -0.438710480928421
0.5087831020355225 -0.05895442143082619 -0.9006228446960449
0.46982860565185547 0.15352629125118256 -0.07071920484304428
0.6859789490699768 -0.09575194865465164 -0.9466371536254883
0.6746425628662109 0.15352629125118256 0.28929004073143005
0.7817735075950623 0.15352629125118256 0.5064095854759216
-0.4240715205669403 -0.15476858615875244 0.778883695602417
0.8445301055908203 0.15352629125118256 -0.6314321160316467
-0.032331302762031555 0.06767484545707703 -0.2918655574321747
-0.26218417286872864 -0.15476858615875244 -0.7617747187614441
-0.7495380640029907 0.15352629125118256 0.8111943006515503
0.2891121506690979 0.026091722771525383 -0.8631547689437866
0.4195057153701782 -0.15476858615875244 0.13533470034599304
0.7994336485862732 -0.15476858615875244 0.4476853609085083
-0.07338741421699524 -0.15111900866031647 0.845158040523529
-0.4073190689086914 -0.15476858615875244 0.7892448902130127
0.20895205438137054 0.056003693491220474 -0.8546956181526184
0.8728309273719788 0.03455175459384918 -0.3731078803539276
-0.5865588188171387 0.15352629125118256 0.11682190001010895
-0.28505656123161316 -0.03934219852089882 -0.07224514335393906
-0.7758400440216064 0.012811584398150444 0.9734906554222107
-0.8481898903846741 0.1437322348356247 0.10308274626731873
-0.7311264276504517 -0.15476858615875244 0.22835354506969452
0.7514137029647827 -0.04401949420571327 0.9660497903823853
-0.3103545308113098 0.15352629125118256 -0.6057338714599609
0.8564660549163818 0.15352629125118256 -0.39652955532073975
-0.8355984687805176 0.15352629125118256 0.3214833736419678
-0.2730368673801422 0.131218820810318 -0.10935335606336594
0.6725720167160034 -0.03813077136874199 -0.9426296353340149
0.22030970454216003 0.11223436146974564 0.19078868627548218
-0.2686322331428528 0.15352629125118256 -0.6414743661880493
0.15830591320991516 -0.046044621616601944 0.24496230483055115
-0.46339941024780273 0.15352629125118256 0.7975254058837891
-0.2913326025009155 0.10035007447004318 -0.0394902266561985
-0.6481752991676331 -0.12162624299526215 0.9335761666297913
-0.716276228427887 0.15352629125118256 0.09537285566329956
-0.5409598350524902 0.15352629125118256 0.2699020206928253
0.1638379842042923 -0.008569550700485706 0.241169735789299
-0.2714655101299286 -0.15476858615875244 0.20478732883930206
0.31030747294425964 -0.15476858615875244 -0.6744136214256287
-0.39986512064933777 0.15352629125118256 0.0518677793443203
-0.22202765941619873 -0.05404285714030266 0.1915474534034729
-0.5581073760986328 0.15352629125118256 -0.62863689661026
0.09161380678415298 0.1408321112394333 0.8458773493766785
-0.32342374324798584 0.05350939556956291 -0.8673065900802612
0.7018198370933533 0.15352629125118256 0.4595002830028534
-0.786292552947998 -0.15476858615875244 -0.5112247467041016
-0.3156493604183197 0.15352629125118256 0.07909702509641647
0.3207140564918518 -0.15476858615875244 -0.40186014771461487
-0.6307334303855896 0.08415619283914566 0.9287427067756653
-0.5690395832061768 0.15352629125118256 -0.6221773028373718
-0.9427761435508728 0.09370549768209457 0.8997976779937744
0.6421151757240295 -0.15476858615875244 0.031091725453734398
-0.16213537752628326 -0.15476858615875244 0.7115483283996582
0.5460946559906006 -0.15476858615875244 -0.6222423315048218
0.3146163523197174 0.15352629125118256 -0.0007079977076500654
-0.878898561000824 0.15352629125118256 -0.7132382988929749
-0.025436699390411377 -0.15476858615875244 -0.7760259509086609
-0.7779899835586548 -0.15476858615875244 0.21819236874580383
-0.7335981726646423 -0.15476858615875244 -0.19675423204898834
-0.8628040552139282 0.05334048345685005 -0.28354474902153015
0.8454473614692688 0.07575449347496033 0.09425496309995651
0.10869350284337997 0.15352629125118256 0.8097687363624573
-0.2791052758693695 0.15352629125118256 -0.8013754487037659
0.9925064444541931 0.00043947118683718145 0.8476825952529907
0.2430352419614792 -0.15476858615875244 0.6279973983764648
0.6831223368644714 0.15352629125118256 -0.8433168530464172
-0.5709095001220703 -0.15476858615875244 -0.28968867659568787
0.8651269674301147 -0.06141851842403412 -0.3205520212650299
-0.9318462014198303 0.11870656907558441 -0.6347118616104126
0.7813630700111389 -0.15476858615875244 0.44210848212242126
-0.6537752747535706 -0.07676593214273453 -0.9365119934082031
-0.19974689185619354 -0.15476858615875244 0.4550776481628418
-0.8637462258338928 -0.06873006373643875 0.2899969220161438
-0.2707007825374603 -0.08773442357778549 0.8593875765800476
0.36796116828918457 -0.15476858615875244 -0.3257467746734619
0.07627418637275696 0.15352629125118256 0.5239266157150269
0.3036423623561859 0.15352629125118256 0.8077961802482605
-0.23684529960155487 -0.15476858615875244 0.8317661881446838
0.4427565336227417 0.15352629125118256 -0.5634661316871643
0.40700972080230713 0.15352629125118256 -0.8721693158149719
-0.8115143775939941 -0.15476858615875244 0.7636096477508545
-0.5705026388168335 -0.15476858615875244 -0.14820998907089233
-0.26712703704833984 -0.15476858615875244 -0.6701607704162598
-0.5728917717933655 -0.15476858615875244 0.8195476531982422
0.8279333114624023 -0.15476858615875244 -0.9028527736663818
0.7598429322242737 0.15352629125118256 -0.18831704556941986
-0.5623059868812561 -0.15476858615875244 -0.41890981793403625
-0.23243725299835205 0.009415662847459316 0.8553118109703064
-0.5353268384933472 -0.15476858615875244 -0.30819302797317505
0.8448677659034729 -0.14702977240085602 0.07830008119344711
0.7451993227005005 -0.09763730317354202 0.9639896750450134
0.08319507539272308 -0.15476858615875244 -0.7630413174629211
0.950298547744751 -0.045907728374004364 0.7045925855636597
0.49895554780960083 -2.02857336262241e-05 0.8971439003944397
0.001457282924093306 0.15352629125118256 -0.8335496187210083
-0.09039141982793808 -0.05207804962992668 -0.8470949530601501
0.18243052065372467 0.12612023949623108 0.22721000015735626
-0.2192496806383133 0.15352629125118256 0.5557406544685364
-0.6848426461219788 0.15352629125118256 -0.7537443041801453
-0.3027762174606323 -0.15476858615875244 0.69306480884552
0.5546107888221741 -0.06392687559127808 -0.9111642241477966
0.7345226407051086 0.15352629125118256 0.4756523072719574
-0.27755606174468994 0.09291646629571915 -0.09732361882925034
-0.33942389488220215 -0.15476858615875244 -0.4105302095413208
0.12559300661087036 0.06848931312561035 -0.26456305384635925
-0.8198021054267883 0.15352629125118256 -0.7894980311393738
0.5655173063278198 -0.15476858615875244 0.4978294372558594
-0.6519573330879211 -0.15476858615875244 -0.3622737228870392
-0.8048751354217529 -0.15476858615875244 0.2000386267900467
-0.41465306282043457 -0.15476858615875244 -0.6324906349182129
0.845231294631958 -0.12573866546154022 -0.0901869609951973
0.03713707625865936 -0.15476858615875244 -0.45248162746429443
-0.6534982919692993 0.15352629125118256 -0.7839884757995605
0.7930393218994141 0.15352629125118256 -0.10087671130895615
-0.976939857006073 -0.15476858615875244 0.8217493891716003
0.528714120388031 0.15352629125118256 0.12958656251430511
-0.9212380051612854 0.028220783919095993 -0.5950076580047607
0.7536597847938538 0.15352629125118256 0.3916124403476715
-0.7461521625518799 0.15352629125118256 -0.9240425825119019
-0.9374924302101135 0.06797511130571365 0.653560221195221
-0.8042206764221191 -0.15476858615875244 0.8783159255981445
-0.42562130093574524 -0.15476858615875244 -0.12155003100633621
-0.8479953408241272 -0.107181616127491 -0.0997002050280571
-0.9397543668746948 0.10829676687717438 -0.6627658009529114
0.2859586179256439 0.05877282842993736 -0.05691090226173401
-0.294446736574173 0.15352629125118256 -0.3116171360015869
-0.6775281429290771 0.12336010485887527 -0.9433916807174683
-0.1575113981962204 -0.07361361384391785 0.24678674340248108
-0.29379674792289734 -0.03606317192316055 0.00763402646407485
-0.03413993865251541 0.10311250388622284 -0.8456326127052307
0.6258013248443604 0.15352629125118256 -0.571854829788208
-0.9513651728630066 -0.1532328873872757 -0.7015906572341919
0.13128401339054108 0.15352629125118256 -0.7123245596885681
0.40403854846954346 0.15352629125118256 0.059492651373147964
0.35956189036369324 -0.15476858615875244 0.8432099223136902
0.5280519127845764 -0.15476858615875244 0.18660898506641388
0.8920555114746094 0.15081572532653809 0.47758305072784424
0.7892627716064453 0.15352629125118256 -0.5495030879974365
-0.851617693901062 -0.15476858615875244 -0.9189821481704712
0.8627926707267761 0.13374488055706024 0.9773964285850525
0.7510976195335388 0.15352629125118256 -0.3238793611526489
-0.42640942335128784 -0.15476858615875244 -0.26903265714645386
-0.7764275074005127 -0.14132921397686005 -0.9750289916992188
0.3424241840839386 -0.15476858615875244 0.5147365927696228
-0.35885176062583923 0.15352629125118256 -0.8131781220436096
-0.5588329434394836 -0.15476858615875244 -0.4109358787536621
-0.5492467880249023 -0.15476858615875244 0.18582017719745636
-0.0019963181111961603 -0.12297621369361877 -0.8454043865203857
0.6882939338684082 0.15352629125118256 0.27450311183929443
0.9276171922683716 0.08174807578325272 0.6267025470733643
0.8047186732292175 -0.15476858615875244 0.4437062442302704
-0.8160679340362549 0.027736574411392212 0.987724244594574
-0.2938148081302643 -0.1015811339020729 0.008289860561490059
0.7552147507667542 -0.15476858615875244 -0.3324427306652069
0.4674774706363678 0.15352629125118256 -0.8594985604286194
0.06023957207798958 -0.15476858615875244 -0.7488513588905334
0.044529128819704056 0.08511350303888321 -0.8458710312843323
0.7694901823997498 -0.15476858615875244 0.9357622861862183
0.9381535649299622 -0.06929688900709152 -0.6654365658760071
0.712938666343689 0.15352629125118256 -0.3016180694103241
-0.8722012639045715 0.058836765587329865 -0.3535006642341614
0.3997100591659546 -0.15476858615875244 -0.7200943231582642
-0.5320562124252319 -0.15476858615875244 0.5367340445518494
0.6544633507728577 0.15352629125118256 -0.2149863988161087
-0.8748484253883362 0.145091250538826 0.967725396156311
0.8243385553359985 0.15352629125118256 -0.18928563594818115
-0.5212318897247314 -0.15476858615875244 -0.719903826713562
-0.8307732343673706 -0.15476858615875244 -0.744951069355011
-0.8328686356544495 -0.15476858615875244 0.6540530920028687
-0.9438139200210571 -0.1341494619846344 -0.900095522403717
-0.7746727466583252 -0.15476858615875244 -0.8919286131858826
0.46321263909339905 0.15352629125118256 -0.7390831708908081
0.03439779579639435 -0.041442569345235825 0.8443403840065002
0.9507693648338318 -0.01119452714920044 0.889419674873352
0.848446786403656 0.062163352966308594 0.15201663970947266
-0.32406195998191833 0.14852212369441986 0.8660364747047424
-0.6714555621147156 0.15352629125118256 0.20507419109344482
-0.12583746016025543 0.15352629125118256 0.5379977226257324
0.33292603492736816 0.15352629125118256 0.45569735765457153
-0.8783375024795532 0.15352629125118256 0.5365349650382996
0.2306126356124878 0.15352629125118256 0.5659084916114807
0.24970930814743042 0.12630680203437805 0.857315182685852
-0.833401620388031 0.15352629125118256 0.005190249066799879
0.8368458151817322 -0.15476858615875244 0.3792724609375
-0.27843040227890015 -0.15476858615875244 0.7872575521469116
0.5220380425453186 0.15352629125118256 0.5423350930213928
-0.7368690371513367 -0.15476858615875244 -0.71878981590271
-0.16502246260643005 -0.15476858615875244 0.41458380222320557
0.5307113528251648 -0.15476858615875244 0.6132615804672241
0.8794574737548828 0.137847900390625 0.41146335005760193
-0.02536342293024063 -0.15476858615875244 0.3291325867176056
-0.6740095019340515 0.04006947576999664 -0.9423542618751526
0.8516358137130737 0.007666821125894785 -0.1969371736049652
0.602217972278595 -0.15476858615875244 -0.5941826105117798
-0.3692353665828705 -0.15476858615875244 -0.3773726522922516
0.7968612909317017 -0.12977442145347595 -0.983006477355957
-0.9136664867401123 -0.15476858615875244 -0.6768649816513062
-0.4569894075393677 0.15352629125118256 -0.6799027919769287
0.296743243932724 -0.15476858615875244 0.29340171813964844
-0.8476020097732544 -0.15476858615875244 -0.8356955051422119
-0.8080237507820129 -0.15476858615875244 -0.9268437027931213
0.8518198728561401 0.018609585240483284 -0.199183389544487
-0.2976188063621521 0.15352629125118256 0.532098650932312
0.03383830562233925 -0.15476858615875244 -0.8058271408081055
-0.29372552037239075 -0.15476858615875244 0.233017697930336
-0.3366228938102722 0.14550578594207764 -0.8691496849060059
0.7851336002349854 -0.10467072576284409 0.9775582551956177
-0.5921626091003418 -0.15476858615875244 0.8181243538856506
0.4194364845752716 0.04068561643362045 0.8814820051193237
0.14894694089889526 -0.15476858615875244 0.8351179957389832
-0.1408447027206421 -0.15476858615875244 -0.47857555747032166
0.6220170259475708 0.012058132328093052 -0.9283391237258911
0.2780092656612396 0.10108709335327148 0.08757015317678452
0.378635436296463 0.030048293992877007 -0.8758757710456848
0.8381165862083435 0.05932889133691788 0.9967624545097351
-0.22318771481513977 -0.15476858615875244 -0.6958786249160767
0.33833056688308716 -0.006226287689059973 0.868377685546875
0.2640628218650818 -0.15476858615875244 -0.6135480403900146
0.01687699370086193 -0.09832033514976501 -0.2929861843585968
0.30603349208831787 -0.15476858615875244 0.04132742062211037
0.17415665090084076 -0.15476858615875244 0.6907051801681519
-0.5283328294754028 0.15352629125118256 -0.034531813114881516
-0.22280393540859222 -0.15476858615875244 0.5578699111938477
-0.8767430782318115 0.13620297610759735 0.38126689195632935
0.46136462688446045 0.15352629125118256 0.19455021619796753
0.7656924724578857 -0.15476858615875244 0.37708836793899536
-0.025763729587197304 0.15352629125118256 -0.6981135010719299
0.23442932963371277 0.07069812715053558 0.17268459498882294
-0.0013792981626465917 -0.15476858615875244 0.8300647139549255
0.0066392747685313225 0.0323873832821846 0.29194942116737366
-0.8360909819602966 -0.15476858615875244 -0.4824601411819458
0.9558912515640259 0.15352629125118256 0.781740128993988
-0.0166751928627491 0.020247912034392357 -0.2930334806442261
0.4750153720378876 -0.15476858615875244 0.11593051254749298
0.9177191257476807 0.10830096155405045 -0.5906269550323486
-0.5650780200958252 -0.15476858615875244 -0.6182473301887512
0.9111086130142212 0.05248201638460159 0.5626940131187439
-0.1035129502415657 -0.11627986282110214 -0.2749450206756592
-0.6401313543319702 0.15352629125118256 -0.13432158529758453
-0.9242453575134277 -0.15476858615875244 -0.7841677069664001
0.725693941116333 0.15352629125118256 0.7992516160011292
-0.010061286389827728 -0.15476858615875244 0.43958353996276855
-0.6466999650001526 0.15352629125118256 -0.11324659734964371
0.4234035611152649 -0.15476858615875244 0.28757762908935547
0.853837251663208 0.09118696302175522 0.9863518476486206
0.47710204124450684 -0.15476858615875244 0.6267412900924683
-0.10443290323019028 -0.15476858615875244 0.6301360726356506
0.49448394775390625 -0.15476858615875244 -0.007961524650454521
-0.7349205017089844 0.15352629125118256 0.1986723244190216
0.7036126255989075 0.15352629125118256 -0.9057457447052002
-0.6922782063484192 -0.15476858615875244 0.6853263974189758
-0.1771441549062729 0.15352629125118256 -0.26855215430259705
-0.7255124449729919 0.15352629125118256 0.4015808403491974
-0.4147324562072754 -0.15476858615875244 -0.3154274523258209
-0.8479709625244141 0.15352629125118256 -0.651539146900177
0.08054421842098236 0.15352629125118256 0.3539923429489136
0.15458442270755768 -0.031091561540961266 0.24703381955623627
-0.0006624562665820122 0.15352629125118256 0.6762550473213196
0.6535282135009766 -0.15476858615875244 -0.4700682759284973
-0.6088389158248901 0.15352629125118256 -0.7956489324569702
-0.5093894600868225 0.15352629125118256 -0.6933462619781494
0.9533930420875549 -0.15476858615875244 0.735604465007782
-0.8578799366950989 -0.15476858615875244 0.8447635173797607
-0.6917892694473267 0.15352629125118256 -0.7830725312232971
0.5891497135162354 -0.15476858615875244 -0.9170899987220764
0.7067625522613525 -0.15476858615875244 -0.08532045781612396
0.7019269466400146 0.15352629125118256 -0.8505024909973145
0.6262640357017517 -0.15476858615875244 -0.9064942598342896
0.11192384362220764 -0.15476858615875244 -0.49305015802383423
-0.8724575638771057 0.15352629125118256 -0.6662984490394592
-0.8867958188056946 0.15352629125118256 -0.9397857189178467
0.5644088983535767 0.15352629125118256 0.009451121091842651
0.2879767119884491 0.052118804305791855 -0.04404953494668007
-0.8738743662834167 0.15352629125118256 -0.481239914894104
-0.16336588561534882 -0.15476858615875244 0.3102996051311493
0.7504351139068604 0.12349876761436462 0.9657021760940552
0.9683154821395874 -0.13987325131893158 -0.8732093572616577
0.9112435579299927 -0.1366858333349228 -0.9302812218666077
0.09638518840074539 -0.15476858615875244 0.6586721539497375
-0.29364266991615295 -0.12587235867977142 -0.010712222196161747
-0.8477493524551392 -0.10930296033620834 -0.0937226414680481
-0.8414331674575806 -0.15476858615875244 0.0869777649641037
-0.9709439873695374 -0.05583549663424492 0.7610284090042114
-0.8286503553390503 -0.15476858615875244 0.5139111280441284
-0.4620356261730194 0.15352629125118256 -0.795599102973938
0.6360750794410706 -0.07272299379110336 -0.9321989417076111
0.5444403290748596 -0.15476858615875244 -0.37985050678253174
-0.8254273533821106 0.15352629125118256 -0.5277511477470398
0.0789421945810318 0.15352629125118256 0.6482458710670471
0.8760701417922974 -0.13180679082870483 -0.39305418729782104
0.9744025468826294 0.13926658034324646 -0.7794886231422424
0.7444948554039001 -0.15476858615875244 0.31834885478019714
0.4898631274700165 -0.15476858615875244 0.18479092419147491
-0.6629173755645752 0.01722947508096695 -0.9391180276870728
0.549665093421936 0.15352629125118256 -0.6056915521621704
0.2549635171890259 -0.1101040318608284 0.14119118452072144
-0.9073442220687866 0.09163430333137512 0.5368150472640991
-0.21753858029842377 -0.15476858615875244 -0.5992139577865601
-0.47659599781036377 -0.15476858615875244 0.3118725121021271
-0.2703973054885864 0.0954488068819046 -0.11583882570266724
0.3274414539337158 -0.15476858615875244 0.2807682156562805
-0.5663337111473083 -0.15476858615875244 0.2867129445075989
-0.37968382239341736 -0.15476858615875244 -0.46025049686431885
-0.862209141254425 0.035170942544937134 -0.9817003607749939
-0.5019265413284302 -0.15476858615875244 -0.5688562393188477
-0.8469606637954712 -0.06946103274822235 -0.07081043720245361
-0.6938141584396362 -0.10492448508739471 0.9469501972198486
0.8344985842704773 0.15352629125118256 0.26941022276878357
0.9903921484947205 -0.1365417242050171 -0.8242903351783752
0.3312297761440277 0.15352629125118256 -0.7900030612945557
-0.10300757735967636 0.0824119821190834 -0.27523472905158997
-0.04872016981244087 0.11885213106870651 -0.84588223695755
0.6910298466682434 -0.15476858615875244 -0.86878502368927
0.11152415722608566 -0.15476858615875244 0.5251206755638123
0.3338092565536499 0.15352629125118256 0.7492834329605103
0.3795509338378906 0.10172586888074875 -0.8760337233543396
0.26790040731430054 -0.009326966479420662 -0.11590596288442612
0.6257072687149048 -0.15476858615875244 -0.21973489224910736
-0.9579116702079773 0.13877561688423157 0.8846622109413147
0.10767309367656708 -0.12361788749694824 0.2710946798324585
-0.09515585005283356 -0.15476858615875244 -0.31954216957092285
0.15194639563560486 0.06016575172543526 -0.8503401875495911
0.34500837326049805 0.15352629125118256 0.6493427157402039
-0.7550607919692993 0.15352629125118256 0.17813903093338013
0.5037273168563843 0.05499005317687988 0.8981992602348328
0.34866413474082947 0.15352629125118256 -0.4429430663585663
-0.6809410452842712 -0.15476858615875244 -0.31701213121414185
0.4949122965335846 0.15352629125118256 -0.20311501622200012
0.6107681393623352 0.15352629125118256 -0.8800824284553528
-0.3420867323875427 -0.15476858615875244 -0.26602962613105774
0.5600476264953613 0.15352629125118256 0.086190365254879
0.23732739686965942 -0.15476858615875244 -0.7476007342338562
0.7506647109985352 0.02494385652244091 0.9657917022705078
-0.6225528717041016 0.15352629125118256 0.3313695192337036
0.502675473690033 0.15352629125118256 -0.2534330189228058
-0.27077507972717285 0.05548325553536415 0.11345028132200241
0.9737914800643921 0.011286160908639431 -0.7776421308517456
-0.8838596940040588 -0.15476858615875244 -0.799493670463562
-0.8855543732643127 -0.048547420650720596 0.9570195078849792
0.01784895360469818 -0.14910586178302765 -0.29265376925468445
0.8714949488639832 0.005231317598372698 -0.36460965871810913
-0.1579153686761856 -0.15476858615875244 -0.3510105609893799
-0.6547632217407227 0.15352629125118256 0.8801425099372864
-0.992028534412384 -0.087405726313591 0.8208848237991333
-0.5058078765869141 0.15352629125118256 -0.7672981023788452
-0.019554194062948227 0.027121374383568764 -0.29282382130622864
0.7018368244171143 -0.15476858615875244 -0.9415621757507324
-0.8775472640991211 -0.15476858615875244 0.9647887349128723
0.25144287943840027 0.15352629125118256 0.820175051689148
0.7147824168205261 -0.013669285923242569 0.954174816608429
-0.289174884557724 0.1012851670384407 0.052238259464502335
0.5142994523048401 0.15352629125118256 -0.17873896658420563
0.7737938761711121 0.15352629125118256 0.32443153858184814
-0.2516709864139557 0.14509443938732147 0.8572871685028076
0.17149491608142853 -0.15476858615875244 0.6760138869285583
-0.5808494091033936 0.15352629125118256 0.8848427534103394
-0.3454395830631256 -0.15476858615875244 0.22808755934238434
0.8564828634262085 0.12071261554956436 -0.24861310422420502
-0.7949197888374329 -0.15476858615875244 0.8232192993164062
-0.2928297817707062 -0.15476858615875244 -0.07503420859575272
-0.28067687153816223 0.15352629125118256 0.7989950180053711
0.8897725343704224 -0.15476858615875244 -0.7378947138786316
0.6428194046020508 0.15352629125118256 -0.7814158797264099
-0.9188171625137329 -0.15476858615875244 0.8713642954826355
0.2857464849948883 -0.07211122661828995 0.861429750919342
0.9421584010124207 0.07302050292491913 -0.6790892481803894
-0.1988208293914795 0.01196188386529684 -0.8536049127578735
0.862129271030426 0.10885196179151535 -0.9793955683708191
-0.40139514207839966 0.15352629125118256 -0.0421970933675766
0.8494302034378052 -0.09948200732469559 0.16671250760555267
0.9358319044113159 -0.07309933751821518 0.6560190320014954
-0.05281173065304756 0.15352629125118256 -0.3057039976119995
-0.7510018348693848 0.15352629125118256 -0.36965638399124146
0.7101449966430664 0.15352629125118256 -0.5524687767028809
0.6071357131004333 -0.15476858615875244 0.6681057214736938
-0.06957456469535828 -0.14676739275455475 -0.2852376699447632
0.28613391518592834 -0.15476858615875244 -0.3334737718105316
0.8443390130996704 0.05158700421452522 -0.06106018275022507
0.39534667134284973 0.15352629125118256 -0.23826856911182404
0.7638242244720459 -0.15476858615875244 0.18242909014225006
-0.2231636643409729 -0.14127615094184875 -0.8557756543159485
0.5597256422042847 0.15352629125118256 0.6842542886734009
0.6085572242736816 -0.15476858615875244 0.9149089455604553
-0.9441080689430237 -0.13365693390369415 -0.6776308417320251
-0.033575281500816345 -0.15476858615875244 -0.7048202753067017
-0.35673025250434875 -0.15476858615875244 0.4983404874801636
0.3003902733325958 -0.15476858615875244 0.04358181357383728
0.8680403232574463 -0.03755052760243416 0.3400721549987793
0.4620845913887024 0.15352629125118256 -0.07374101877212524
0.02135687880218029 0.05678701773285866 -0.8455405235290527
0.7868838906288147 -0.15476858615875244 0.5921528935432434
-0.6688739657402039 -0.15476858615875244 0.3145618736743927
0.8794090151786804 -0.04303177073597908 0.411183625459671
-0.9186435341835022 0.15352629125118256 0.5846347212791443
0.6241964101791382 0.15352629125118256 -0.8377100825309753
-0.17304711043834686 0.15352629125118256 0.6832284927368164
0.10880203545093536 0.15352629125118256 -0.7348636388778687
-0.8462725877761841 -0.07647672295570374 0.0398210734128952
-0.8709116578102112 0.02593803033232689 0.9716621041297913
-0.7231378555297852 -0.15476858615875244 -0.3164758086204529
0.8890431523323059 0.042590729892253876 -0.46412554383277893
-0.6770330667495728 0.15352629125118256 -0.7366327047348022
0.846962034702301 0.07011603564023972 0.12693418562412262
0.5327996611595154 0.15352629125118256 0.17436674237251282
-0.9287787675857544 0.008835175074636936 -0.6235650181770325
0.5284537076950073 -0.045065149664878845 0.9036705493927002
-0.9700478911399841 0.14059996604919434 0.8725259304046631
-0.6904963254928589 0.15352629125118256 -0.11464222520589828
0.6971526145935059 0.15352629125118256 0.5924077033996582
-0.383145272731781 -0.15476858615875244 -0.7839943170547485
0.3930133581161499 -0.15476858615875244 0.2518390417098999
-0.2578446567058563 -0.05857214704155922 -0.1414065659046173
0.0007984528201632202 0.03514212369918823 0.2920171022415161
-0.6762821078300476 -0.15476858615875244 0.595626175403595
0.438062846660614 0.15352629125118256 0.11241530627012253
0.89100581407547 -0.1045510396361351 -0.47391530871391296
0.47519707679748535 0.15352629125118256 0.7951820492744446
-0.09186451137065887 0.15352629125118256 -0.8290742039680481
-0.018458165228366852 -0.14554503560066223 -0.2929740846157074
-0.8074221014976501 0.15352629125118256 0.652994692325592
-0.8393580317497253 0.15352629125118256 0.2720035910606384
0.8591242432594299 0.0935136005282402 -0.9824005365371704
0.2679361402988434 0.15352629125118256 0.4568297863006592
-0.4784875214099884 0.15352629125118256 -0.6276471018791199
0.8284489512443542 0.15352629125118256 -0.09187354147434235
0.25720906257629395 -0.0019484577933326364 -0.1380341351032257
-0.8219221830368042 0.15352629125118256 -0.21113654971122742
0.785541832447052 0.15352629125118256 0.07294800132513046
0.9454870820045471 0.15352629125118256 0.7723925113677979
0.5074653029441833 -0.15476858615875244 -0.2703123688697815
0.06519437581300735 -0.15476858615875244 0.40209659934043884
0.36153584718704224 -0.15476858615875244 -0.6279523372650146
-0.6172828078269958 -0.15476858615875244 -0.34700626134872437
0.5256544947624207 -0.15476858615875244 0.33757835626602173
-0.32133930921554565 0.15352629125118256 -0.04897419363260269
-0.31046855449676514 0.15352629125118256 -0.29090777039527893
-0.8520073890686035 -0.15476858615875244 -0.8011906147003174
0.8873428702354431 -0.033159881830215454 0.45407822728157043
0.20311994850635529 0.15352629125118256 0.5783740878105164
-0.41517871618270874 -0.1448715776205063 0.8803083896636963
-0.6194373965263367 0.15352629125118256 0.017635006457567215
0.4993598163127899 0.009369593113660812 0.8972306847572327
-0.29564201831817627 0.15352629125118256 0.1174965426325798
0.8954129815101624 0.029750997200608253 0.9447760581970215
-0.7045440077781677 0.15352629125118256 0.7034035921096802
-0.95848548412323 -0.06893321126699448 -0.7244109511375427
0.798733115196228 0.15352629125118256 0.6791364550590515
0.8456395864486694 -0.15476858615875244 0.22203516960144043
0.8187614679336548 -0.15476858615875244 0.18813054263591766
0.8297314643859863 0.15352629125118256 -0.3637237846851349
-0.11791308224201202 -0.14557714760303497 0.26767659187316895
0.395774781703949 0.15352629125118256 0.006982725113630295
0.4702286422252655 -0.15476858615875244 0.7855942249298096
0.2025936096906662 -0.03249858319759369 -0.8541455864906311
0.7326292991638184 -0.15476858615875244 -0.586246132850647
-0.7121284604072571 -0.15476858615875244 -0.03509048745036125
-0.28056931495666504 -0.0968247801065445 0.08711528033018112
0.7404641509056091 0.15352629125118256 0.05610012635588646
-0.15202878415584564 -0.15476858615875244 0.7191216945648193
-0.6971220970153809 -0.15476858615875244 -0.5891161561012268
0.5363884568214417 0.15352629125118256 -0.28743258118629456
-0.21023666858673096 0.15352629125118256 -0.6359105110168457
0.30326908826828003 -0.15476858615875244 0.1113034337759018
-0.3273841142654419 0.15352629125118256 -0.008624582551419735
-0.956996500492096 -0.014781644567847252 0.7183519005775452
0.9085142612457275 0.020559677854180336 -0.5533023476600647
0.271373450756073 -0.15476858615875244 0.25766265392303467
-0.8004798889160156 -0.008511356078088284 -0.9834574460983276
-0.5313498377799988 -0.15476858615875244 -0.6843602657318115
0.5700210332870483 -0.15476858615875244 0.7610267400741577
-0.5079429149627686 0.15352629125118256 0.4145234227180481
-0.04506613314151764 0.14665426313877106 0.2887602746486664
0.7289244532585144 -0.15476858615875244 -0.6397124528884888
0.620337963104248 0.15352629125118256 0.3439164459705353
-0.8550937175750732 0.12143617868423462 -0.20945927500724792
-0.8917585015296936 -0.10329914093017578 -0.46574652194976807
-0.6413269639015198 0.15352629125118256 -0.47156786918640137
-0.590044379234314 -0.15476858615875244 -0.5531914234161377
0.3834991455078125 -0.15476858615875244 -0.43599754571914673
0.6048515439033508 -0.15476858615875244 0.08347450941801071
-0.028860706835985184 -0.15476858615875244 0.3191697597503662
0.2761971354484558 -0.0029423139058053493 0.8602727055549622
0.31103256344795227 0.15352629125118256 -0.6225443482398987
0.9758873581886292 -0.033488404005765915 0.8643017411231995
0.19629085063934326 -0.15476858615875244 -0.6967006921768188
-0.7744800448417664 0.14108188450336456 0.9730238318443298
0.21234427392482758 -0.02809157408773899 -0.8549930453300476
-0.8479676246643066 0.13018785417079926 0.09745804965496063
0.9286715984344482 0.15352629125118256 0.6444177627563477
0.6304056644439697 -0.15476858615875244 0.7892515063285828
-0.7179012298583984 0.15352629125118256 -0.693804144859314
0.8701909184455872 0.05142051354050636 -0.3560636043548584
0.46404170989990234 0.027484260499477386 0.8899332880973816
-0.8407391905784607 -0.08664997667074203 -0.9981899261474609
-0.14264892041683197 -0.15476858615875244 0.39400559663772583
0.4757610857486725 0.008106234483420849 -0.8936147093772888
0.5604302883148193 0.15352629125118256 0.10688666254281998
0.7521519660949707 -0.15476858615875244 -0.7129673361778259
-0.19978070259094238 0.15352629125118256 0.6551166772842407
-0.4640260934829712 0.15352629125118256 0.5401307940483093
-0.8742563128471375 -0.060861773788928986 0.3655301630496979
-0.33966776728630066 0.15352629125118256 -0.7398436665534973
0.29488396644592285 -0.023744812235236168 -0.8638671636581421
0.1004006639122963 0.15352629125118256 0.8120900392532349
