0.6210761666297913 -0.6707574129104614 -0.24878543615341187
-0.3764265775680542 0.6271319389343262 -0.24878543615341187
-0.6309818029403687 -0.4728702902793884 0.3618849217891693
0.12121868878602982 0.5963011980056763 -0.5048562288284302
0.9511960744857788 -0.13557198643684387 -0.24878543615341187
-0.3416177034378052 0.8273354768753052 -0.24878543615341187
0.1874854564666748 0.7335408329963684 0.4029451310634613
-0.7083888649940491 0.40981537103652954 0.32547804713249207
0.9035528302192688 -0.32808244228363037 -0.24878543615341187
-0.17008808255195618 0.8148961663246155 -0.24878543615341187
-0.5755776166915894 0.11397133022546768 0.5595005750656128
-0.7654203772544861 -0.6392642259597778 -0.24742253124713898
-0.4681031405925751 0.4177359640598297 -0.4629141390323639
-0.45928436517715454 -0.6806190609931946 -0.24878543615341187
0.3654575049877167 0.8041174411773682 0.21755608916282654
0.0017786211101338267 -0.48864275217056274 0.6194716095924377
0.12104463577270508 -0.8760331869125366 0.20747540891170502
-0.12708133459091187 0.012383810244500637 0.7406967878341675
-0.09891434758901596 -0.7755970358848572 0.3678472638130188
0.9568749070167542 -0.0004059915372636169 0.02721496671438217
0.1771448701620102 -0.7848598957061768 0.33698228001594543
-0.527879536151886 0.4612414836883545 -0.24878543615341187
-0.5083179473876953 -0.1594025194644928 -0.3138413429260254
0.6675629019737244 -0.6863300800323486 0.020861545577645302
-0.2685856223106384 0.761543869972229 0.3407351076602936
-0.7386944890022278 0.67389976978302 -0.2159903645515442
-0.4893798828125 0.2621564269065857 -0.5048562288284302
0.5000782012939453 -0.2823463976383209 -0.5367385149002075
0.714259922504425 -0.12108231335878372 0.4345323145389557
-0.8970277905464172 0.09087496250867844 0.18206733465194702
0.4371779263019562 -0.8233926892280579 -0.24878543615341187
-0.19820944964885712 0.20546291768550873 -0.48490485548973083
-0.11073190718889236 -0.9879236817359924 -0.20130959153175354
-0.7690487504005432 0.3165833353996277 0.30587780475616455
-0.6228866577148438 -0.2610580623149872 -0.41856008768081665
-0.12778376042842865 -0.38396522402763367 -0.24878543615341187
-0.6444010138511658 0.731424868106842 -0.023762568831443787
-0.8176244497299194 -0.17140230536460876 -0.24878543615341187
0.5384731888771057 -0.5227133631706238 0.4048512876033783
-0.17722076177597046 -0.43558406829833984 -0.44079214334487915
-0.5255661606788635 0.5344939827919006 0.4126739203929901
-0.9843505024909973 -0.0636775866150856 -0.0902630016207695
-0.4273693859577179 -0.14068865776062012 -0.46023979783058167
0.5254181027412415 -0.6785677671432495 0.25457561016082764
0.24811528623104095 0.9681494235992432 -0.24091751873493195
-0.16678360104560852 0.5467698574066162 -0.5048562288284302
0.10642728209495544 0.8159834146499634 0.31816011667251587
0.7047867774963379 0.16911526024341583 0.4354919195175171
-0.19616365432739258 -0.842924177646637 0.2435559332370758
-0.47919461131095886 0.8674927949905396 -0.24878543615341187
0.21502798795700073 -0.5258389711380005 -0.3543131649494171
0.1669260412454605 0.9334288239479065 -0.24878543615341187
-0.3375435173511505 -0.8485578894615173 0.14866921305656433
-0.2267930954694748 0.39570629596710205 0.6398789286613464
-0.009623757563531399 -0.26339802145957947 0.7126002907752991
-0.38244232535362244 -0.8864026665687561 -0.003794068470597267
-0.4994015693664551 -0.6052823662757874 0.3659904897212982
0.15279145538806915 0.20546291768550873 -0.4809499979019165
0.10579609125852585 -0.6829230785369873 0.4679725468158722
-0.7082332372665405 0.022310012951493263 -0.24878543615341187
-0.5548126697540283 0.3989637792110443 0.48052215576171875
0.7444816827774048 0.4954954981803894 0.19291363656520844
0.9639440774917603 -0.2186366319656372 -0.1326749324798584
0.7822586894035339 0.6160845756530762 -0.24878543615341187
0.1660400629043579 -0.24307945370674133 0.7033696174621582
-0.5051559805870056 0.35331282019615173 0.537752091884613
-0.8967039585113525 -0.41469016671180725 -0.1074087917804718
0.32887884974479675 -0.43349188566207886 -0.5367385149002075
-0.8359404802322388 0.5127379894256592 -0.24878543615341187
0.4506150186061859 0.3695724904537201 -0.24878543615341187
-0.11104997992515564 -0.7651212215423584 -0.24878543615341187
-0.22999896109104156 0.02867737039923668 -0.24878543615341187
0.5092525482177734 -0.6025092601776123 -0.5187011361122131
-0.1698911488056183 0.35561907291412354 0.6688715815544128
-0.6253380179405212 0.08982360363006592 0.5248673558235168
0.6722972989082336 -0.5173192024230957 0.2713207006454468
-0.14180926978588104 0.5488928556442261 -0.5048562288284302
-0.37259116768836975 0.5479920506477356 -0.3178412914276123
0.11815139651298523 0.9180880784988403 0.1285237967967987
0.4592426121234894 -0.19051353633403778 0.6145449876785278
0.09837837517261505 -0.4144153594970703 0.6518767476081848
0.10162346065044403 0.9363435506820679 0.08621535450220108
-0.42965632677078247 -0.8939207792282104 -0.15660901367664337
0.44172561168670654 -0.34372439980506897 -0.5367385149002075
-0.09051795303821564 -0.42268404364585876 -0.24878543615341187
-0.7339112162590027 0.07913263142108917 -0.24878543615341187
-0.00047756166895851493 -0.9644731283187866 -0.0037550614215433598
-0.2846708595752716 -0.5868775844573975 -0.3796793818473816
-0.1341787725687027 0.5118353962898254 0.5985797047615051
-0.27357882261276245 -0.6762531399726868 -0.24878543615341187
-0.6953244805335999 -0.28769999742507935 -0.24878543615341187
-0.8602807521820068 -0.10449104756116867 0.24779316782951355
-0.8303167223930359 0.27016347646713257 0.238008514046669
0.7327917814254761 -0.043744053691625595 -0.24878543615341187
-0.4001111686229706 -0.23573561012744904 0.6341158747673035
0.40730151534080505 0.34309086203575134 -0.5048562288284302
-0.3277786374092102 0.8335275650024414 0.19623135030269623
-0.8164933323860168 0.1090092658996582 -0.24878543615341187
0.815631628036499 0.4879419207572937 -0.24878543615341187
0.869611918926239 0.26290029287338257 0.16100828349590302
0.542811930179596 0.5622668862342834 -0.24878543615341187
0.22836700081825256 -0.4465562105178833 0.6117432713508606
0.006818654015660286 0.9999094605445862 -0.24113519489765167
0.5317835807800293 -0.40103259682655334 -0.5367385149002075
0.2571159303188324 0.5065263509750366 0.5721325874328613
0.8201104402542114 -0.557195782661438 -0.24878543615341187
-0.488644003868103 0.5902525782585144 -0.24878543615341187
-0.7676771283149719 -0.2879398763179779 -0.24878543615341187
-0.6846847534179688 0.40173688530921936 0.3587000370025635
0.9444476962089539 0.20354412496089935 -0.005546368658542633
0.2885999083518982 -0.2494165599346161 -0.5367385149002075
-0.49701231718063354 -0.4243309497833252 0.5045709013938904
-0.5108492970466614 0.5940222144126892 -0.24878543615341187
0.8067020177841187 -0.25564590096473694 0.2753073573112488
0.07325966656208038 -0.6340622901916504 0.5155518651008606
-0.4177576005458832 -0.6240285038948059 -0.38103535771369934
0.4489644467830658 0.2972487211227417 -0.3729991018772125
-0.2871445119380951 -0.9094275236129761 0.0376240611076355
0.720792829990387 0.24042420089244843 0.3964618146419525
-0.8658490777015686 -0.19813622534275055 -0.24878543615341187
0.7020006775856018 -0.0013822366017848253 0.4580155611038208
0.29697585105895996 -0.2091502696275711 0.6791201233863831
-0.5929422974586487 -0.7430916428565979 -0.24878543615341187
0.7438127398490906 0.5389342904090881 -0.24878543615341187
-0.31337887048721313 0.4122263789176941 0.6055673360824585
0.2979546785354614 0.9537214040756226 -0.23158639669418335
0.2293497920036316 0.3825935423374176 -0.5048562288284302
0.18975436687469482 0.3125244081020355 0.679783046245575
0.489054411649704 -0.26315972208976746 -0.5367385149002075
0.4357142746448517 -0.6590001583099365 0.35621702671051025
0.4918251931667328 0.020161423832178116 0.6177931427955627
0.2691127359867096 -0.4494943618774414 0.5981199741363525
0.8692505955696106 -0.21444107592105865 0.18627525866031647
-0.1677558273077011 0.60389643907547 -0.5048562288284302
-0.5336748957633972 -0.0270704198628664 0.5944998264312744
-0.3832014799118042 -0.6600643992424011 0.3919543921947479
0.7009351253509521 -0.6252128481864929 -0.24878543615341187
0.0791938304901123 -0.6476075649261475 0.5034589171409607
0.2191082388162613 0.6183825135231018 -0.43847379088401794
-0.4121083617210388 -0.8113873600959778 -0.24878543615341187
-0.15407434105873108 0.9503496885299683 -0.24878543615341187
-0.9662051200866699 -0.12747766077518463 -0.24878543615341187
-0.5109503865242004 0.2318745106458664 -0.5048562288284302
0.2331864982843399 -0.9337584972381592 0.0027472928632050753
0.4262405335903168 0.3739173412322998 -0.4505673050880432
-0.24212923645973206 0.8102957010269165 -0.24878543615341187
-0.6634624600410461 -0.5101786255836487 -0.24878543615341187
0.7836222052574158 0.3383452296257019 0.26646116375923157
0.640712559223175 -0.4545079469680786 -0.4294557571411133
0.2749064266681671 0.19046372175216675 0.6909396648406982
-0.6885432004928589 0.5248345136642456 -0.24878543615341187
0.5282532572746277 0.7775611877441406 0.08786993473768234
0.6059178709983826 0.3732794523239136 0.45000940561294556
-0.7673608660697937 0.6398736238479614 -0.1979164481163025
-0.4534507691860199 -0.8861501812934875 -0.2101476788520813
0.28495654463768005 0.03936992585659027 0.7059645652770996
0.7728902101516724 -0.27912360429763794 0.3130989074707031
-0.04066968336701393 0.1339028924703598 -0.24878543615341187
0.6518563628196716 -0.3857979476451874 -0.47485220432281494
0.07203159481287003 -0.985139012336731 -0.12971870601177216
0.2526656687259674 -0.8470918536186218 -0.24878543615341187
-0.3722981810569763 -0.5114673972129822 0.5215532183647156
-0.8332440257072449 0.13801348209381104 0.2853248119354248
-0.4654845595359802 0.682732343673706 -0.24878543615341187
0.3282281458377838 -0.9268656373023987 -0.09926482290029526
-0.7916940450668335 0.23467059433460236 0.314342737197876
-0.49369311332702637 -0.7151921391487122 -0.24878543615341187
-0.08634293079376221 0.8279204368591309 0.3048885762691498
-0.3010264039039612 -0.1675359308719635 -0.37649279832839966
-0.5529689788818359 0.09954768419265747 0.5768995881080627
-0.31458568572998047 0.37713849544525146 0.6212208867073059
-0.954611599445343 0.04403834417462349 -0.24878543615341187
-0.6248186230659485 0.3078804612159729 0.46782758831977844
0.22516705095767975 0.21964029967784882 -0.5048562288284302
-0.7847688794136047 -0.00792063120752573 -0.24878543615341187
0.5822755098342896 0.569781482219696 0.32733190059661865
0.02950584888458252 -0.9928913712501526 -0.19242322444915771
0.02854836918413639 -0.5109508037567139 -0.24878543615341187
-0.17604662477970123 0.4865851402282715 -0.5048562288284302
0.48555660247802734 0.1370372623205185 0.6110256910324097
0.595274806022644 -0.2002163529396057 0.524162769317627
0.6390308141708374 0.7272698879241943 -0.005778481252491474
0.4006024897098541 0.179062619805336 0.6466954946517944
-0.654682457447052 -0.3994302749633789 -0.45239436626434326
0.1392935812473297 0.48465675115585327 -0.5048562288284302
-0.07888955622911453 0.684432327747345 -0.3929523825645447
0.17896996438503265 -0.9601179361343384 -0.24878543615341187
-0.40204983949661255 0.6323972940444946 0.41296258568763733
-0.23783540725708008 -0.21513400971889496 -0.37647545337677
0.6534682512283325 0.21737615764141083 0.4718804359436035
0.7590270042419434 -0.048200573772192 0.3943430781364441
-0.44818779826164246 -0.8896378874778748 -0.2482919692993164
-0.8463166356086731 -0.3766339123249054 0.12274684011936188
0.29380226135253906 0.3182677626609802 0.6500359773635864
-0.3220352530479431 -0.6061596274375916 -0.3659648597240448
-0.2164633423089981 0.5528368949890137 -0.5048562288284302
-0.609619677066803 0.3636062741279602 0.45483508706092834
-0.9578602313995361 -0.17977723479270935 -0.030350210145115852
0.16735853254795074 0.6449137926101685 -0.2801108658313751
-0.7702543139457703 0.4930446445941925 0.1557772308588028
0.06133829802274704 0.23671039938926697 0.7187796831130981
0.18764342367649078 0.8525077104568481 0.23758234083652496
-0.13312290608882904 0.8507600426673889 -0.24878543615341187
0.7947080731391907 -0.5966759920120239 -0.2092616707086563
0.24904637038707733 0.292633056640625 -0.5048562288284302
-0.1080196425318718 0.987052857875824 -0.12939918041229248
-0.3474600315093994 0.12477723509073257 0.6788320541381836
0.29222947359085083 0.20546291768550873 -0.3546191155910492
0.23896829783916473 -0.20160967111587524 0.6974700093269348
0.9553145170211792 -0.27865809202194214 -0.24822093546390533
0.9434171319007874 -0.3041330873966217 -0.1617114394903183
0.0015849642222747207 0.9959557056427002 -0.15884293615818024
0.98481684923172 0.08736922591924667 -0.1287967413663864
-0.35303664207458496 -0.13824373483657837 0.6740729212760925
-0.03990818187594414 -0.7805309295654297 0.36797845363616943
0.5250130295753479 -0.7475494742393494 0.1449200063943863
0.25839629769325256 -0.5705174207687378 -0.28161898255348206
0.36025479435920715 0.0038889339193701744 -0.24878543615341187
-0.9288170337677002 -0.1005101203918457 0.10473832488059998
0.3462267220020294 0.2281055897474289 0.6584045886993408
0.40814098715782166 0.4149109125137329 -0.4224146902561188
-0.5408409237861633 0.8033167123794556 0.002256592269986868
0.023631447926163673 0.4581111669540405 0.638276219367981
0.17101700603961945 0.6433001160621643 -0.44697123765945435
0.16126403212547302 -0.8385038375854492 0.26214510202407837
-0.5569813847541809 0.6296891570091248 0.2928873896598816
0.5203386545181274 0.5280039310455322 0.41924208402633667
0.8200973272323608 0.457694947719574 0.08633637428283691
-0.10644964128732681 -0.6339144110679626 -0.24878543615341187
-0.268087238073349 -0.8107597827911377 -0.24878543615341187
-0.6090742945671082 -0.6464394330978394 0.20401528477668762
-0.7667235732078552 -0.41131797432899475 0.2397308498620987
-0.31579941511154175 0.20546291768550873 -0.2926666736602783
-0.23583973944187164 0.40436407923698425 -0.5048562288284302
0.6932589411735535 0.35081276297569275 0.37618792057037354
0.9127808213233948 0.3969295024871826 -0.1953524500131607
-0.5902357697486877 -0.12063352763652802 -0.24878543615341187
-0.042036399245262146 0.4730471968650818 -0.5048562288284302
0.8104341626167297 0.38141050934791565 0.18897973001003265
0.6926864385604858 -0.7078133821487427 -0.1581847369670868
0.5797335505485535 0.7818634510040283 -0.026343898847699165
-0.8362864851951599 -0.04707106202840805 0.2954115569591522
-0.3457510471343994 -0.6143484711647034 -0.25684523582458496
-0.3658830225467682 0.5541765689849854 -0.4373859167098999
-0.8638761043548584 -0.12301713228225708 0.23708364367485046
0.23543673753738403 0.438976913690567 0.6161566972732544
0.29472827911376953 0.2035849243402481 -0.24878543615341187
0.31187450885772705 0.6383078098297119 0.4529173970222473
-0.9367451071739197 0.19180496037006378 -0.24878543615341187
-0.805400550365448 -0.36169499158859253 0.2166205197572708
-0.17483465373516083 0.9043899774551392 0.14035609364509583
0.022659339010715485 -0.5887554287910461 0.5542151927947998
-0.7203418612480164 -0.210135817527771 0.40961503982543945
0.7926403284072876 0.31014469265937805 0.27024003863334656
0.7242576479911804 -0.2909630835056305 0.369223028421402
0.35936617851257324 -0.8699209690093994 0.07289978861808777
0.35546597838401794 -0.07129018008708954 0.6795263290405273
-0.2928573191165924 -0.9318433403968811 -0.05561472848057747
-0.17219509184360504 -0.36288982629776 -0.3994409739971161
0.37857067584991455 0.4664366543292999 -0.48715782165527344
0.025667205452919006 0.6935033798217773 -0.24878543615341187
0.8925501704216003 -0.3458837866783142 0.023070840165019035
-0.21741807460784912 0.8322359323501587 0.2610234320163727
-0.08646956831216812 0.19482636451721191 -0.24878543615341187
-0.5724567174911499 -0.7944051623344421 -0.0636291429400444
-0.30372393131256104 -0.049837563186883926 0.7004605531692505
0.03340010344982147 -0.7667973637580872 0.3852623999118805
-0.4524138271808624 -0.8405652642250061 0.036243293434381485
-0.26360777020454407 -0.7833854556083679 0.30690932273864746
-0.007960885763168335 0.6862585544586182 -0.383797824382782
-0.8374823331832886 -0.47950008511543274 0.004586278460919857
0.8553013801574707 0.4812496602535248 -0.07187438011169434
-0.6408370733261108 -0.28587085008621216 -0.24878543615341187
0.6714233756065369 -0.3381464183330536 -0.24878543615341187
0.21025431156158447 0.20546291768550873 -0.43175208568573
-0.771725058555603 0.36823421716690063 0.2693396210670471
-0.23964107036590576 -0.30160102248191833 0.6710225343704224
0.9578280448913574 -0.15558861196041107 -0.026948779821395874
0.4793820083141327 -0.8109510540962219 0.07029158622026443
0.3337365984916687 -0.005715703591704369 -0.24878543615341187
-0.0184691920876503 0.9923932552337646 -0.12721118330955505
-0.29246363043785095 -0.7432887554168701 0.34632253646850586
-0.6448826193809509 -0.3114457130432129 -0.2900533676147461
0.17838230729103088 -0.9687039256095886 -0.10987688601016998
-0.8559114336967468 0.4012475609779358 0.07750549912452698
-0.0823875218629837 -0.10101238638162613 -0.24878543615341187
0.14554372429847717 0.9651941061019897 -0.03283330053091049
0.5913837552070618 0.35661831498146057 0.4707778990268707
-0.10273495316505432 -0.7504932284355164 0.39778822660446167
-0.24566903710365295 -0.2846711277961731 0.6748442053794861
0.11818494647741318 0.26087436079978943 -0.5048562288284302
0.30113258957862854 0.7907953858375549 0.28199976682662964
-0.8951330780982971 0.31358280777931213 0.06757166981697083
-0.9786887764930725 0.11389342695474625 -0.08088495582342148
0.5964329242706299 0.7819218635559082 -0.07649677991867065
-0.9194755554199219 0.21997852623462677 -0.24878543615341187
0.83083575963974 0.5471576452255249 -0.17712393403053284
-0.09729215502738953 -0.9625552296638489 -0.015256081707775593
0.060853295028209686 0.16477292776107788 0.7334717512130737
-0.857760488986969 0.3248312771320343 0.14933116734027863
-0.9757964611053467 -0.21187396347522736 -0.23162244260311127
-0.3308195471763611 0.31638672947883606 -0.5048562288284302
-0.7795253992080688 0.010015242733061314 0.3757278323173523
0.8475124835968018 -0.5163150429725647 -0.17997011542320251
0.9561448097229004 -0.23862232267856598 -0.11025883257389069
-0.5113866329193115 0.17575547099113464 0.5910848379135132
0.018421314656734467 0.5515481233596802 -0.5048562288284302
-0.48978322744369507 -0.2380366176366806 0.5873011350631714
-0.09592557698488235 -0.6978976130485535 -0.24878543615341187
0.5267123579978943 -0.35535961389541626 0.5178691148757935
0.2613893449306488 -0.19109968841075897 -0.461483895778656
0.8123193979263306 -0.021023496985435486 -0.24878543615341187
0.9096662402153015 -0.0979427769780159 -0.24878543615341187
0.8018020391464233 0.38835933804512024 -0.24878543615341187
-0.5311704874038696 0.6988094449043274 -0.24878543615341187
-0.015161183662712574 -0.0944702997803688 0.743800699710846
0.04015279933810234 0.9334206581115723 -0.24878543615341187
0.21236146986484528 -0.24192683398723602 -0.3487299084663391
-0.6378827691078186 0.5688178539276123 0.27034592628479004
0.2587253451347351 0.20546291768550873 -0.47093865275382996
-0.9367444515228271 0.24735908210277557 -0.0021239412017166615
0.18861904740333557 -0.28403738141059875 -0.37233391404151917
-0.5874890685081482 0.23299552500247955 -0.24878543615341187
-0.8287860155105591 0.2103327214717865 0.26885345578193665
-0.8354126214981079 -0.17921459674835205 0.26793962717056274
0.8745094537734985 0.19103601574897766 -0.24878543615341187
-0.45333826541900635 0.8841075301170349 -0.13129688799381256
0.02232501469552517 0.532065212726593 0.5962413549423218
0.11663170158863068 -0.8710537552833557 -0.24878543615341187
0.4899994730949402 -0.5776263475418091 0.39657896757125854
-0.5533328056335449 0.781677782535553 -0.24878543615341187
-0.2659761309623718 -0.5737944841384888 -0.25329482555389404
-0.022931303828954697 -0.2296164184808731 0.7211241126060486
-0.054201334714889526 -0.8913397192955017 0.19090282917022705
0.5543609857559204 0.7237820029258728 0.1579749435186386
-0.12505121529102325 0.15521231293678284 0.7291962504386902
0.48729270696640015 -0.20268462598323822 -0.5367385149002075
0.041120387613773346 0.049836691468954086 -0.24878543615341187
-0.6702485084533691 0.7092930674552917 -0.028088737279176712
0.6510751247406006 -0.33526766300201416 0.42558205127716064
0.6797974705696106 0.31668171286582947 0.4082498848438263
-0.34054550528526306 -0.5388678908348083 -0.5367385149002075
-0.4822528660297394 0.7990245223045349 0.11126425117254257
0.29428982734680176 -0.7387372851371765 0.3495856523513794
0.6919475197792053 0.7063637375831604 -0.11325827240943909
-0.7530173063278198 0.29532092809677124 0.33841875195503235
-0.9580832719802856 -0.2804472744464874 -0.22702135145664215
-0.4635734260082245 0.7869970798492432 0.15900075435638428
-0.5199819207191467 0.22494782507419586 -0.4003753364086151
0.8071795701980591 0.5794984102249146 -0.16136638820171356
-0.29663336277008057 -0.09728872776031494 -0.24878543615341187
0.27042075991630554 0.29104897379875183 -0.5048562288284302
-0.18285034596920013 0.6723808646202087 0.46778833866119385
-0.5405699014663696 -0.1761590987443924 -0.46660128235816956
0.018703728914260864 -0.9399517178535461 0.07751604914665222
-0.24358385801315308 -0.9220931529998779 -0.24878543615341187
-0.16316011548042297 -0.6094724535942078 -0.24878543615341187
0.911608874797821 -0.25208428502082825 0.06101587414741516
0.11736207455396652 -0.9276646971702576 0.09129878133535385
-0.27270808815956116 -0.5356036424636841 0.5461748242378235
0.6619490385055542 -0.4934336841106415 0.30675867199897766
-0.7973133325576782 -0.02074529603123665 0.35253557562828064
0.17586812376976013 0.9825524091720581 -0.19687628746032715
-0.34258875250816345 -0.9259206652641296 -0.11873676627874374
-0.3489373028278351 -0.040824513882398605 -0.24878543615341187
0.23628157377243042 0.9626075625419617 -0.24878543615341187
-0.39867421984672546 0.9115914106369019 -0.24878543615341187
0.702793538570404 -0.4545171856880188 0.2893220782279968
-0.5191634893417358 0.2381875365972519 -0.36418673396110535
0.08126062899827957 -0.7233472466468811 -0.24878543615341187
0.258083701133728 -0.16206015646457672 0.7001141309738159
-0.796759843826294 0.588702380657196 -0.10989299416542053
0.806830644607544 0.5168660879135132 0.02779039554297924
-0.8590502142906189 0.010750764049589634 0.2611759305000305
-0.4370776414871216 -0.8873951435089111 -0.13223858177661896
-0.19259048998355865 -0.48103776574134827 -0.3896142840385437
0.5170183181762695 -0.4348095655441284 -0.5367385149002075
0.8908511400222778 0.11581473797559738 0.18169009685516357
-0.0005468233139254153 0.9950225949287415 -0.14947748184204102
0.2847619354724884 0.9327923059463501 -0.030949587002396584
0.9124375581741333 0.03973892703652382 0.14834147691726685
-0.4699839949607849 0.20546291768550873 -0.38461825251579285
0.3172944486141205 0.783318817615509 0.28353679180145264
-0.09773769974708557 0.8562636971473694 0.25780099630355835
-0.702686071395874 -0.697020947933197 -0.24878543615341187
0.0905136838555336 -0.43982312083244324 0.6405157446861267
0.011307542212307453 0.8366689085960388 0.29796457290649414
0.4585771858692169 -0.6201757192611694 0.38008439540863037
-0.44494888186454773 0.45865902304649353 -0.42267775535583496
0.40354883670806885 -0.624030590057373 -0.40884414315223694
0.7261800169944763 -0.34581705927848816 0.33756643533706665
0.4168235659599304 0.27124354243278503 -0.5048562288284302
-0.8183220624923706 0.17847444117069244 0.29644423723220825
-0.3663439452648163 -0.28594496846199036 -0.5367385149002075
0.4147126078605652 0.20546291768550873 -0.36513030529022217
-0.5333349108695984 -0.8372790813446045 -0.16425108909606934
-0.6132516860961914 -0.24580220878124237 -0.453348845243454
0.24639828503131866 -0.5605723261833191 -0.2749691903591156
0.036171212792396545 0.8186483383178711 -0.24878543615341187
0.9036973118782043 -0.2637794017791748 0.07408291101455688
0.8870835304260254 -0.12487076967954636 0.18562132120132446
-0.8563641309738159 0.5019391775131226 -0.12519915401935577
-0.8381874561309814 0.538662850856781 -0.1603085994720459
0.9138553142547607 -0.3262518048286438 -0.02833743207156658
-0.24295194447040558 -0.3191673457622528 0.6640821695327759
-0.07402033358812332 -0.10101703554391861 -0.24878543615341187
-0.7358565330505371 -0.5419647097587585 0.15089528262615204
-0.2178730070590973 -0.5245769023895264 -0.41337835788726807
0.22550895810127258 0.8649670481681824 -0.24878543615341187
0.1261344999074936 -0.938062846660614 0.057917382568120956
0.8658655285835266 0.2799457609653473 0.15771996974945068
0.08507637679576874 0.7094013690948486 -0.24878543615341187
-0.26027336716651917 -0.1897994726896286 0.695303201675415
-0.19852377474308014 -0.271148681640625 -0.31249764561653137
0.8308914303779602 -0.2525181770324707 0.23768290877342224
0.26134493947029114 0.7367374897003174 0.37298059463500977
0.04427307844161987 0.8452335000038147 0.2827903628349304
-0.6361038088798523 0.21651574969291687 -0.24878543615341187
-0.7629342079162598 0.6471994519233704 -0.24545004963874817
-0.8251610398292542 0.4364507496356964 0.11005154997110367
-0.6369831562042236 0.3841172456741333 0.4189009666442871
0.05602966248989105 -0.7127150297164917 -0.24878543615341187
0.49789005517959595 -0.12393791228532791 -0.24878543615341187
0.4605254828929901 0.1633109152317047 -0.24878543615341187
-0.7754303216934204 -0.4082912802696228 -0.24878543615341187
-0.6764477491378784 0.6126444339752197 0.16043469309806824
0.6951367855072021 0.37765997648239136 0.35835835337638855
0.6484873294830322 -0.34154847264289856 -0.4782143533229828
0.23732218146324158 -0.12567108869552612 0.7110961079597473
-0.5946117639541626 -0.5423645973205566 -0.37963536381721497
0.14145246148109436 0.812015950679779 -0.24878543615341187
0.5766378045082092 0.41517212986946106 0.45131441950798035
0.19172696769237518 -0.9555098414421082 -0.04932794347405434
-0.11961757391691208 0.42745253443717957 0.6459408402442932
-0.343879759311676 -0.00378691079095006 -0.24878543615341187
-0.7009608745574951 0.6857004761695862 -0.05063590407371521
0.5289475917816162 0.1274905502796173 0.5864854454994202
-0.7242574095726013 0.3229171931743622 0.3598252832889557
-0.7344977259635925 0.4040845036506653 0.29603007435798645
0.4406229257583618 -0.09651820361614227 -0.24878543615341187
0.2738363742828369 0.06006656587123871 0.7081927061080933
-0.1913096159696579 -0.5437441468238831 0.564018964767456
-0.4891990125179291 -0.30805885791778564 0.5642034411430359
-0.75263512134552 -0.40219631791114807 -0.24878543615341187
0.2736075520515442 0.20546291768550873 -0.4646153151988983
0.4424247443675995 -0.6218456625938416 -0.2839735448360443
-0.6967868804931641 -0.35173875093460083 0.3729080259799957
-0.09302045404911041 -0.4924484193325043 0.6124054193496704
-0.678103506565094 0.7336764931678772 -0.19543780386447906
0.11121415346860886 0.763657808303833 -0.24878543615341187
0.7897722721099854 0.3148486614227295 -0.24878543615341187
0.0048071229830384254 0.16781076788902283 -0.24878543615341187
-0.4740847051143646 0.6160193085670471 -0.24878543615341187
0.2258019894361496 0.9670485258102417 -0.1356956660747528
0.3274717330932617 -0.9139370322227478 -0.03248079493641853
0.010897799395024776 -0.7172942757606506 -0.24878543615341187
-0.4550122618675232 -0.7052338719367981 0.28859519958496094
-0.5057758688926697 -0.05527752265334129 -0.24878543615341187
0.3178170621395111 -0.9338523745536804 -0.1218339130282402
-0.15112389624118805 -0.4964931011199951 0.6019079685211182
0.9272414445877075 0.049102477729320526 -0.24878543615341187
-0.3764512538909912 0.5441605448722839 -0.3673141300678253
-0.25054025650024414 0.1896190643310547 -0.24878543615341187
-0.11949930340051651 -0.7123642563819885 0.4368763864040375
-0.5077192187309265 0.8617135882377625 -0.2208777815103531
0.6702232956886292 0.6622892618179321 0.08010435104370117
0.013892659917473793 0.20546291768550873 -0.35176950693130493
0.141235813498497 -0.908797025680542 0.13101421296596527
-0.46242523193359375 -0.786673903465271 0.15141063928604126
-0.5270287990570068 0.8484192490577698 -0.18986545503139496
0.42993468046188354 0.5130424499511719 0.49157842993736267
-0.8183512091636658 -0.08965988457202911 -0.24878543615341187
0.0469667874276638 0.06350044161081314 0.7457302212715149
-0.7650313377380371 -0.34404727816581726 -0.24878543615341187
-0.2760641872882843 -0.46949124336242676 -0.5367385149002075
-0.45826852321624756 -0.3505561649799347 -0.5367385149002075
-0.45127201080322266 -0.6852813959121704 0.3168509304523468
-0.24810633063316345 0.8813819289207458 0.15354710817337036
-0.9938318729400635 0.04094656929373741 -0.1522303968667984
-0.5994122624397278 -0.7955857515335083 -0.2168806493282318
-0.04176294431090355 0.6867442727088928 -0.303481787443161
-0.03525315597653389 -0.8522638082504272 0.2643078565597534
-0.05724351108074188 -0.8549067378044128 0.25794050097465515
-0.11246853321790695 0.4056395888328552 0.6568407416343689
0.36568209528923035 -0.57509446144104 -0.5367385149002075
0.6311706304550171 -0.4712836444377899 -0.5367385149002075
0.389704167842865 -0.8745985627174377 -0.24878543615341187
0.7406812310218811 0.35308241844177246 0.3176204264163971
0.854481041431427 0.11466853320598602 0.2503505051136017
-0.20919333398342133 -0.5120001435279846 -0.5158404111862183
-0.4925699234008789 0.8492907285690308 -0.24878543615341187
0.848239541053772 -0.5132762789726257 -0.1681203693151474
-0.19662000238895416 0.4009760618209839 0.644659698009491
-0.4769413471221924 -0.09986890107393265 0.6222333312034607
-0.8371350169181824 0.5108636021614075 -0.05224395915865898
-0.4567880928516388 0.0034850090742111206 -0.24878543615341187
0.3571459650993347 -0.36643216013908386 -0.5367385149002075
0.9139388799667358 -0.3730124533176422 -0.12421684712171555
-0.1641090214252472 -0.9667053818702698 -0.07752744853496552
0.6030975580215454 -0.6973905563354492 -0.24878543615341187
-0.2241346538066864 -0.23138926923274994 -0.43065717816352844
-0.3002770245075226 0.21504996716976166 -0.5048562288284302
-0.8587732911109924 0.5122168064117432 -0.2209373265504837
-0.596245288848877 -0.5402944087982178 -0.48666033148765564
0.5622615814208984 0.8162727952003479 -0.12792445719242096
0.6653717756271362 0.6625117063522339 0.08928147703409195
0.2603646218776703 -0.14332234859466553 -0.24878543615341187
-0.516985297203064 -0.8512313365936279 -0.22177469730377197
0.7711134552955627 -0.6192666888237 -0.1431981474161148
0.7258846759796143 -0.5060433745384216 -0.24878543615341187
-0.92701655626297 -0.3690153658390045 -0.21832646429538727
0.9628798961639404 -0.19160135090351105 -0.08529970794916153
-0.15375442802906036 -0.5694000720977783 -0.24878543615341187
-0.5012860894203186 -0.0539446659386158 0.6127465963363647
-0.9126833081245422 -0.0649348720908165 0.15218058228492737
0.21018749475479126 -0.5930415391921997 0.5227664709091187
-0.29300349950790405 -0.5122363567352295 -0.5367385149002075
-0.3341714143753052 0.9305441379547119 -0.09630639851093292
-0.8565176129341125 -0.498808890581131 -0.1339402198791504
-0.5888700485229492 -0.5485073328018188 -0.48314985632896423
-0.7305687665939331 -0.5458831787109375 -0.24878543615341187
-0.17302297055721283 -0.41155147552490234 -0.3861863613128662
-0.5034573674201965 0.20546291768550873 -0.25023284554481506
-0.41399383544921875 0.7347503304481506 0.28857219219207764
0.6147343516349792 0.20230744779109955 -0.24878543615341187
-0.24998553097248077 -0.6654590368270874 0.44928792119026184
0.18373356759548187 -0.4684106707572937 -0.3867492377758026
0.48634082078933716 -0.019515590742230415 -0.24878543615341187
-0.3695860803127289 0.8282548785209656 0.17289124429225922
0.26961201429367065 0.46135470271110535 -0.5048562288284302
0.6508423686027527 -0.359487920999527 -0.2708500027656555
-0.4830266535282135 -0.79844069480896 -0.24878543615341187
-0.1074904203414917 -0.7514286041259766 0.3958158493041992
0.1017044186592102 -0.9821016192436218 -0.24878543615341187
-0.38832753896713257 0.736660361289978 0.30471307039260864
-0.6575971841812134 0.30987805128097534 -0.24878543615341187
-0.37419581413269043 -0.8043562769889832 0.20431897044181824
0.3319242000579834 0.49712976813316345 -0.5048562288284302
-0.7984224557876587 -0.544972836971283 -0.0025646258145570755
0.26711732149124146 0.3124735355377197 0.6604399085044861
0.2578798830509186 -0.5606364607810974 -0.5367385149002075
-0.6532789468765259 -0.3514104187488556 -0.3614554703235626
-0.6357065439224243 -0.2864619493484497 -0.44042453169822693
-0.8200298547744751 -0.11307607591152191 -0.24878543615341187
-0.4726513624191284 0.8286168575286865 0.05248917639255524
-0.5295894742012024 -0.16792722046375275 -0.24878543615341187
-0.9414068460464478 0.3338552713394165 -0.2025073766708374
0.3215837776660919 0.9110329151153564 0.005975636653602123
-0.3972351551055908 0.7223662734031677 0.31718045473098755
0.6419569849967957 -0.15483075380325317 -0.24878543615341187
-0.43349945545196533 0.44032809138298035 -0.5048562288284302
0.34864547848701477 -0.6162026524543762 -0.2708674371242523
0.4471416175365448 0.3058116137981415 -0.2637009918689728
-0.06881918013095856 0.5308070182800293 -0.5048562288284302
0.19392915070056915 0.7988426685333252 -0.24878543615341187
0.3710877001285553 -0.3018191158771515 -0.5367385149002075
-0.16166165471076965 0.027468310669064522 0.7353464961051941
-0.14317259192466736 0.7146350741386414 -0.24878543615341187
0.012755930423736572 -0.11885084956884384 -0.24878543615341187
-0.013365192338824272 -0.9155468344688416 0.14128367602825165
0.4054187834262848 0.20546291768550873 -0.38526228070259094
0.29376891255378723 -0.9413979053497314 -0.11949549615383148
-0.7297540903091431 0.00859073270112276 -0.24878543615341187
-0.4832645058631897 0.15024349093437195 0.6122599840164185
0.7457045912742615 0.6627688407897949 -0.23555755615234375
-0.17688947916030884 -0.26867184042930603 0.6950187683105469
-0.5725586414337158 0.5567016005516052 0.35291698575019836
0.44379091262817383 -0.6215548515319824 -0.26151445508003235
0.0086481599137187 -0.9907887578010559 -0.15693965554237366
0.8523684144020081 -0.13999927043914795 0.24650193750858307
0.27158650755882263 -0.13590504229068756 0.700461745262146
0.5431323647499084 -0.5140013098716736 0.4079646170139313
0.3231208026409149 0.31390735507011414 0.6414055228233337
0.20322754979133606 0.3187153935432434 -0.5048562288284302
-0.043118916451931 -0.019154194742441177 0.7470870018005371
0.6583619713783264 0.055106379091739655 0.49718183279037476
-0.8368101119995117 -0.5117886066436768 -0.24878543615341187
-0.3906540870666504 -0.7191625833511353 -0.24878543615341187
-0.8232398629188538 0.27493709325790405 0.24708478152751923
0.9253087639808655 -0.3656778931617737 -0.24555620551109314
0.9061424136161804 0.10623466223478317 0.15115869045257568
-0.2442874014377594 -0.7449316382408142 -0.24878543615341187
0.17558914422988892 0.09387809783220291 0.7285282015800476
-0.9760385751724243 0.17051918804645538 -0.11607983708381653
0.5888645648956299 0.19388850033283234 -0.24878543615341187
0.09397001564502716 0.16102249920368195 0.7313346862792969
-0.3256490230560303 0.6944934725761414 0.3924172520637512
-0.7027605772018433 -0.399040549993515 0.3364373743534088
0.03740523010492325 0.04283659905195236 0.7470608949661255
0.05745266005396843 -0.6289049386978149 0.5212556719779968
-0.5026142597198486 0.20546291768550873 -0.48937422037124634
0.46099400520324707 0.30630406737327576 0.5808858275413513
-0.8592850565910339 -0.5070493817329407 -0.24690288305282593
0.742709755897522 0.631627082824707 -0.03674842789769173
-0.2419511079788208 0.6390030980110168 -0.4171716868877411
-0.24513699114322662 -0.0027246251702308655 -0.24878543615341187
0.2869062125682831 -0.9346300959587097 -0.0658222883939743
-0.7353883981704712 -0.061539728194475174 0.4240895211696625
0.8154274821281433 0.4589505195617676 -0.24878543615341187
0.31078553199768066 0.5481607913970947 -0.46369507908821106
-0.1549956202507019 0.8741880059242249 -0.24878543615341187
0.6928347945213318 0.4710850119590759 0.29240745306015015
-0.7256655693054199 -0.5843055248260498 0.10699709504842758
-0.20953631401062012 -0.011953380890190601 -0.24878543615341187
-0.8742228746414185 0.31056922674179077 -0.24878543615341187
0.5442120432853699 -0.5831181406974792 -0.38199034333229065
-0.032316360622644424 -0.9162302017211914 0.13874590396881104
-0.7280176281929016 0.06366859376430511 0.4322251081466675
0.7707894444465637 -0.34027618169784546 0.2808707654476166
-0.3934922516345978 -0.10701923817396164 0.6619876623153687
0.012108063325285912 -0.1291573941707611 -0.24878543615341187
-0.5830822587013245 -0.20955006778240204 -0.4513356387615204
-0.5412976145744324 0.8282020092010498 -0.10063745081424713
0.7156673073768616 0.5393918752670288 0.1894737333059311
0.5197174549102783 -0.7365114688873291 0.17201264202594757
0.2771666347980499 -0.7445488572120667 0.3505649268627167
0.23696567118167877 -0.15426534414291382 -0.24878543615341187
0.44178515672683716 -0.6445440649986267 0.3674680292606354
0.3878385126590729 0.21445181965827942 -0.5048562288284302
-0.16230659186840057 -0.6539393067359924 0.48482537269592285
-0.9557958841323853 0.2811613082885742 -0.16504861414432526
-0.39851534366607666 -0.3521299362182617 -0.5367385149002075
0.0950501561164856 -0.943390429019928 -0.24878543615341187
0.5462970733642578 -0.7789233922958374 0.04099997878074646
-0.2920187711715698 0.9565377831459045 -0.23104794323444366
-0.08846740424633026 -0.7261373996734619 -0.24878543615341187
0.8398514986038208 0.38892310857772827 0.12184915691614151
0.46538645029067993 -0.6172744631767273 -0.4377223551273346
0.7005864977836609 0.36027780175209045 0.36247390508651733
-0.7648361325263977 0.16840027272701263 0.37171411514282227
0.5365667343139648 0.5080801844596863 0.421688973903656
0.0024055270478129387 -0.4345012307167053 0.6479672193527222
0.2424040138721466 0.6036524176597595 -0.4815133512020111
-0.23136472702026367 -0.05345114693045616 0.7202547788619995
-0.07773856818675995 -0.4762929677963257 0.6230045557022095
-0.41022801399230957 -0.5735885500907898 0.4557548761367798
-0.15431319177150726 0.9693323969841003 -0.05614032968878746
-0.1766580045223236 -0.3731553256511688 -0.5367385149002075
0.2510248124599457 0.5212756991386414 0.5649037957191467
-0.7656776309013367 -0.5764184594154358 0.02754151076078415
0.16903138160705566 -0.4064072072505951 -0.37512463331222534
-0.42605510354042053 0.48624473810195923 -0.4361792504787445
-0.973379373550415 -0.21968898177146912 -0.20965111255645752
0.4517574906349182 0.8796897530555725 -0.10784509778022766
0.3633381128311157 0.8545709848403931 0.11927208304405212
0.4241477847099304 0.09453661739826202 -0.24878543615341187
0.8514873385429382 0.18574786186218262 -0.24878543615341187
0.2154044806957245 0.20546291768550873 -0.2544640004634857
-0.9857524633407593 -0.030061764642596245 -0.08874616771936417
0.8828036785125732 0.462153822183609 -0.2142258733510971
0.4290308952331543 0.3038468360900879 -0.5048562288284302
-0.567232608795166 0.3899412751197815 -0.24878543615341187
-0.1310259997844696 -0.9590470194816589 -0.016828976571559906
-0.03535686060786247 -0.9434090852737427 0.06625578552484512
0.1497328281402588 0.319999635219574 0.6846532821655273
0.45810121297836304 0.2328990250825882 -0.4001648426055908
0.19525368511676788 0.7280110716819763 0.4068391025066376
0.6449729204177856 -0.3209373652935028 -0.24878543615341187
0.11880537122488022 -0.09061761945486069 0.7369765639305115
0.8102681040763855 0.5776348114013672 -0.17909269034862518
-0.987220823764801 0.08575478196144104 -0.11879657953977585
-0.4933058023452759 -0.2886112928390503 0.5688042640686035
-0.7660083174705505 -0.19511380791664124 0.3610510230064392
0.8474428057670593 -0.17295974493026733 -0.24878543615341187
-0.45858773589134216 0.6532448530197144 0.35353827476501465
-0.26720836758613586 -0.02601948194205761 -0.24878543615341187
0.16817903518676758 -0.26566067337989807 -0.24878543615341187
-0.31210094690322876 -0.16207610070705414 -0.2666783034801483
-0.003425766946747899 -0.610177755355835 0.5383815169334412
-0.25097018480300903 -0.9558651447296143 -0.12897908687591553
0.7831495404243469 -0.3168679475784302 0.27729907631874084
-0.3469093441963196 -0.9090626239776611 -0.24878543615341187
-0.476630300283432 0.8693497776985168 -0.11427029222249985
0.074198879301548 -0.9239039421081543 0.11314656585454941
-0.9149256348609924 0.12486554682254791 0.13340745866298676
0.5888617038726807 0.06025106832385063 -0.24878543615341187
0.004278102889657021 -0.7951472997665405 0.3502005338668823
-0.5231377482414246 0.8364202976226807 -0.0824512466788292
-0.3100326657295227 0.3247086703777313 0.643426239490509
0.7337191700935364 -0.34529659152030945 -0.24878543615341187
-0.25067800283432007 -0.4568476676940918 -0.5367385149002075
-0.5126976370811462 -0.16152028739452362 -0.26727455854415894
-0.3894632160663605 -0.6229482293128967 -0.4798477590084076
-0.7554032206535339 0.10173618048429489 -0.24878543615341187
0.14779996871948242 -0.5431230068206787 0.5727735757827759
-0.19514623284339905 -0.08097810298204422 0.7262173891067505
0.1780843585729599 0.6401367783546448 -0.420779287815094
-0.13589096069335938 -0.5946056246757507 0.5389475226402283
0.25268062949180603 0.20546291768550873 -0.340718537569046
0.5751121044158936 0.3560716211795807 -0.24878543615341187
0.5659157037734985 0.5943557024002075 0.31893524527549744
-0.9315818548202515 -0.2710101008415222 -0.01297687366604805
-0.12128450721502304 0.07943753153085709 -0.24878543615341187
0.9390714168548584 0.09250005334615707 0.07029528170824051
0.6177843809127808 0.5358515381813049 0.32271453738212585
0.38104090094566345 0.050411440432071686 -0.24878543615341187
-0.3335191607475281 0.9017230868339539 0.027401873841881752
0.9061501026153564 -0.40669021010398865 -0.19182023406028748
0.34813833236694336 0.507532000541687 -0.34618276357650757
-0.18507596850395203 -0.30194345116615295 -0.3621166944503784
-0.9256237149238586 0.3323618173599243 -0.06831695884466171
-0.535455048084259 0.025891060009598732 -0.24878543615341187
-0.8970587849617004 -0.41202571988105774 -0.10179273784160614
-0.21650058031082153 -0.2734152674674988 -0.5367385149002075
-0.11646027117967606 0.20546291768550873 -0.394793301820755
-0.19389201700687408 -0.6030098795890808 0.5202845931053162
0.7123678922653198 0.6187451481819153 -0.24878543615341187
-0.30053144693374634 -0.5960795283317566 -0.3387242257595062
-0.8591349124908447 0.5102799534797668 -0.20268535614013672
-0.8751121759414673 0.3799456059932709 0.05103922635316849
-0.12556199729442596 0.6775017380714417 -0.3862837553024292
-0.4853283762931824 -0.15102127194404602 -0.44216108322143555
0.12331658601760864 0.20546291768550873 -0.49220648407936096
-0.44349876046180725 -0.763818085193634 -0.24878543615341187
0.6355220079421997 0.7273201942443848 0.0033535740803927183
0.08026387542486191 0.9804015159606934 -0.07029245793819427
0.2487902194261551 -0.07019571959972382 -0.24878543615341187
-0.9544209837913513 -0.15787182748317719 -6.436843978008255e-05
0.17322497069835663 0.04164052754640579 -0.24878543615341187
0.1282009482383728 -0.491634726524353 0.6078767776489258
-0.9432296752929688 -0.13669592142105103 0.04980076104402542
0.5811590552330017 0.482851505279541 -0.24878543615341187
0.6312060952186584 0.7393079996109009 -0.022414665669202805
0.048811495304107666 -0.144822359085083 0.7364898920059204
-0.4409632086753845 0.779631495475769 0.19635440409183502
-0.6689099669456482 0.5902526378631592 0.20335803925991058
0.09218928962945938 0.9221000075340271 0.12598997354507446
0.669370174407959 0.17431028187274933 0.4688992500305176
-0.3672780692577362 -0.258862167596817 -0.5367385149002075
-0.5167872309684753 0.4869312345981598 0.45485806465148926
0.10276167094707489 0.09805445373058319 -0.24878543615341187
-0.3679955005645752 -0.0785924643278122 0.6754646897315979
0.06573358923196793 -0.7567136883735657 -0.24878543615341187
-0.6022569537162781 0.4028255045413971 0.4397044777870178
-0.09172352403402328 0.032232701778411865 0.7440014481544495
-0.3025626540184021 -0.5972377061843872 -0.3938674032688141
-0.7845481634140015 0.5297756195068359 0.07416046410799026
-0.6502896547317505 0.10702550411224365 0.5018141269683838
0.7412621378898621 0.44649991393089294 0.2469060868024826
0.2090345323085785 -0.9070455431938171 -0.24878543615341187
-0.9618313908576965 -0.07116345316171646 0.01148903276771307
0.8073797225952148 -0.1307424157857895 0.3190821409225464
-0.18427674472332 -0.4601301848888397 -0.29039624333381653
-0.9595218896865845 0.008854507468640804 0.029913222417235374
-0.27654847502708435 -0.1824842095375061 -0.44575998187065125
0.012377290055155754 0.5576304197311401 -0.5048562288284302
0.48543787002563477 -0.8603721261024475 -0.13405843079090118
0.6933664083480835 0.3177388310432434 0.3933753967285156
-0.6467028856277466 -0.31846264004707336 -0.5194626450538635
-0.7242735624313354 0.49855783581733704 0.22753961384296417
0.18652793765068054 0.914557933807373 0.10850197821855545
0.1974923312664032 0.9031892418861389 0.1306992769241333
-0.3532373309135437 0.6422135829925537 0.4311412274837494
0.1694805920124054 -0.35292375087738037 -0.3089692294597626
-0.46178850531578064 -0.3993836045265198 0.5397495627403259
-0.270513117313385 -0.44945400953292847 0.5988811254501343
0.424751341342926 0.8401756882667542 0.08492904901504517
0.11643604189157486 -0.21648725867271423 -0.24878543615341187
-0.48378559947013855 0.3616296947002411 -0.5048562288284302
-0.2998098134994507 0.3471822440624237 0.6386078596115112
0.13988591730594635 -0.9760565161705017 -0.11630969494581223
0.1691495031118393 -0.17733795940876007 -0.24878543615341187
-0.17554020881652832 -0.9346142411231995 0.045794855803251266
-0.25139692425727844 0.15906411409378052 0.7040842175483704
0.44119933247566223 0.6872648000717163 0.32554900646209717
-0.023274872452020645 0.9976181983947754 -0.18324418365955353
0.06591557711362839 -0.24467025697231293 0.7152895331382751
0.5700024962425232 0.49325326085090637 0.40485912561416626
-0.21912653744220734 0.9681403040885925 -0.12578846514225006
0.1932479441165924 0.20546291768550873 -0.27172237634658813
-0.655056357383728 0.13347405195236206 -0.24878543615341187
-0.7083699703216553 0.31186914443969727 0.383650004863739
0.2843044102191925 0.02413725107908249 0.7065781354904175
0.544293224811554 -0.583210289478302 -0.49845150113105774
0.40142175555229187 -0.5455634593963623 0.480715274810791
0.8525106906890869 -0.4494215250015259 -0.24878543615341187
-0.6500797867774963 0.6638674139976501 0.12181659787893295
-0.04489906132221222 0.9757688045501709 -0.034572962671518326
-0.2284318059682846 -0.5376489758491516 -0.46689191460609436
0.30522140860557556 0.8940561413764954 0.0765785202383995
0.09026291221380234 0.002282210625708103 -0.24878543615341187
-0.6956378221511841 0.19366730749607086 -0.24878543615341187
0.8271968364715576 -0.45841509103775024 0.06015423685312271
0.8242117762565613 -0.16586335003376007 0.2845257520675659
0.9207261800765991 0.36032992601394653 -0.1224900335073471
0.9905042052268982 -0.02613026462495327 -0.15040847659111023
-0.814069926738739 0.4469992220401764 0.12216059118509293
-0.4359675645828247 -0.6774007081985474 -0.24878543615341187
0.08407873660326004 -0.9575153589248657 0.008172454312443733
0.7625622749328613 0.3753993809223175 0.2725006341934204
-0.8158994913101196 -0.5718737840652466 -0.20032820105552673
0.16889949142932892 0.7576798796653748 0.3801378905773163
-0.1604408174753189 -0.7138407826423645 0.42714887857437134
0.34757858514785767 0.45338740944862366 0.5694707036018372
-0.8132443428039551 -0.37312036752700806 0.19333529472351074
0.13782279193401337 0.20546291768550873 -0.4305809736251831
-0.2855863869190216 -0.5873152613639832 -0.27190348505973816
0.7158324718475342 0.6745596528053284 -0.080543652176857
-0.01873541623353958 0.9547977447509766 0.04734500125050545
0.9204140305519104 0.33151525259017944 -0.05815938860177994
0.7514545917510986 -0.6513610482215881 -0.2385355532169342
-0.5564112067222595 -0.5772223472595215 -0.267854243516922
