-0.04714661464095116 -0.7316058278083801 -0.03647848591208458
0.46998146176338196 -0.8515153527259827 -0.03647848591208458
0.459888756275177 0.3098941445350647 0.036300912499427795
0.191567525267601 -0.9497594237327576 -0.03647848591208458
-0.03823758661746979 -0.8952382802963257 -0.03647848591208458
-0.1332932710647583 0.42943844199180603 -0.0006315544014796615
-0.6088521480560303 0.5073946714401245 -0.03647848591208458
-0.4440711736679077 0.05373326316475868 -0.0040587508119642735
-0.514443576335907 -0.489082008600235 0.036300912499427795
0.6983335614204407 0.6360058188438416 0.036300912499427795
-0.38239461183547974 0.29535436630249023 0.036300912499427795
-0.7133140563964844 0.6232571005821228 -0.003782033221796155
-0.3046663999557495 0.892838180065155 -0.03647848591208458
0.2546176314353943 -0.7740259766578674 0.036300912499427795
-0.207662433385849 -0.635830819606781 0.036300912499427795
0.5424387454986572 -0.2913285791873932 -0.03647848591208458
-0.46219363808631897 -0.1004478856921196 0.036300912499427795
-0.5649454593658447 -0.2867446839809418 0.036300912499427795
-0.7133140563964844 -0.42131897807121277 -0.018121570348739624
0.6028822064399719 -0.7038648128509521 -0.03647848591208458
-0.490656316280365 -0.06684625893831253 -0.03647848591208458
0.3332825303077698 0.4096013307571411 -0.03647848591208458
-0.41582220792770386 -0.6522703766822815 0.036300912499427795
0.5445544123649597 -0.4650424122810364 -0.03647848591208458
0.12696626782417297 0.4298570454120636 -0.01772994175553322
-0.1427810937166214 0.7013183832168579 0.036300912499427795
0.1793825328350067 0.7000898122787476 -0.03647848591208458
-0.6229435205459595 0.38391631841659546 0.036300912499427795
0.19835041463375092 0.9775768518447876 -0.03647848591208458
0.33594998717308044 0.49780920147895813 -0.03647848591208458
0.425822377204895 0.12195707857608795 0.01917973905801773
-0.11084382981061935 -0.967839777469635 0.036300912499427795
-0.4798211455345154 0.5011084675788879 0.036300912499427795
0.04034366086125374 -0.7428642511367798 -0.03647848591208458
-0.5469765663146973 0.7351981401443481 0.036300912499427795
0.3814961016178131 -0.6849594712257385 0.036300912499427795
-0.36278024315834045 0.7798808217048645 0.036300912499427795
0.38404688239097595 -0.5177363157272339 0.036300912499427795
0.16957363486289978 0.6890718340873718 -0.03647848591208458
0.42565590143203735 0.4624324440956116 0.036300912499427795
0.2872388958930969 -0.8772001266479492 0.036300912499427795
0.16022247076034546 0.6464813351631165 0.036300912499427795
-0.12402540445327759 -0.4846542775630951 -0.03647848591208458
-0.33180004358291626 -0.33374688029289246 -0.03647848591208458
-0.39704805612564087 -0.7783326506614685 -0.03647848591208458
-0.7072500586509705 0.2568051218986511 -0.03647848591208458
-0.4400225579738617 -0.6162598729133606 0.036300912499427795
0.5403732061386108 -0.2293749898672104 0.036300912499427795
-0.4220457673072815 -0.6083375811576843 -0.03647848591208458
-0.18654927611351013 0.982830286026001 0.026007622480392456
0.33396023511886597 0.3905569911003113 0.036300912499427795
-0.09924004226922989 -0.522457480430603 -0.03647848591208458
0.21492253243923187 -0.4210139811038971 -0.03647848591208458
-0.49436095356941223 0.618758499622345 0.036300912499427795
0.18576431274414062 0.9739573001861572 0.036300912499427795
0.4397404193878174 0.04533938318490982 0.014421997591853142
-0.4636650085449219 0.03951273113489151 0.036300912499427795
0.10508375614881516 0.6538753509521484 0.036300912499427795
-0.7053772211074829 0.21628792583942413 -0.03647848591208458
0.6375430822372437 -0.20528993010520935 -0.03647848591208458
0.5705127120018005 0.18590299785137177 0.036300912499427795
0.0002828985161613673 0.8741821646690369 0.036300912499427795
-0.6038073897361755 -0.3571275770664215 0.036300912499427795
-0.5580409169197083 0.7590336799621582 0.036300912499427795
0.16253647208213806 0.980385959148407 -0.03647848591208458
0.6573520302772522 -0.04608137533068657 -0.03647848591208458
-0.6041232347488403 -0.74872225522995 -0.03647848591208458
-0.6094162464141846 -0.3522118628025055 0.036300912499427795
-0.32491016387939453 -0.6969622373580933 -0.03647848591208458
0.07349970191717148 -0.5408781170845032 0.036300912499427795
0.025911835953593254 -0.7540265917778015 -0.03647848591208458
0.156707763671875 0.5271850824356079 0.036300912499427795
-0.0546848401427269 0.9986209869384766 0.00711454963311553
-0.6595627665519714 -0.7422436475753784 0.023891374468803406
0.6243240833282471 -0.6802974343299866 0.036300912499427795
-0.43967610597610474 -0.3031800091266632 0.036300912499427795
-0.542951226234436 -0.2813200056552887 0.036300912499427795
0.5228762030601501 -0.07368840277194977 0.036300912499427795
-0.5351183414459229 -0.30410102009773254 0.036300912499427795
-0.5743108987808228 -0.2716638743877411 -0.03647848591208458
-0.6755880117416382 -0.44548991322517395 0.036300912499427795
-0.3696559965610504 -0.8659080862998962 0.036300912499427795
0.18246780335903168 0.9352269172668457 -0.03647848591208458
0.3045884072780609 -0.5466424226760864 -0.03647848591208458
0.12968161702156067 -0.41902825236320496 -0.02726561576128006
0.5239623188972473 0.49646079540252686 0.036300912499427795
0.13197612762451172 -0.43557533621788025 -0.03647848591208458
0.2114541381597519 -0.9368341565132141 0.036300912499427795
0.5061211585998535 -0.19647060334682465 0.036300912499427795
0.3209743797779083 -0.8574517965316772 -0.03647848591208458
-0.7133140563964844 0.18613506853580475 -0.020866287872195244
-0.7133140563964844 -0.6495742797851562 0.00010865790682146326
-0.6534989476203918 -0.2010335475206375 0.036300912499427795
0.6204959154129028 0.7807353734970093 0.023438287898898125
-0.4892868399620056 0.8179805874824524 0.036300912499427795
0.7081586122512817 -0.16443687677383423 0.0006695491611026227
-0.35171374678611755 -0.6267152428627014 0.036300912499427795
-0.4692983031272888 -0.7165272235870361 0.036300912499427795
0.56471848487854 0.3063526153564453 0.036300912499427795
-0.5474290251731873 -0.5876588821411133 -0.03647848591208458
-0.18955224752426147 -0.4851447343826294 -0.03647848591208458
0.2507469058036804 -0.9218541979789734 0.036300912499427795
-0.06724941730499268 0.5802850723266602 0.036300912499427795
-0.5764422416687012 -0.807797908782959 0.035486090928316116
-0.0653502494096756 -0.47693806886672974 -0.03647848591208458
0.5631016492843628 -0.18536990880966187 -0.03647848591208458
-0.06541845947504044 0.4620497524738312 -0.03647848591208458
0.706585705280304 -0.24918711185455322 -0.03647848591208458
-0.10403766483068466 0.4373100697994232 0.013612056151032448
-0.1769283413887024 -0.5498039126396179 0.036300912499427795
-0.44196617603302 0.8553325533866882 0.036300912499427795
-0.6049726009368896 0.25757911801338196 0.036300912499427795
-0.6161661148071289 0.5782028436660767 0.036300912499427795
0.41834601759910583 0.6488445401191711 0.036300912499427795
0.19666266441345215 -0.5759093165397644 -0.03647848591208458
0.6189192533493042 -0.058118849992752075 0.036300912499427795
0.6000611186027527 0.6879141926765442 -0.03647848591208458
-0.4018852412700653 -0.3369261622428894 -0.03647848591208458
0.48871201276779175 0.3366170823574066 -0.03647848591208458
0.6788308620452881 -0.720052182674408 0.026261935010552406
-0.664170503616333 0.6529843807220459 0.036300912499427795
0.668827474117279 0.07519183307886124 0.036300912499427795
-0.027424147352576256 -0.6826348304748535 0.036300912499427795
-0.34203410148620605 0.3160090446472168 0.036300912499427795
0.33877256512641907 0.7275373339653015 0.036300912499427795
0.08774156123399734 0.5184462070465088 -0.03647848591208458
-0.5508338212966919 0.8272714614868164 -0.03647848591208458
-0.04463044926524162 0.68791264295578 -0.03647848591208458
0.2027004361152649 -0.4420012831687927 0.036300912499427795
-0.18649382889270782 0.9685943126678467 0.036300912499427795
0.367150217294693 0.6138902902603149 0.036300912499427795
-0.16192473471164703 -0.6620694398880005 -0.03647848591208458
-0.3937409818172455 -0.662606418132782 -0.03647848591208458
0.20094281435012817 -0.9201632142066956 -0.03647848591208458
0.02959924004971981 0.7925142645835876 -0.03647848591208458
-0.2927172780036926 0.41285502910614014 0.036300912499427795
0.6465287208557129 0.7591153979301453 0.02458331361413002
-0.36662665009498596 -0.8521419763565063 -0.03647848591208458
0.20862144231796265 -0.4505520462989807 -0.03647848591208458
-0.3629120886325836 -0.9094707369804382 0.036300912499427795
0.6779772043228149 0.7308061718940735 0.004674133844673634
0.27803295850753784 -0.4444153904914856 -0.03647848591208458
-0.550061821937561 -0.5130536556243896 0.036300912499427795
0.36836719512939453 0.5296692252159119 0.036300912499427795
-0.5176695585250854 0.6531320810317993 -0.03647848591208458
-0.39560848474502563 0.9190601110458374 0.023770244792103767
-0.3274846076965332 0.30771252512931824 0.01493993028998375
-0.5602442622184753 -0.7923746705055237 0.036300912499427795
-0.38204824924468994 -0.33762261271476746 0.036300912499427795
-0.1415805220603943 -0.791065514087677 0.036300912499427795
-0.2964341640472412 -0.5629716515541077 -0.03647848591208458
0.5338916182518005 0.8363898992538452 -0.03647848591208458
-0.527843713760376 -0.16236017644405365 0.036300912499427795
-0.5361226201057434 -0.39077281951904297 -0.03647848591208458
-0.53713458776474 0.5898666977882385 -0.03647848591208458
-0.5125044584274292 0.34198325872421265 -0.03647848591208458
-0.7133140563964844 -0.6666276454925537 -0.035923685878515244
-0.01066360343247652 -0.8449147343635559 0.036300912499427795
-0.5010934472084045 0.18474575877189636 -0.03647848591208458
0.14923201501369476 -0.5662962198257446 0.036300912499427795
-0.5282841920852661 -0.6646735072135925 -0.03647848591208458
-0.41764578223228455 -0.15317557752132416 -0.015858234837651253
0.23901183903217316 0.8183765411376953 0.036300912499427795
-0.28631967306137085 -0.6998065114021301 -0.03647848591208458
-0.024144180119037628 -0.6497260332107544 -0.03647848591208458
-0.561504065990448 0.5209867358207703 -0.03647848591208458
0.18490038812160492 0.7370343804359436 0.036300912499427795
-0.3766479790210724 -0.6731988191604614 0.036300912499427795
-0.5928652882575989 0.19698388874530792 -0.03647848591208458
0.355533242225647 0.6169385313987732 0.036300912499427795
0.23677319288253784 0.8030766248703003 0.036300912499427795
-0.4287741184234619 -0.6663827896118164 0.036300912499427795
0.22932840883731842 -0.3738301992416382 0.010806548409163952
-0.10335099697113037 -0.42753371596336365 0.007643821183592081
-0.6990171670913696 -0.056134261190891266 -0.03647848591208458
0.2315063327550888 0.6951133608818054 0.036300912499427795
0.3937176764011383 -0.19560694694519043 0.007331854663789272
0.18795019388198853 0.8365917801856995 0.036300912499427795
-0.2687176465988159 -0.9073452353477478 -0.03647848591208458
-0.08327388763427734 0.8215667605400085 0.036300912499427795
0.14849427342414856 0.4226085841655731 -0.031157994642853737
0.5813367366790771 0.11103741824626923 -0.03647848591208458
0.3729156255722046 0.7227090001106262 -0.03647848591208458
0.303020179271698 -0.36576324701309204 -0.03647848591208458
-0.6815609335899353 -0.16131679713726044 -0.03647848591208458
0.09108007699251175 -0.6338590383529663 -0.03647848591208458
0.3258580267429352 -0.7699122428894043 -0.03647848591208458
0.285832941532135 0.8984960913658142 0.036300912499427795
-0.6557765603065491 0.2032388299703598 0.036300912499427795
-0.6826072335243225 0.37944450974464417 -0.03647848591208458
-0.005164681933820248 0.4945369064807892 0.036300912499427795
0.17297324538230896 -0.8902016878128052 0.036300912499427795
0.6292388439178467 0.77361661195755 0.0031541159842163324
-0.4598170220851898 0.5041376948356628 -0.03647848591208458
-0.5451111793518066 0.613574206829071 0.036300912499427795
-0.25735294818878174 -0.567892849445343 -0.03647848591208458
-0.5832294225692749 0.7816491723060608 0.036300912499427795
-0.6453553438186646 -0.40340304374694824 -0.03647848591208458
0.20111504197120667 0.7112401127815247 -0.03647848591208458
0.010780800133943558 0.512553870677948 -0.03647848591208458
-0.4598395526409149 0.09785391390323639 -0.03647848591208458
-0.22416891157627106 -0.3799147307872772 0.004109741188585758
-0.04540976881980896 -0.6829834580421448 -0.03647848591208458
0.00978588405996561 0.6286898851394653 0.036300912499427795
-0.40907537937164307 -0.29291605949401855 -0.03647848591208458
-0.37177011370658875 -0.3418997824192047 -0.03647848591208458
-0.3613939881324768 -0.7265947461128235 -0.03647848591208458
-0.2441253513097763 0.7760762572288513 0.036300912499427795
-0.05523308366537094 -0.9885920286178589 -0.032388836145401
-0.0990573987364769 -0.8708059191703796 -0.03647848591208458
0.7081586122512817 -0.12565656006336212 -0.011957858689129353
0.2563475966453552 0.7914421558380127 0.036300912499427795
-0.4938026964664459 -0.5625330805778503 -0.03647848591208458
0.07742553949356079 -0.6520183086395264 -0.03647848591208458
-0.3377602994441986 -0.8497483134269714 -0.03647848591208458
-0.5039793848991394 -0.3692101836204529 0.036300912499427795
-0.37542039155960083 0.8339470624923706 -0.03647848591208458
0.26626071333885193 -0.6360728740692139 0.036300912499427795
0.15702016651630402 -0.5078065395355225 0.036300912499427795
-0.11248169839382172 0.7524933218955994 -0.03647848591208458
0.5479186773300171 -0.7964832782745361 0.036300912499427795
-0.32458075881004333 0.31083327531814575 0.01812664046883583
0.6165045499801636 -0.5591021776199341 -0.03647848591208458
-0.10389701277017593 0.8330787420272827 -0.034402698278427124
0.6193765997886658 -0.1633574664592743 -0.03647848591208458
-0.6822346448898315 -0.35234835743904114 -0.03647848591208458
0.7081586122512817 -0.2056063860654831 0.006242900621145964
0.13083578646183014 -0.6557540893554688 -0.03647848591208458
-0.15599922835826874 -0.8942482471466064 -0.010769973509013653
0.3171117901802063 0.6019009947776794 -0.03647848591208458
0.5306501984596252 0.31912460923194885 0.036300912499427795
-0.6722977757453918 -0.06927790492773056 0.036300912499427795
-0.09092811495065689 -0.7860255837440491 -0.03647848591208458
0.6216488480567932 0.7798287272453308 0.03193672001361847
-0.3066249191761017 -0.8317500352859497 -0.03647848591208458
-0.4408108592033386 0.4649788737297058 -0.03647848591208458
0.2460213303565979 -0.3911108672618866 -0.03647848591208458
-0.45119693875312805 0.05450640618801117 0.036300912499427795
0.6851778626441956 -0.5636472702026367 0.036300912499427795
-0.36006009578704834 -0.32070842385292053 0.036300912499427795
0.530946671962738 -0.26982349157333374 -0.03647848591208458
-0.12882158160209656 0.46849292516708374 0.036300912499427795
0.31496161222457886 0.6089995503425598 0.036300912499427795
0.24402542412281036 -0.8550176024436951 -0.03647848591208458
-0.35232749581336975 -0.5157905220985413 0.036300912499427795
-0.3657410740852356 0.6164848804473877 -0.03647848591208458
-0.5334630012512207 -0.47458088397979736 -0.03647848591208458
-0.3748815655708313 -0.878448486328125 -0.03647848591208458
0.2610149085521698 0.7750208377838135 -0.03647848591208458
-0.4825752079486847 -0.2678963541984558 0.036300912499427795
0.5036108493804932 -0.6607736945152283 -0.03647848591208458
0.253467321395874 0.7909525036811829 0.036300912499427795
0.6535317301750183 0.4809556305408478 0.036300912499427795
-0.7133140563964844 0.4317854046821594 -0.005821526516228914
0.5921328663825989 -0.5093814134597778 -0.03647848591208458
0.24597933888435364 -0.9584453701972961 0.01335679367184639
0.6342607736587524 -0.3204413950443268 0.036300912499427795
-0.1763862520456314 -0.9428970813751221 0.036300912499427795
-0.32078930735588074 -0.7074305415153503 -0.03647848591208458
0.0993683710694313 -0.8223035335540771 -0.028526224195957184
-0.3278158903121948 -0.9156273603439331 -0.03647848591208458
-0.12958943843841553 0.7491960525512695 -0.03647848591208458
-0.15127237141132355 -0.955574631690979 -0.03647848591208458
-0.4873850643634796 -0.6892383098602295 -0.03647848591208458
-0.0816449448466301 -0.8055528998374939 0.036300912499427795
0.15981146693229675 0.548636794090271 0.036300912499427795
-0.009178913198411465 0.8548580408096313 -0.03647848591208458
-0.5630902647972107 -0.07244683802127838 0.036300912499427795
-0.22991305589675903 -0.9171083569526672 0.036300912499427795
0.5927327871322632 -0.5959646105766296 -0.03647848591208458
0.4221484065055847 -0.5525299310684204 0.036300912499427795
-0.2166493535041809 -0.8664260506629944 -0.03647848591208458
0.42832130193710327 0.26572898030281067 0.036300912499427795
-0.4625738561153412 0.8675777912139893 0.036300912499427795
-0.07178352028131485 -0.6827700734138489 0.036300912499427795
-0.28215983510017395 0.7865481972694397 -0.03647848591208458
0.45029330253601074 -0.8085067868232727 0.036300912499427795
0.17764587700366974 -0.9735205173492432 0.022067902609705925
-0.20340761542320251 0.7839782238006592 -0.03647848591208458
0.6111587285995483 0.14179719984531403 0.036300912499427795
0.33044588565826416 -0.7005654573440552 -0.03647848591208458
0.2890038788318634 0.9043439030647278 0.036300912499427795
-0.34954702854156494 -0.2722736895084381 -0.027812732383608818
0.7081586122512817 0.5655292272567749 -0.018901120871305466
-0.5378924608230591 -0.21285325288772583 -0.03647848591208458
-0.3530135154724121 -0.5767118334770203 -0.03647848591208458
-0.23052527010440826 -0.7369341254234314 0.036300912499427795
-0.18770165741443634 -0.6339623332023621 0.036300912499427795
-0.6309301853179932 0.17596057057380676 0.036300912499427795
-0.6388869285583496 -0.5613453984260559 0.036300912499427795
-0.2451309710741043 0.574190080165863 0.036300912499427795
0.6384834051132202 -0.44667667150497437 -0.03647848591208458
-0.3979402482509613 0.2972123920917511 0.036300912499427795
0.5721157789230347 -0.17791740596294403 -0.03647848591208458
0.26327067613601685 0.7373849153518677 0.036300912499427795
-0.24743877351284027 -0.6005961894989014 -0.03647848591208458
0.2754211127758026 0.960385799407959 0.004027067217975855
0.17590615153312683 -0.5497414469718933 0.036300912499427795
-0.49832215905189514 0.8396236300468445 -0.03647848591208458
-0.5443985462188721 0.051173239946365356 -0.03647848591208458
0.008649659343063831 0.9999364018440247 0.006308709736913443
0.7081586122512817 -0.17434866726398468 -0.0007761415909044445
-0.6867514252662659 0.4508717954158783 -0.03647848591208458
0.5507962107658386 -0.10288610309362411 -0.03647848591208458
0.47847452759742737 -0.3857932388782501 -0.03647848591208458
-0.34777793288230896 0.8241289854049683 -0.03647848591208458
-0.16073745489120483 -0.9581679701805115 -0.03647848591208458
0.014504391700029373 -0.46697065234184265 0.036300912499427795
0.03517848253250122 -0.9162790775299072 0.036300912499427795
-0.08417303115129471 0.5134725570678711 0.036300912499427795
-0.3515157103538513 -0.4881324768066406 0.036300912499427795
0.06006492301821709 0.5794312953948975 -0.03647848591208458
-0.2937430739402771 0.9243901968002319 0.036300912499427795
0.7081586122512817 0.12445692718029022 -0.03510669246315956
0.5703278183937073 0.3876846134662628 -0.03647848591208458
-0.3572559654712677 -0.4367519021034241 0.036300912499427795
0.42514538764953613 -0.7329878807067871 0.036300912499427795
0.6072085499763489 -0.22856469452381134 -0.03647848591208458
0.499510794878006 -0.8006393909454346 0.036300912499427795
-0.07970156520605087 -0.7088595628738403 0.036300912499427795
-0.25192922353744507 0.8489370942115784 0.036300912499427795
-0.7133140563964844 0.6956096291542053 0.017454423010349274
-0.6910481452941895 0.30315977334976196 -0.03647848591208458
0.6196532845497131 -0.36521652340888977 0.036300912499427795
-0.5103932619094849 0.1874457597732544 -0.03647848591208458
0.3763086497783661 0.6108421683311462 -0.03647848591208458
-0.5968961715698242 -0.20659656822681427 0.036300912499427795
-0.33730900287628174 0.7122949361801147 -0.03647848591208458
0.48657622933387756 0.8334471583366394 -0.03647848591208458
0.4733944535255432 -0.3295595049858093 0.036300912499427795
-0.7133140563964844 -0.26526254415512085 0.018520774319767952
0.18210485577583313 -0.9726919531822205 0.021928956732153893
-0.6316078901290894 0.17084673047065735 -0.03647848591208458
0.16561803221702576 0.7472442984580994 0.036300912499427795
-0.7065372467041016 -0.16550017893314362 -0.03647848591208458
-0.6831969022750854 -0.5245547890663147 0.036300912499427795
-0.45740512013435364 0.18418513238430023 -0.03647848591208458
-0.2876284122467041 0.6671901345252991 0.036300912499427795
-0.3676203489303589 0.6005452871322632 -0.03647848591208458
0.1972106546163559 -0.7015541195869446 0.036300912499427795
-0.7096263766288757 -0.5992761850357056 -0.03647848591208458
-0.7066080570220947 0.7080936431884766 0.005752032157033682
-0.583798348903656 0.5995639562606812 0.036300912499427795
-0.5660049319267273 0.06661560386419296 -0.03647848591208458
0.7081586122512817 0.005820608232170343 -0.005147163290530443
0.2859693765640259 0.9042283892631531 0.036300912499427795
-0.008320698514580727 0.6340764760971069 0.036300912499427795
-0.28755924105644226 -0.6213710308074951 0.036300912499427795
-0.29651039838790894 -0.4491133391857147 0.036300912499427795
-0.7133140563964844 -0.48410356044769287 0.015602124854922295
0.30421340465545654 -0.6622328758239746 0.036300912499427795
-0.20810851454734802 0.884718656539917 0.036300912499427795
0.12792235612869263 0.9367450475692749 -0.03647848591208458
0.6482322216033936 -0.21898044645786285 0.036300912499427795
0.4526175856590271 0.1855238825082779 -0.03647848591208458
-0.049011748284101486 0.6197348833084106 0.036300912499427795
0.5694573521614075 -0.06186360493302345 -0.03647848591208458
-0.560875654220581 0.6467003226280212 0.036300912499427795
0.529961347579956 -0.09787101298570633 -0.03647848591208458
0.1912095993757248 0.5942403078079224 0.036300912499427795
0.15153153240680695 -0.41153404116630554 0.03012845851480961
-0.3649989366531372 0.5607357621192932 -0.03647848591208458
0.010299053974449635 0.6645995378494263 -0.03647848591208458
0.3965105712413788 -0.4870327115058899 0.036300912499427795
-0.5096006393432617 -0.294711709022522 0.036300912499427795
0.3372363746166229 -0.4420067071914673 0.036300912499427795
-0.3601698875427246 0.5412071347236633 0.036300912499427795
-0.5189716219902039 -0.2299281358718872 -0.03647848591208458
0.5739687085151672 0.48875388503074646 0.036300912499427795
-0.5590821504592896 -0.8068978786468506 0.036300912499427795
-0.5575895309448242 0.07799355685710907 0.036300912499427795
0.6083417534828186 0.626413881778717 -0.03647848591208458
-0.4050501883029938 0.5287503004074097 0.036300912499427795
-0.2722271978855133 -0.8627519011497498 -0.03647848591208458
0.36942124366760254 -0.9082586765289307 -0.03647848591208458
0.5610131025314331 0.14999856054782867 0.036300912499427795
-0.23750941455364227 -0.46640846133232117 -0.03647848591208458
0.603010892868042 0.5725036859512329 0.036300912499427795
0.47564181685447693 0.7359076738357544 0.036300912499427795
0.37649640440940857 0.23645538091659546 -0.0068232775665819645
-0.40080228447914124 0.5839793682098389 0.036300912499427795
0.48389631509780884 0.29733386635780334 0.036300912499427795
0.7081586122512817 0.002616266021504998 0.03113984875380993
-0.4663151204586029 -0.8753067851066589 -0.002856869250535965
0.35815975069999695 0.7500645518302917 0.036300912499427795
-0.4970707595348358 0.6505334377288818 -0.03647848591208458
0.25471723079681396 0.6377816796302795 0.036300912499427795
-0.1838625967502594 0.4459863007068634 0.036300912499427795
-0.24989426136016846 0.6931881904602051 -0.03647848591208458
0.691034734249115 -0.10000494867563248 0.036300912499427795
0.14029958844184875 -0.5624233484268188 0.036300912499427795
-0.6177611351013184 0.4887562096118927 0.036300912499427795
0.04080473631620407 0.49356913566589355 -0.03647848591208458
0.305609792470932 0.8120611906051636 -0.03647848591208458
-0.7133140563964844 -0.1552952527999878 0.029208999127149582
-0.539030909538269 -0.15065884590148926 0.036300912499427795
0.3005736172199249 0.34610700607299805 0.036300912499427795
0.44468677043914795 -0.8240288496017456 -0.03647848591208458
0.5252816677093506 -0.3700343370437622 0.036300912499427795
-0.38435399532318115 0.685995876789093 0.036300912499427795
0.627968430519104 -0.7245176434516907 0.036300912499427795
-0.5532307028770447 0.7901982069015503 -0.03647848591208458
0.5741894841194153 0.7252395749092102 -0.03647848591208458
0.5810640454292297 -0.36628755927085876 0.036300912499427795
0.4567682147026062 -0.164121612906456 -0.03647848591208458
0.6121178269386292 0.524023711681366 0.036300912499427795
-0.4461832642555237 -0.8491642475128174 0.036300912499427795
0.2176789790391922 0.3906306326389313 0.002298387698829174
0.2526489496231079 -0.8656738996505737 -0.03647848591208458
0.6949321031570435 -0.5920090079307556 0.036300912499427795
-0.32340192794799805 0.6960442662239075 0.036300912499427795
-0.5897165536880493 -0.6524147391319275 0.036300912499427795
-0.4435054361820221 -0.6964370012283325 -0.03647848591208458
-0.4522145688533783 0.13858318328857422 0.036300912499427795
-0.05053521692752838 0.4465245008468628 0.00529829878360033
-0.5076183676719666 0.1842484474182129 -0.03647848591208458
0.4235219955444336 -0.4263015687465668 -0.03647848591208458
0.33253049850463867 0.41300278902053833 -0.03647848591208458
-0.31884831190109253 0.8248106241226196 0.036300912499427795
0.275308221578598 0.6793968081474304 0.036300912499427795
0.28949475288391113 0.8733742237091064 -0.03647848591208458
-0.6159952878952026 -0.42463770508766174 0.036300912499427795
-0.7036300301551819 -0.0796964168548584 -0.03647848591208458
-0.3257693648338318 -0.3827756643295288 0.036300912499427795
-0.5084505677223206 -0.8386482000350952 -0.03647848591208458
0.3153034448623657 0.3151594400405884 -0.015324675478041172
-0.08932401984930038 -0.8839761018753052 -0.03647848591208458
0.49866923689842224 -0.15806005895137787 -0.03647848591208458
-0.38342025876045227 0.5664270520210266 0.036300912499427795
-0.39626652002334595 0.891975998878479 -0.03647848591208458
0.4968058168888092 0.5640044212341309 -0.03647848591208458
-0.2756935954093933 -0.8770318031311035 0.036300912499427795
-0.5852983593940735 -0.5913649797439575 0.036300912499427795
0.32644322514533997 -0.6104647517204285 0.036300912499427795
-0.4522152841091156 0.295871764421463 -0.03647848591208458
-0.5388141870498657 0.7653247117996216 -0.03647848591208458
0.6653107404708862 -0.27952852845191956 -0.03647848591208458
0.5441675186157227 -0.7098407745361328 -0.03647848591208458
-0.23765498399734497 -0.5000401735305786 -0.03647848591208458
-0.45431822538375854 -0.12230769544839859 -0.03647848591208458
-0.22567112743854523 0.9746384620666504 0.035301048308610916
0.1434105634689331 -0.6855596303939819 0.036300912499427795
-0.5356127023696899 -0.02611319161951542 0.036300912499427795
0.6479292511940002 0.6070162653923035 -0.03647848591208458
-0.37007400393486023 0.3052372932434082 -0.03647848591208458
-0.7133140563964844 0.10924657434225082 -0.015108102932572365
0.47637519240379333 -0.3431389331817627 -0.03647848591208458
0.5237208008766174 0.452319473028183 0.036300912499427795
-0.6132851839065552 -0.28516992926597595 0.036300912499427795
0.01688315160572529 0.5924190282821655 0.036300912499427795
0.6766704320907593 -0.25466668605804443 0.036300912499427795
0.6075258255004883 -0.14662200212478638 -0.03647848591208458
0.4829097390174866 -0.5523560643196106 0.036300912499427795
0.31089627742767334 0.9474285840988159 0.036300912499427795
0.258633017539978 -0.4178833067417145 -0.03647848591208458
0.3641166090965271 0.4575575888156891 -0.03647848591208458
-0.683292031288147 -0.7207089066505432 -0.014177058823406696
0.059250183403491974 0.7842307686805725 -0.03647848591208458
-0.3545786440372467 0.9356309175491333 0.01892194151878357
0.31813284754753113 0.5378494262695312 -0.03647848591208458
0.2007312774658203 -0.42385342717170715 0.036300912499427795
0.12714484333992004 0.9914888143539429 0.023703690618276596
0.3541033864021301 -0.4009513854980469 0.036300912499427795
0.1117624044418335 0.7664006948471069 0.036300912499427795
0.5064262747764587 0.277828574180603 0.036300912499427795
0.27878138422966003 -0.7338607907295227 -0.03647848591208458
-0.45968103408813477 0.8633142709732056 0.036300912499427795
-0.4701267182826996 0.03483749181032181 0.036300912499427795
0.2923928201198578 0.7275673151016235 -0.03647848591208458
0.7081586122512817 -0.3229864537715912 -0.028900686651468277
0.6628336906433105 -0.5599801540374756 -0.03647848591208458
-0.10217049717903137 -0.7720368504524231 -0.03647848591208458
-0.4619971215724945 -0.5107575058937073 -0.03647848591208458
0.5997658371925354 -0.3161167800426483 -0.03647848591208458
-0.03805919736623764 -0.6866570711135864 -0.03647848591208458
0.5288352370262146 -0.6378125548362732 0.036300912499427795
0.5044988393783569 -0.20747916400432587 -0.03647848591208458
0.3581547439098358 0.2640070915222168 0.03147602453827858
-0.07064065337181091 -0.7715740203857422 0.036300912499427795
0.0920652523636818 0.9765410423278809 0.036300912499427795
-0.6000543236732483 0.723299503326416 -0.03647848591208458
-0.35918712615966797 0.6548973917961121 -0.03647848591208458
0.6835222840309143 -0.5755881667137146 0.036300912499427795
-0.6013962626457214 0.7996299266815186 -0.03586636483669281
-0.6366183161735535 -0.5516490340232849 0.036300912499427795
-0.5434862375259399 -0.05899738892912865 -0.03647848591208458
0.6775306463241577 0.406938374042511 0.036300912499427795
-0.4262831509113312 -0.7318099737167358 0.036300912499427795
0.5662747621536255 0.1586245894432068 0.036300912499427795
-0.08123089373111725 0.5153970718383789 -0.03647848591208458
-0.00026073824847117066 -0.8673900365829468 0.036300912499427795
-0.14299775660037994 -0.6579810380935669 -0.03647848591208458
0.3657427132129669 0.4085022807121277 0.036300912499427795
0.6225132346153259 0.2434568703174591 -0.03647848591208458
0.4887002110481262 0.45737898349761963 -0.03647848591208458
0.40387624502182007 -0.17406024038791656 0.01786053366959095
0.244009867310524 -0.3644641935825348 -0.03344057500362396
-0.5246853232383728 -0.7431505918502808 0.036300912499427795
-0.5814003944396973 -0.011374474503099918 -0.03647848591208458
0.029576383531093597 0.5736987590789795 -0.03647848591208458
0.2515433430671692 -0.5923981070518494 -0.03647848591208458
0.10719019174575806 0.6272382736206055 -0.03647848591208458
0.32714253664016724 0.8602982759475708 0.036300912499427795
0.6486272811889648 -0.6011286973953247 -0.03647848591208458
0.40435710549354553 -0.6227452158927917 -0.03647848591208458
0.5875986814498901 0.6385138034820557 -0.03647848591208458
-0.12240733951330185 -0.4722830057144165 0.036300912499427795
-0.40914425253868103 0.6505849361419678 -0.03647848591208458
-0.14144061505794525 0.8103027939796448 -0.01575738936662674
0.3055236041545868 0.4225776791572571 0.036300912499427795
-0.361474871635437 -0.6144545674324036 0.036300912499427795
-0.6680741310119629 0.4855324923992157 -0.03647848591208458
0.43618595600128174 -0.6179986596107483 0.036300912499427795
0.4284884035587311 -0.5319725871086121 0.036300912499427795
0.660580039024353 0.3076881766319275 -0.03647848591208458
0.6960139870643616 0.4364093244075775 0.036300912499427795
-0.2510910630226135 -0.7064871788024902 -0.03647848591208458
0.6079898476600647 -0.41904935240745544 0.036300912499427795
-0.5780753493309021 -0.2855927646160126 0.036300912499427795
0.3300361633300781 -0.9327214360237122 -0.03623907268047333
-0.34441378712654114 0.8490924835205078 -0.03647848591208458
0.41267722845077515 -0.5233885049819946 0.036300912499427795
-0.38521358370780945 0.8656856417655945 0.036300912499427795
-0.4510348439216614 -0.6902236342430115 -0.03647848591208458
0.3093758225440979 0.4274827241897583 0.036300912499427795
-0.03851739689707756 -0.7763765454292297 -0.03647848591208458
-0.43428435921669006 -0.26833271980285645 0.036300912499427795
-0.7133140563964844 0.6625038385391235 -0.013639134354889393
0.7051465511322021 0.12125631421804428 0.036300912499427795
0.23209907114505768 -0.720400333404541 0.036300912499427795
-0.5599099397659302 -0.7670446634292603 0.036300912499427795
-0.3827931880950928 0.39472073316574097 0.036300912499427795
0.2958468496799469 0.716769278049469 0.036300912499427795
-0.3708983361721039 -0.5469779968261719 0.036300912499427795
0.37685540318489075 0.39210769534111023 0.036300912499427795
0.5774950981140137 0.24688836932182312 -0.03647848591208458
-0.7133140563964844 -0.6274092793464661 0.008399167098104954
0.5675638318061829 0.23663301765918732 -0.03647848591208458
0.5848647356033325 0.020896952599287033 -0.03647848591208458
0.14625738561153412 0.4235104024410248 -0.008093204349279404
-0.23910242319107056 0.5983770489692688 0.036300912499427795
-0.5491565465927124 -0.5916741490364075 -0.03647848591208458
-0.6960938572883606 0.5152721405029297 -0.03647848591208458
0.4223344922065735 0.8881744742393494 0.036300912499427795
-0.7133140563964844 -0.2879517674446106 -0.0002957150572910905
-0.4616328775882721 -0.1708519458770752 0.036300912499427795
0.7081586122512817 0.5964156985282898 -0.027840275317430496
0.14039774239063263 0.6395372748374939 0.036300912499427795
-0.33860015869140625 0.9388985633850098 -0.03647848591208458
0.18617558479309082 0.5194299221038818 -0.03647848591208458
-0.7133140563964844 -0.44959235191345215 -0.011533140204846859
0.5111095309257507 -0.6530248522758484 -0.03647848591208458
-0.46878522634506226 0.6403564214706421 -0.03647848591208458
0.013265672139823437 0.7777078747749329 0.036300912499427795
-0.5847723484039307 0.5685938596725464 0.036300912499427795
0.31283071637153625 0.6343139410018921 0.036300912499427795
-0.5384800434112549 -0.6276889443397522 -0.03647848591208458
-0.25871992111206055 0.477335125207901 0.036300912499427795
0.44088199734687805 0.3045893907546997 0.036300912499427795
-0.4182179570198059 0.30837616324424744 0.036300912499427795
-0.5267595648765564 -0.10077609121799469 0.036300912499427795
-0.6518654227256775 0.7327929735183716 -0.03647848591208458
0.10034473985433578 -0.49817049503326416 -0.03647848591208458
-0.03678891062736511 0.47385174036026 -0.03647848591208458
0.3563195466995239 -0.9229989051818848 0.03165645897388458
0.43395665287971497 0.8008274435997009 -0.03647848591208458
-0.6212064623832703 0.47098982334136963 0.036300912499427795
0.13819558918476105 -0.7609139084815979 0.036300912499427795
-0.6071693301200867 0.36683541536331177 0.036300912499427795
0.33628004789352417 -0.7401711344718933 -0.03647848591208458
-0.5216066241264343 -0.01595131866633892 -0.03647848591208458
-0.5423178672790527 0.21804141998291016 -0.03647848591208458
-0.5265714526176453 -0.0957905501127243 -0.03647848591208458
-0.19432340562343597 -0.8250228762626648 -0.03647848591208458
-0.445687860250473 -0.04076503962278366 0.036300912499427795
-0.024992089718580246 -0.52840656042099 -0.03647848591208458
-0.4242760241031647 -0.137411430478096 0.036300912499427795
-0.3817231059074402 -0.9149223566055298 0.007273394614458084
-0.6403571963310242 0.6327981948852539 -0.03647848591208458
0.5549483895301819 0.5216597318649292 0.036300912499427795
0.14355452358722687 0.6727608442306519 0.036300912499427795
-0.30150139331817627 -0.8842153549194336 -0.03647848591208458
0.3539845645427704 0.2697637379169464 -0.028274888172745705
0.6225857138633728 -0.6478469371795654 0.036300912499427795
0.42105185985565186 -0.542364776134491 0.036300912499427795
0.5876312851905823 0.5280352830886841 -0.03647848591208458
-0.6331446170806885 -0.38151177763938904 -0.03647848591208458
0.34476223587989807 -0.271798700094223 -0.005346263293176889
0.5000582933425903 0.33472058176994324 -0.03647848591208458
0.07164135575294495 0.8845425844192505 -0.03647848591208458
0.18871743977069855 0.48928341269493103 0.036300912499427795
-0.7133140563964844 0.6975725889205933 0.02593739703297615
-0.22236008942127228 0.6991899013519287 0.036300912499427795
0.6015888452529907 0.49971431493759155 0.036300912499427795
-0.19002355635166168 0.805043637752533 0.036300912499427795
0.19698792695999146 -0.7414383888244629 0.036300912499427795
-0.17986881732940674 -0.8152558207511902 -0.02993728220462799
0.3930473327636719 0.9179510474205017 0.012506124563515186
0.6460801362991333 -0.2593926787376404 -0.03647848591208458
-0.7133140563964844 0.27273282408714294 0.015751078724861145
-0.570604145526886 -0.09722825884819031 -0.03647848591208458
-0.2116387039422989 -0.9069495797157288 -0.03647848591208458
-0.5882446765899658 0.7295267581939697 0.036300912499427795
0.15232937037944794 0.9040413498878479 0.03132851794362068
-0.043712861835956573 -0.47239023447036743 -0.03647848591208458
-0.6795838475227356 -0.31336718797683716 -0.03647848591208458
0.33524787425994873 -0.8513376712799072 -0.03647848591208458
-0.09634919464588165 -0.717297375202179 0.036300912499427795
0.6739879250526428 0.6778236031532288 -0.03647848591208458
0.44242146611213684 -0.2782907783985138 0.036300912499427795
-0.3778001070022583 -0.6743414998054504 0.036300912499427795
-0.6457741260528564 0.764124870300293 0.017336051911115646
-0.1929612159729004 -0.8803199529647827 0.036300912499427795
0.24548041820526123 -0.9246604442596436 -0.03647848591208458
-0.6366147398948669 -0.17360086739063263 -0.03647848591208458
0.7081586122512817 -0.2337087094783783 -0.009121185168623924
-0.4917781949043274 0.1493002027273178 -0.03647848591208458
-0.7133140563964844 -0.39628833532333374 -0.00396483950316906
0.5385157465934753 0.00975172221660614 0.036300912499427795
-0.3389480412006378 -0.7777025699615479 -0.03647848591208458
-0.70095294713974 -0.34655556082725525 0.036300912499427795
-0.7023515701293945 -0.35193613171577454 0.036300912499427795
-0.6237664222717285 0.5915932655334473 0.036300912499427795
0.4405040442943573 -0.025508113205432892 -0.030692094936966896
0.16432435810565948 0.9782836437225342 0.036300912499427795
0.3233620822429657 -0.6072899699211121 -0.03647848591208458
-0.5796507000923157 -0.07161004841327667 -0.03647848591208458
-0.2389729619026184 -0.3710464537143707 -0.02991952747106552
0.25420093536376953 -0.3998817205429077 -0.03647848591208458
-0.6197510957717896 -0.030677441507577896 -0.03647848591208458
-0.5095931887626648 0.7546249032020569 0.036300912499427795
-0.5589601397514343 -0.049437690526247025 0.036300912499427795
-0.10414543002843857 -0.5575315952301025 -0.03647848591208458
-0.4020880162715912 -0.3482975661754608 0.036300912499427795
-0.20756809413433075 -0.7437904477119446 -0.03647848591208458
0.21237535774707794 -0.43206411600112915 0.036300912499427795
-0.2347871959209442 -0.926164448261261 0.036300912499427795
-0.5112423300743103 -0.404819130897522 -0.03647848591208458
-0.6449548006057739 -0.21212343871593475 0.036300912499427795
0.4823705554008484 0.40670621395111084 -0.03647848591208458
-0.18133088946342468 -0.9573623538017273 0.036300912499427795
-0.5521571040153503 0.0990675687789917 0.036300912499427795
-0.5145648717880249 -0.0465569831430912 -0.03647848591208458
0.23579595983028412 0.6661477088928223 -0.03647848591208458
0.3176713287830353 -0.3142096996307373 0.036300912499427795
0.24290330708026886 0.9692397117614746 0.02202015183866024
0.5518784523010254 -0.3295392692089081 -0.03647848591208458
-0.3704278767108917 0.8116572499275208 -0.03647848591208458
0.5137118697166443 0.2569301426410675 -0.03647848591208458
0.3309200406074524 0.554486870765686 0.036300912499427795
0.4038706421852112 -0.30487990379333496 0.036300912499427795
-0.7133140563964844 -0.02744463086128235 -0.02533402107656002
-0.04609593376517296 0.9225571155548096 -0.03647848591208458
-0.17661769688129425 0.9846524000167847 -0.007629691157490015
0.15421652793884277 -0.5887966156005859 0.036300912499427795
0.18500030040740967 0.8444622159004211 -0.017456427216529846
-0.3134995400905609 -0.6096523404121399 -0.03647848591208458
-0.1170995756983757 -0.42417943477630615 0.002261548303067684
0.05011210963129997 0.44967350363731384 -0.03647848591208458
-0.6875483393669128 0.6181913018226624 0.036300912499427795
0.6148640513420105 -0.1691320538520813 0.036300912499427795
-0.605597734451294 -0.46714621782302856 0.036300912499427795
0.552497148513794 -0.5293518900871277 -0.03647848591208458
-0.294851690530777 -0.5843461155891418 0.036300912499427795
-0.37070637941360474 0.5619356036186218 -0.03647848591208458
-0.46604588627815247 0.477183997631073 0.036300912499427795
-0.41005659103393555 0.18180276453495026 -0.022865520790219307
0.1329638659954071 0.49565231800079346 -0.03647848591208458
-0.5351542234420776 0.7884672284126282 0.036300912499427795
0.08966166526079178 0.5409284234046936 0.036300912499427795
0.18964995443820953 -0.49963587522506714 0.036300912499427795
-0.4023899734020233 0.5985981822013855 -0.03647848591208458
-0.11442992091178894 0.7002320885658264 0.036300912499427795
0.6226882934570312 -0.5005953907966614 -0.03647848591208458
0.6836044788360596 -0.26406338810920715 0.036300912499427795
0.5922768712043762 0.40482431650161743 0.036300912499427795
-0.08359259366989136 -0.7079885005950928 0.036300912499427795
-0.6226438283920288 -0.2048523724079132 0.036300912499427795
-0.009334365837275982 0.6797879338264465 -0.03647848591208458
0.4458519220352173 0.8850167989730835 -0.03647848591208458
0.4329698085784912 0.8599112033843994 0.036300912499427795
0.3481568694114685 0.7408763766288757 0.036300912499427795
0.6261181831359863 -0.3936692476272583 0.036300912499427795
-0.1992746740579605 -0.6583672761917114 0.036300912499427795
-0.4600814878940582 -0.7439082264900208 0.036300912499427795
0.6305236220359802 0.5101284384727478 -0.03647848591208458
-0.5444395542144775 0.6398105621337891 0.036300912499427795
0.055279701948165894 0.4568004906177521 0.036300912499427795
-0.2776539921760559 0.8392581939697266 0.036300912499427795
-0.03140603005886078 0.7966628670692444 -0.03647848591208458
-0.40174201130867004 0.4486544132232666 -0.03647848591208458
0.3834220767021179 0.5816177129745483 -0.03647848591208458
-0.6245186924934387 0.5344481468200684 0.036300912499427795
0.12474129348993301 -0.617715060710907 -0.03647848591208458
0.17332640290260315 -0.6688019633293152 0.036300912499427795
-0.08711519837379456 0.8229206204414368 -0.03647848591208458
0.3005211055278778 0.630455493927002 0.036300912499427795
-0.7133140563964844 0.09501716494560242 0.02275029383599758
-0.6056561470031738 -0.23651546239852905 0.036300912499427795
0.6576352119445801 0.41299623250961304 -0.03647848591208458
-0.636634886264801 -0.351293683052063 0.036300912499427795
-0.5216319561004639 -0.4573461711406708 0.036300912499427795
0.7081586122512817 0.05619918555021286 0.008525602519512177
0.6897162199020386 -0.46335819363594055 0.036300912499427795
0.0974578857421875 0.6207310557365417 -0.03647848591208458
-0.23116880655288696 -0.38335615396499634 0.036300912499427795
0.4211585223674774 0.8077728152275085 0.036300912499427795
-0.5033020973205566 -0.43169352412223816 -0.03647848591208458
-0.09113370627164841 0.6377496123313904 -0.03647848591208458
0.16938042640686035 -0.45502030849456787 -0.03647848591208458
0.07275395095348358 0.9470205307006836 0.036300912499427795
0.2163335531949997 0.9756034016609192 -0.0287320613861084
0.5767537951469421 0.8100269436836243 -0.03647848591208458
0.6732704639434814 0.7352293133735657 0.02268124185502529
-0.5846553444862366 -0.37860211730003357 -0.03647848591208458
-0.45484980940818787 -0.5607951283454895 0.036300912499427795
-0.3933018743991852 -0.4045222997665405 -0.03647848591208458
-0.03048853762447834 -0.7116168737411499 0.036300912499427795
-0.3092365264892578 -0.646813154220581 0.036300912499427795
0.42172276973724365 -0.8072867393493652 0.036300912499427795
-0.32603222131729126 -0.36221304535865784 -0.03647848591208458
-0.3497243821620941 0.6479589343070984 -0.03647848591208458
0.6180289387702942 -0.6964633464813232 0.036300912499427795
-0.18176591396331787 -0.9550082087516785 -0.03647848591208458
-0.588327944278717 0.2843300998210907 0.036300912499427795
0.10739324986934662 -0.9566668272018433 -0.03647848591208458
-0.5499906539916992 -0.6169089078903198 -0.03647848591208458
0.09731924533843994 0.7890636920928955 0.036300912499427795
-0.5698873996734619 -0.19016225636005402 -0.03647848591208458
0.18604564666748047 0.7371551394462585 0.036300912499427795
-0.39355161786079407 -0.6293015480041504 -0.03647848591208458
0.6191254258155823 -0.6842373609542847 -0.03647848591208458
-0.383376806974411 -0.31753161549568176 -0.03647848591208458
0.7081586122512817 0.4395577907562256 0.0009812114294618368
-0.2541525661945343 0.8513625860214233 -0.03647848591208458
0.17955058813095093 -0.8858131766319275 0.036300912499427795
-0.7133140563964844 0.1256347894668579 -0.02109738253057003
-0.129522442817688 -0.9252036809921265 0.036300912499427795
-0.02694769576191902 -0.7383530735969543 0.036300912499427795
-0.08233185857534409 0.6569220423698425 0.036300912499427795
0.49329349398612976 0.27876463532447815 0.036300912499427795
-0.6683598160743713 -0.41713806986808777 0.036300912499427795
-0.32816433906555176 -0.5733456611633301 0.036300912499427795
-0.6275628805160522 0.31120431423187256 -0.03647848591208458
-0.6219667792320251 0.5694291591644287 -0.03647848591208458
-0.17466965317726135 0.7665864825248718 -0.03647848591208458
-0.5410866737365723 -0.19077624380588531 -0.03647848591208458
-0.7016897201538086 0.2637033462524414 0.036300912499427795
-0.45116230845451355 0.6036272644996643 -0.03647848591208458
-0.3134995102882385 0.6192149519920349 -0.03647848591208458
-0.5728443264961243 -0.5413698554039001 0.036300912499427795
-0.5181102156639099 -0.28188902139663696 0.036300912499427795
0.26841863989830017 0.8295979499816895 0.036300912499427795
-0.6903390884399414 0.03908681869506836 -0.03647848591208458
-0.04711082950234413 0.902016818523407 0.036300912499427795
-0.48878762125968933 -0.35713544487953186 0.036300912499427795
-0.1637643277645111 0.9020327925682068 0.025711381807923317
-0.25959643721580505 -0.5516610741615295 -0.03647848591208458
-0.5711971521377563 0.821520984172821 -0.014285052195191383
-0.0986301451921463 0.8680863380432129 0.01611071266233921
-0.1486787050962448 -0.7666130661964417 -0.03647848591208458
-0.06628423929214478 -0.4539119303226471 0.036300912499427795
0.2813601493835449 0.44423288106918335 -0.03647848591208458
0.6697335243225098 0.12790948152542114 -0.03647848591208458
-0.6373697519302368 0.7431296706199646 0.036300912499427795
-0.475637823343277 -0.7639188766479492 0.036300912499427795
-0.3562198877334595 0.34033575654029846 -0.03647848591208458
0.05734199285507202 -0.8697977662086487 -0.03647848591208458
0.05856673792004585 -0.7566412091255188 0.036300912499427795
-0.4970962107181549 0.5129151344299316 0.036300912499427795
-0.6621596813201904 0.4511319100856781 0.036300912499427795
-0.5506277084350586 -0.8254285454750061 0.03554749861359596
0.3805483281612396 0.22950372099876404 0.01925615593791008
-0.38213104009628296 0.7810612916946411 -0.03647848591208458
0.029591036960482597 0.6850223541259766 0.036300912499427795
0.6259565949440002 0.7473809123039246 0.036300912499427795
0.2817126512527466 0.3920052647590637 0.036300912499427795
0.6968888640403748 -0.508634090423584 0.036300912499427795
-0.7133140563964844 -0.18574683368206024 -0.0060485051944851875
-0.6030107140541077 0.7471309304237366 0.036300912499427795
0.31521350145339966 -0.5230841040611267 0.036300912499427795
0.5560964345932007 0.5847824215888977 -0.03647848591208458
-0.28662264347076416 0.7522473335266113 0.036300912499427795
0.39014706015586853 -0.8429374098777771 -0.03647848591208458
0.4581447243690491 -0.7332506775856018 -0.03647848591208458
0.3066321015357971 0.475170373916626 0.036300912499427795
-0.675446629524231 -0.6637781262397766 0.036300912499427795
0.49453994631767273 0.7916505932807922 -0.03647848591208458
-0.38792771100997925 0.33911481499671936 0.036300912499427795
0.29484137892723083 0.8205943703651428 0.036300912499427795
0.26980462670326233 -0.35177701711654663 -0.03647848591208458
-0.7133140563964844 0.226302370429039 -0.010032693855464458
