0.14642579853534698 -0.49979206919670105 0.4597364664077759
0.07737983763217926 -0.10279368609189987 -0.6701752543449402
-0.9999989867210388 -0.011189203709363937 0.0664568766951561
-0.9999989867210388 0.11972169578075409 0.08710315823554993
-0.6666927933692932 -0.45185792446136475 -0.25171729922294617
0.15736894309520721 0.13629183173179626 -0.6701752543449402
-0.39924636483192444 -0.14582930505275726 0.23051346838474274
-0.9999989867210388 0.4125922918319702 -0.08837524801492691
0.11732502281665802 -0.49979206919670105 -0.47302308678627014
0.12632907927036285 0.5013478398323059 0.5782673358917236
0.1279304176568985 0.5013478398323059 0.39490631222724915
-0.20495304465293884 -0.26839423179626465 -0.6701752543449402
0.0901247039437294 0.17956838011741638 0.21738311648368835
-0.7844544649124146 -0.49979206919670105 -0.40143343806266785
0.11695504188537598 0.5013478398323059 0.3869737386703491
-0.5211476683616638 0.5013478398323059 0.45331668853759766
0.13965804874897003 -0.49979206919670105 -0.0699310302734375
0.016612742096185684 -0.24651670455932617 -0.6701752543449402
-0.8468174934387207 -0.49979206919670105 -0.09751787036657333
-0.8392745852470398 -0.09624402970075607 -0.522766649723053
0.9431804418563843 -0.49979206919670105 -0.47960948944091797
-0.864899218082428 0.5013478398323059 0.2786776125431061
-0.019108541309833527 -0.49979206919670105 -0.4345344305038452
0.40666699409484863 -0.14484775066375732 0.23975978791713715
-0.0014676167629659176 -0.1111864298582077 0.6436566710472107
0.11075408011674881 -0.3670085072517395 0.6436566710472107
0.42324548959732056 -0.00841665267944336 0.6436566710472107
-0.8329120874404907 -0.49979206919670105 0.10440032929182053
-0.34404394030570984 -0.0844431072473526 -0.6701752543449402
0.9444722533226013 0.20148563385009766 -0.5651059746742249
-0.28115639090538025 0.023439891636371613 0.10917322337627411
-0.7546486854553223 -0.028066672384738922 -0.5891591906547546
-0.7839598059654236 0.09894292801618576 0.09038644284009933
-0.7151017189025879 -0.34312453866004944 -0.6116722822189331
0.4244840443134308 -0.2895922362804413 0.015891751274466515
-0.6552427411079407 -0.23845630884170532 0.2315678596496582
-0.2258886843919754 -0.3244614005088806 -0.6701752543449402
-0.4663116931915283 -0.0075334529392421246 -0.6701752543449402
0.6528838872909546 0.18667402863502502 0.2118626981973648
-0.4580551087856293 0.24085640907287598 0.25347355008125305
0.08422531187534332 0.2616715431213379 0.11734961718320847
0.4639325737953186 0.5013478398323059 0.5918286442756653
-0.7360756397247314 0.5013478398323059 0.5086292028427124
0.9444722533226013 0.35002079606056213 0.21085037291049957
0.721859872341156 0.5013478398323059 -0.2549282908439636
-0.06257239729166031 -0.49979206919670105 0.5028759837150574
0.6401181221008301 -0.41142842173576355 0.6436566710472107
-0.5613899827003479 -0.08028890937566757 0.26063355803489685
0.6915877461433411 -0.3894274830818176 -0.6701752543449402
-0.005358971189707518 0.5013478398323059 -0.6321674585342407
0.9033553600311279 -0.49979206919670105 0.40095773339271545
-0.3594208061695099 -0.1891341209411621 0.20481239259243011
0.8098223209381104 0.5013478398323059 0.2589797377586365
-0.505285382270813 -0.24930605292320251 -0.6691797375679016
-0.05714511498808861 0.5013478398323059 -0.4600285291671753
-0.7899724245071411 -0.38458123803138733 -0.5647631287574768
0.07058946788311005 0.016853317618370056 0.6436566710472107
0.9444722533226013 -0.294109046459198 -0.5972144603729248
0.32019948959350586 -0.13224460184574127 -0.27315741777420044
0.06300127506256104 -0.18551675975322723 -0.23791499435901642
0.6271368265151978 -0.49979206919670105 -0.4427224397659302
0.1538836658000946 0.2926522195339203 -0.019719962030649185
-0.9999989867210388 -0.4808066785335541 0.26890629529953003
0.6851909160614014 -0.21551641821861267 0.1828157603740692
0.03104299120604992 -0.49979206919670105 0.30637508630752563
0.928399384021759 0.5013478398323059 -0.06322013586759567
0.9444722533226013 -0.28034508228302 -0.6180078983306885
0.3390500247478485 0.19859765470027924 0.6436566710472107
-0.7241626977920532 -0.31984755396842957 0.6436566710472107
0.02011089399456978 -0.16986489295959473 0.20978108048439026
-0.9999989867210388 0.32276320457458496 -0.013624332845211029
-0.7173344492912292 0.10061361640691757 0.18758505582809448
-0.059575170278549194 0.09132365137338638 -0.12998515367507935
-0.5722371935844421 0.07878708094358444 -0.6609012484550476
-0.8542531728744507 -0.09920743852853775 0.6419297456741333
-0.8034640550613403 0.5013478398323059 0.6319774389266968
-0.9812508821487427 0.31782418489456177 0.5533384084701538
-0.8682617545127869 -0.49979206919670105 -0.49132800102233887
-0.9999989867210388 -0.2695808410644531 0.14782315492630005
-0.7012953162193298 -0.39699527621269226 -0.22813992202281952
0.9444722533226013 0.22960472106933594 -0.5236939787864685
0.34058135747909546 0.5013478398323059 0.09727372229099274
0.5005211234092712 -0.49979206919670105 0.40672895312309265
0.7353677749633789 -0.39516207575798035 -0.6701752543449402
0.7927669882774353 0.5013478398323059 -0.6650367379188538
-0.8854297399520874 -0.21366922557353973 0.6351526379585266
0.8808428645133972 0.5013478398323059 -0.09574832022190094
-0.27328377962112427 0.035888269543647766 -0.1184818223118782
-0.9999989867210388 0.4909180998802185 -0.1445508897304535
-0.7636382579803467 0.34030383825302124 -0.1571381390094757
-0.6537497043609619 0.3286689221858978 -0.6385879516601562
-0.7970973253250122 0.43965160846710205 0.049048762768507004
-0.3187262713909149 0.5013478398323059 0.5766656994819641
0.9444722533226013 -0.03736278787255287 0.6122643351554871
-0.7997235655784607 -0.49979206919670105 -0.23596014082431793
-0.38156214356422424 0.013915847055613995 -0.2468191385269165
0.9444722533226013 -0.46767619252204895 -0.16890960931777954
-0.0065022921189665794 -0.49979206919670105 -0.3316778242588043
-0.7836546897888184 -0.24986256659030914 0.09106583893299103
-0.1599894016981125 -0.49979206919670105 -0.2908914387226105
0.4446234405040741 -0.49979206919670105 0.48028355836868286
-0.2701946496963501 -0.3894544243812561 0.6436566710472107
0.6311278939247131 0.16074496507644653 -0.6701752543449402
0.8577989935874939 0.5013478398323059 0.598567008972168
-0.41520652174949646 0.3717651665210724 0.6436566710472107
0.7217998504638672 -0.24277044832706451 0.6436566710472107
-0.9999989867210388 -0.45797139406204224 0.3198567032814026
0.9444722533226013 0.39425888657569885 0.11525554209947586
-0.5153716206550598 -0.49979206919670105 0.4098568856716156
-0.6307927966117859 0.5013478398323059 0.28014078736305237
0.7927364706993103 0.5013478398323059 -0.07821588963270187
0.9114471673965454 0.2539409101009369 -0.15833933651447296
-0.28513309359550476 -0.48174580931663513 -0.1434074491262436
0.43155351281166077 0.5013478398323059 -0.5165486335754395
-0.045387525111436844 -0.49979206919670105 -0.24206902086734772
0.9444722533226013 0.3959507942199707 -0.47663581371307373
-0.06508653610944748 -0.06008947268128395 -0.6701752543449402
-0.8773637413978577 -0.49979206919670105 -0.24418199062347412
0.594444990158081 0.5013478398323059 -0.33519431948661804
-0.6848796606063843 -0.49979206919670105 0.44876784086227417
-0.7868086099624634 -0.18645760416984558 0.08296848088502884
0.47793954610824585 0.2773655951023102 -0.6701752543449402
0.7461281418800354 0.3399449288845062 -0.6701752543449402
-0.2213689088821411 0.5013478398323059 -0.5766065716743469
-0.11236406862735748 -0.49979206919670105 0.34475773572921753
-0.8742031455039978 0.5013478398323059 -0.06096410006284714
0.35714197158813477 0.2815711498260498 -0.09325933456420898
0.2003544569015503 -0.2377650886774063 0.15503019094467163
-0.9999989867210388 0.07122591882944107 0.36291202902793884
0.9444722533226013 -0.38226380944252014 -0.1321692317724228
0.7168071866035461 0.5013478398323059 0.031710390001535416
-0.041951652616262436 -0.49979206919670105 0.578805685043335
-0.6407825946807861 0.5013478398323059 0.28990235924720764
0.9444722533226013 0.43439796566963196 0.3741677403450012
0.07330672442913055 0.5013478398323059 -0.39919668436050415
0.13671281933784485 -0.49979206919670105 -0.5825329422950745
0.7273972034454346 0.5013478398323059 0.286678284406662
-0.33393219113349915 -0.07500049471855164 0.1824316531419754
-0.07324124127626419 0.5013478398323059 -0.1988045573234558
0.8702511787414551 -0.08109141886234283 -0.2933904528617859
0.6278427839279175 -0.49979206919670105 0.26078540086746216
0.015016142278909683 -0.49979206919670105 0.4191456437110901
-0.7947709560394287 0.45795321464538574 -0.5611358284950256
-0.9854990243911743 -0.12625911831855774 0.5436160564422607
-0.7913806438446045 0.3007223904132843 0.6436566710472107
0.7357673645019531 -0.1469290852546692 0.6436566710472107
0.4201560914516449 0.5013478398323059 0.3175446689128876
0.6399863362312317 -0.03213741257786751 0.2767753005027771
-0.290452778339386 -0.49979206919670105 -0.449599027633667
0.42278599739074707 0.00015596732555422932 -0.6701752543449402
-0.996104896068573 -0.1838337481021881 0.5105595588684082
0.9444722533226013 0.09093417972326279 -0.5106795430183411
-0.9999989867210388 0.40811240673065186 0.37260353565216064
0.8040862679481506 0.19802558422088623 0.6436566710472107
-0.026114845648407936 -0.49979206919670105 0.5781334638595581
0.9444722533226013 -0.4978523254394531 0.18990685045719147
0.47164252400398254 0.0824153870344162 0.26699012517929077
-0.5472497940063477 0.3280688524246216 0.6436566710472107
0.7300824522972107 -0.49979206919670105 0.12099987268447876
0.7177792191505432 0.5013478398323059 -0.46774518489837646
-0.05108029767870903 -0.49979206919670105 0.15749892592430115
0.9444722533226013 -0.1401851624250412 -0.3469507694244385
-0.3656444251537323 -0.24587349593639374 0.20937159657478333
0.3376554250717163 -0.4197411835193634 -0.6701752543449402
0.6163995265960693 -0.49979206919670105 -0.4236246943473816
0.15383881330490112 -0.2305285781621933 0.1646638959646225
0.42470023036003113 -0.07284300029277802 0.26908186078071594
0.20647026598453522 0.5013478398323059 -0.24269045889377594
0.6823094487190247 -0.49979206919670105 0.11324113607406616
0.07574144005775452 0.5013478398323059 0.4644509553909302
0.47383272647857666 0.046114481985569 0.275064617395401
-0.7378144860267639 0.06672955304384232 -0.5994008183479309
-0.028881076723337173 -0.49979206919670105 0.2625146508216858
0.9045305848121643 -0.07078825682401657 0.2696859538555145
-0.8184880018234253 0.5013478398323059 0.39832475781440735
-0.32800307869911194 0.1343870609998703 0.6436566710472107
-0.840552568435669 -0.49979206919670105 0.1920468509197235
0.05175332725048065 -0.2710918188095093 0.09281383454799652
0.9049011468887329 -0.28766557574272156 0.6436566710472107
-0.3877371549606323 0.014693282544612885 -0.2505910098552704
-0.5364733934402466 -0.04380729794502258 0.2624930739402771
0.9444722533226013 0.19790488481521606 0.5984598994255066
0.9444722533226013 -0.12963774800300598 0.3514121174812317
0.9444722533226013 -0.2094893455505371 -0.48284250497817993
-0.7963467836380005 0.5013478398323059 -0.5318652987480164
0.4447706937789917 -0.2349400520324707 0.6436566710472107
-0.7154754996299744 -0.33089035749435425 -0.21585023403167725
-0.25293755531311035 0.417396605014801 0.002871509175747633
-0.5186818838119507 0.26133108139038086 -0.28880077600479126
0.3126453757286072 0.5013478398323059 -0.2134873867034912
-0.08203812688589096 0.08651474118232727 -0.6701752543449402
0.7996156811714172 0.32890403270721436 -0.6701752543449402
0.2027958482503891 0.2216818928718567 0.1776265650987625
0.5443899631500244 -0.49979206919670105 0.32642000913619995
-0.9999989867210388 0.01465354859828949 0.28619223833084106
-0.5500661730766296 -0.3995151221752167 0.6436566710472107
0.686081051826477 0.29244935512542725 -0.02558024227619171
0.4041759669780731 0.23117411136627197 -0.6701752543449402
-0.3505372405052185 -0.07135999202728271 0.19754783809185028
0.7582377791404724 -0.49979206919670105 -0.3291994333267212
-0.5655044317245483 -0.1268654763698578 0.2600255012512207
0.3092500567436218 -0.2305637151002884 -0.19136708974838257
-0.5451301336288452 0.10151168704032898 -0.6653044819831848
-0.9999989867210388 -0.21357181668281555 0.4025961756706238
0.8081674575805664 -0.252008855342865 0.6436566710472107
-0.9638974070549011 -0.15930813550949097 -0.33585864305496216
-0.8270998001098633 0.5013478398323059 0.06828580051660538
-0.9999989867210388 -0.1181749552488327 0.08875274658203125
-0.22889816761016846 0.5013478398323059 -0.5125265717506409
0.4571588337421417 -0.49979206919670105 -0.155263289809227
0.4468390941619873 0.04350225627422333 0.27546364068984985
-0.8007020950317383 -0.17861893773078918 0.030397474765777588
0.9444722533226013 0.36739683151245117 -0.35837751626968384
-0.9999989867210388 -0.4187006652355194 0.10317830741405487
0.9125680923461914 0.29184362292289734 0.007234988268464804
0.5170190930366516 -0.4689343571662903 -0.6701752543449402
0.20522499084472656 -0.49979206919670105 -0.2501671612262726
-0.16769209504127502 0.2917131781578064 0.6436566710472107
0.09864659607410431 0.5013478398323059 -0.46033936738967896
0.5115583539009094 0.5013478398323059 -0.6606904864311218
-0.1399388313293457 -0.49979206919670105 -0.5249943733215332
-0.026098128408193588 0.5013478398323059 0.3550034761428833
-0.9930720925331116 -0.06690216064453125 -0.22907689213752747
0.6412436366081238 -0.29093852639198303 -0.0018007652834057808
0.9444722533226013 0.15702874958515167 0.6306910514831543
0.781938374042511 -0.2942410707473755 -0.6701752543449402
0.5720009207725525 -0.2584364414215088 -0.14717689156532288
0.7311609983444214 0.5013478398323059 0.40897905826568604
0.5298607349395752 0.3934200406074524 0.6436566710472107
-0.9999989867210388 -0.47002163529396057 0.30997154116630554
0.1432110071182251 0.19427934288978577 -0.23175658285617828
0.7716798186302185 0.2803393602371216 -0.09743200242519379
0.2909455895423889 -0.49979206919670105 0.4480810761451721
0.815281093120575 0.2805684208869934 0.06999710202217102
0.9287509322166443 0.25822344422340393 0.1243002787232399
0.6047730445861816 -0.45638003945350647 -0.6701752543449402
-0.3490365147590637 -0.49979206919670105 0.44030556082725525
0.9444722533226013 -0.06279394030570984 -0.467308908700943
-0.8209409117698669 0.5013478398323059 0.051792994141578674
-0.49741828441619873 0.10231094062328339 -0.28728654980659485
0.47990885376930237 0.47223514318466187 -0.6701752543449402
-0.09153129160404205 0.5013478398323059 0.23705895245075226
0.8679807782173157 -0.13797152042388916 -0.27014607191085815
-0.2711198627948761 0.21725456416606903 0.08636002987623215
0.7648816108703613 -0.49357983469963074 0.6436566710472107
0.5779621005058289 0.09960835427045822 0.2614046335220337
0.5556776523590088 -0.18537361919879913 -0.23810669779777527
0.862793505191803 -0.49979206919670105 -0.21285662055015564
0.36598965525627136 -0.25864824652671814 -0.14715567231178284
0.40723276138305664 -0.49979206919670105 -0.17368783056735992
0.5391755104064941 0.013957693241536617 0.2783154249191284
0.3188782334327698 -0.21018363535404205 -0.21500244736671448
-0.46717098355293274 -0.49979206919670105 -0.3422388434410095
0.7826281189918518 -0.3184738755226135 0.6436566710472107
0.28747639060020447 0.5013478398323059 0.4373878538608551
0.8001682758331299 0.008911991491913795 -0.30501610040664673
-0.159629225730896 0.2554325461387634 0.6436566710472107
0.9023425579071045 0.5013478398323059 -0.4747132658958435
-0.29005923867225647 0.42601585388183594 0.6436566710472107
-0.2794826626777649 -0.10130932182073593 -0.13230961561203003
-0.7011050581932068 0.1944405436515808 0.20162560045719147
0.5981881618499756 -0.259501576423645 0.6436566710472107
0.12447520345449448 0.16714489459991455 -0.253028005361557
0.14079147577285767 0.12802651524543762 0.24936406314373016
0.3301998972892761 -0.14466817677021027 -0.6701752543449402
-0.20137548446655273 -0.49979206919670105 0.4288819432258606
-0.3368215560913086 0.32154902815818787 -0.21173839271068573
-0.9999989867210388 -0.24937500059604645 0.19216929376125336
-0.32029712200164795 -0.23220494389533997 0.16794857382774353
0.6810393333435059 0.22392798960208893 -0.20148345828056335
0.27176886796951294 0.5013478398323059 0.06388068199157715
0.9444722533226013 0.09474170207977295 0.47050654888153076
0.3254685401916504 -0.49979206919670105 -0.3396449685096741
0.9444722533226013 0.04750300571322441 -0.30816084146499634
0.805392324924469 0.33138006925582886 -0.6701752543449402
0.12126066535711288 0.5013478398323059 -0.5267096161842346
-0.15201042592525482 -0.49979206919670105 0.6039252281188965
-0.8917022943496704 0.5013478398323059 -0.4533647894859314
-0.3088332414627075 0.14038598537445068 -0.17986753582954407
-0.7094092965126038 -0.16891035437583923 0.1947128176689148
-0.7878475189208984 -0.3692878186702728 -0.10650376230478287
0.09073231369256973 0.21120570600032806 -0.2155103087425232
-0.6578434109687805 0.009784607216715813 -0.6370397806167603
-0.06939298659563065 -0.2301306426525116 0.6436566710472107
0.5775834918022156 -0.17072001099586487 -0.6701752543449402
-0.542921781539917 -0.10099483281373978 -0.28865835070610046
-0.0847458466887474 0.35524338483810425 -0.6701752543449402
-0.9999989867210388 -0.22856557369232178 0.4224679172039032
-0.97652268409729 -0.02733100764453411 -0.29963260889053345
-0.25432226061820984 -0.27664947509765625 -0.042460471391677856
0.9444722533226013 0.30443230271339417 -0.21435502171516418
0.36429449915885925 -0.49979206919670105 0.2626672685146332
-0.1455075740814209 -0.21165835857391357 -0.6701752543449402
-0.19049490988254547 0.3253759443759918 -0.6701752543449402
-0.6753849387168884 0.492504358291626 -0.2466507852077484
-0.3372058868408203 0.49983757734298706 0.1854231208562851
0.1796681135892868 0.07969275861978531 0.6436566710472107
0.11494771391153336 -0.29013654589653015 0.6436566710472107
-0.9584262371063232 -0.4435036778450012 -0.34924519062042236
0.07747446000576019 -0.25319233536720276 -0.1570924073457718
0.5014382600784302 0.05620391294360161 0.2733381390571594
-0.9937620162963867 0.01228488888591528 -0.22476835548877716
0.02778889611363411 0.011355488561093807 -0.30481159687042236
-0.7652719616889954 0.01751207374036312 0.1280738264322281
-0.37251943349838257 0.29832014441490173 0.21424317359924316
0.05639500170946121 -0.04814939200878143 -0.6701752543449402
-0.9522712230682373 -0.1844065636396408 -0.3634015619754791
-0.7850531935691833 0.5013478398323059 -0.27374809980392456
-0.7341949939727783 -0.2570165991783142 -0.1964496374130249
0.339335560798645 -0.2886102497577667 -0.05203043296933174
-0.26617395877838135 0.3574020564556122 0.07231143862009048
-0.8041967153549194 -0.39435264468193054 -0.011096205562353134
0.7010064721107483 0.5013478398323059 -0.2943260371685028
0.354860782623291 -0.49979206919670105 -0.29342177510261536
-0.11388125270605087 0.2772580683231354 -0.6701752543449402
0.20747840404510498 0.17172272503376007 0.223344087600708
0.33351877331733704 -0.4985145926475525 -0.6701752543449402
0.9444722533226013 -0.08013001084327698 0.6312432885169983
-0.25247013568878174 -0.49122512340545654 -0.011521155014634132
0.09838826209306717 0.5013478398323059 -0.5226271152496338
-0.9999989867210388 0.30901047587394714 0.0363396480679512
0.1998867690563202 0.2921270430088043 0.005377538967877626
0.05153605714440346 0.040392957627773285 -0.6701752543449402
-0.6422021389007568 0.06795684248209 -0.6425765752792358
-0.12805266678333282 -0.49979206919670105 -0.4180282652378082
0.9351112246513367 0.2706478536128998 0.09776018559932709
-0.15030641853809357 0.5013478398323059 -0.1254192739725113
-0.4787607789039612 0.5013478398323059 0.34825417399406433
-0.2713892161846161 0.5013478398323059 -0.6235551238059998
0.5095255970954895 0.5013478398323059 0.5119654536247253
-0.7032891511917114 -0.16321395337581635 0.19990171492099762
-0.7123070955276489 -0.49979206919670105 -0.3872928023338318
0.4322572350502014 0.5013478398323059 0.22779370844364166
-0.8134067058563232 0.1951252669095993 -0.5461944341659546
-0.5111986994743347 -0.09341029077768326 0.6436566710472107
0.7696269154548645 0.5013478398323059 0.39256802201271057
-0.2546480596065521 0.44799327850341797 -0.047795653343200684
-0.49325448274612427 0.42080971598625183 0.2603839337825775
-0.43084123730659485 -0.262265145778656 0.2446868121623993
0.42856234312057495 -0.49979206919670105 -0.37240323424339294
-0.5579487085342407 0.3506592810153961 -0.28747624158859253
-0.9999989867210388 0.0325532890856266 0.4744342863559723
-0.027988320216536522 -0.34902092814445496 0.6436566710472107
-0.4117412567138672 -0.10647659003734589 0.6436566710472107
0.9407513737678528 0.4747997522354126 -0.6701752543449402
-0.40070682764053345 0.13291814923286438 0.23112405836582184
0.9444722533226013 -0.4167994558811188 -0.4804162085056305
-0.28403741121292114 0.5013478398323059 0.5730429887771606
-0.3093852996826172 -0.07981380820274353 0.15457455813884735
-0.9999989867210388 0.31420260667800903 0.07107081264257431
0.3988669514656067 -0.2533455491065979 -0.15689495205879211
0.8355058431625366 0.5013478398323059 -0.47588011622428894
0.9444722533226013 -0.26147180795669556 0.42428284883499146
-0.48128029704093933 -0.4123390018939972 -0.28508731722831726
0.2323579341173172 -0.49979206919670105 -0.41065871715545654
0.25914064049720764 -0.2742787301540375 0.0845707505941391
0.6853183507919312 -0.49979206919670105 0.4037834107875824
-0.05462886765599251 0.005904783494770527 0.6436566710472107
0.47194814682006836 -0.2700806260108948 -0.1220369040966034
0.8667414784431458 0.5013478398323059 0.028290176764130592
-0.4923613965511322 0.4194355607032776 0.6436566710472107
0.5119578838348389 -0.2743648886680603 -0.6701752543449402
0.05545374006032944 -0.21189233660697937 -0.21323268115520477
-0.9760527014732361 0.07446166127920151 -0.30113720893859863
0.3206864893436432 0.1396765261888504 0.6436566710472107
0.8351112008094788 -0.49979206919670105 0.15681655704975128
0.336474746465683 -0.49979206919670105 0.41716107726097107
-0.7866095900535583 -0.23418255150318146 0.08350948989391327
-0.6980076432228088 0.0941590964794159 -0.2307310402393341
0.6900073289871216 0.5013478398323059 -0.37715181708335876
-0.08900606632232666 0.07641273736953735 -0.07740764319896698
-0.9965479969978333 0.5013478398323059 -0.16907280683517456
-0.002024587709456682 0.002127446001395583 -0.6701752543449402
-0.8584768772125244 -0.49979206919670105 0.45966506004333496
-0.6253162026405334 0.3752131462097168 -0.6479578614234924
0.7815598249435425 -0.1393454223871231 -0.6701752543449402
-0.3575361371040344 -0.49979206919670105 0.41148504614830017
0.5153039693832397 -0.49979206919670105 0.4084126651287079
0.6694645881652832 0.006905342452228069 0.6436566710472107
0.1842396855354309 0.03657195717096329 -0.6701752543449402
-0.25858744978904724 0.4421096742153168 0.6436566710472107
0.6740587949752808 -0.49979206919670105 0.13271108269691467
-0.4543425142765045 -0.3786594867706299 -0.6701752543449402
0.008323201909661293 0.16251051425933838 -0.21823517978191376
-0.43088749051094055 -0.49979206919670105 0.3896617889404297
-0.862811267375946 0.5013478398323059 0.008302859961986542
0.9195351004600525 -0.49979206919670105 -0.49988919496536255
-0.9602583646774292 -0.49979206919670105 -0.04807887226343155
0.13119442760944366 0.2589157521724701 0.12276747077703476
0.22878973186016083 0.0756526067852974 0.26890531182289124
0.17960095405578613 0.19415801763534546 0.20527097582817078
-0.9999989867210388 0.3375495672225952 0.23778122663497925
-0.8472787737846375 0.5013478398323059 0.36316460371017456
0.9443051815032959 0.021269571036100388 -0.6701752543449402
-0.3703387975692749 0.5013478398323059 0.4183248281478882
-0.21759867668151855 0.5013478398323059 0.6035967469215393
-0.012682116590440273 -0.27474525570869446 0.6436566710472107
0.36259499192237854 0.1652861386537552 0.22787605226039886
-0.10428333282470703 0.5013478398323059 -0.012197707779705524
0.6174573302268982 -0.26612505316734314 0.1047980785369873
0.11835095286369324 0.5013478398323059 -0.05507932975888252
-0.9235716462135315 0.08222078531980515 -0.4173141121864319
0.5345690846443176 0.29978156089782715 0.6436566710472107
0.29668599367141724 -0.49979206919670105 0.1148478165268898
-0.5166581869125366 -0.07978079468011856 0.26234114170074463
-0.8595554232597351 0.17827792465686798 0.6415426731109619
-0.49527138471603394 0.3646427392959595 0.6436566710472107
0.020335685461759567 -0.26697996258735657 -0.0990205705165863
0.07532431930303574 -0.25638338923454285 -0.6701752543449402
-0.01084110513329506 0.3474572002887726 0.6436566710472107
0.8103641867637634 0.24419677257537842 0.6436566710472107
0.7465175986289978 -0.1588173359632492 -0.25754526257514954
-0.39402642846107483 0.3824397325515747 0.22766561806201935
0.13115720450878143 0.49368083477020264 -0.6701752543449402
-0.9999989867210388 0.42703843116760254 0.4602988660335541
-0.28064286708831787 -0.1761743426322937 -0.13451740145683289
-0.7445539832115173 0.5013478398323059 -0.3116445243358612
-0.7064054012298584 -0.44754546880722046 -0.6161401271820068
0.8826197981834412 0.5013478398323059 -0.30039525032043457
-0.5034017562866211 -0.49979206919670105 -0.5792238712310791
0.5464410185813904 -0.22974933683872223 -0.19241884350776672
0.37396523356437683 -0.16506215929985046 -0.25337904691696167
0.9335773587226868 -0.2819083631038666 0.6436566710472107
0.9444722533226013 -0.4899072051048279 -0.1575349122285843
-0.29873988032341003 -0.16164685785770416 -0.6701752543449402
0.9444722533226013 0.13889579474925995 -0.49874716997146606
-0.8021818995475769 -0.1796901375055313 0.01857937127351761
-0.30600327253341675 -0.49979206919670105 0.18261942267417908
0.7127246856689453 -0.49979206919670105 0.4740225076675415
0.07794497907161713 -0.19015511870384216 -0.23392188549041748
0.10819487273693085 -0.07966043800115585 -0.2938259243965149
0.8497378826141357 0.12140528857707977 -0.6701752543449402
0.941019594669342 0.5013478398323059 -0.5908799171447754
0.6512932777404785 -0.16455864906311035 -0.6701752543449402
0.9444722533226013 -0.001179816434159875 -0.3406393229961395
-0.8615893721580505 -0.1565638929605484 0.6410617828369141
0.9444722533226013 0.46779102087020874 -0.020184127613902092
-0.9289819002151489 -0.49020639061927795 0.613290011882782
0.14102979004383087 0.2925543785095215 -0.018122021108865738
-0.6665810346603394 -0.13532468676567078 0.22547079622745514
-0.9692411422729492 -0.4448728859424591 0.5730112791061401
-0.6482039093971252 -0.1401466727256775 -0.6405671238899231
0.9444722533226013 0.3662257790565491 -0.5641010999679565
0.4959712624549866 0.11036296933889389 0.2573374807834625
0.9444722533226013 -0.19578523933887482 -0.5122914910316467
0.9444722533226013 -0.3943026661872864 0.1290484219789505
0.4898114800453186 -0.2935837507247925 0.6436566710472107
0.9444722533226013 -0.47260671854019165 0.251354843378067
0.585484504699707 -0.2512492537498474 -0.6701752543449402
-0.9935787916183472 0.0479930080473423 -0.2257367968559265
-0.7456703782081604 -0.13844339549541473 -0.18287071585655212
0.13364392518997192 -0.062276896089315414 -0.2982797920703888
-0.05191795527935028 -0.05109270662069321 -0.6701752543449402
-0.9999989867210388 0.034478094428777695 0.16270038485527039
-0.29706525802612305 -0.31517913937568665 -0.16368268430233002
0.9286668300628662 -0.49979206919670105 -0.14988204836845398
-0.7876002788543701 -0.33239662647247314 -0.10756224393844604
0.7120345830917358 -0.13106711208820343 -0.27367228269577026
-0.6143462061882019 0.08682158589363098 -0.6511597037315369
0.895365834236145 0.2690979540348053 -0.12789666652679443
-0.849143385887146 -0.49979206919670105 0.3473505675792694
-0.4815027415752411 -0.49979206919670105 -0.6384278535842896
0.3558320701122284 0.5013478398323059 0.09745324403047562
-0.9413576722145081 -0.16975289583206177 -0.3858403265476227
-0.9999989867210388 0.23452021181583405 0.07520905882120132
-0.9999989867210388 0.21232272684574127 0.17780035734176636
0.1592671424150467 0.5013478398323059 -0.3304232954978943
-0.581028938293457 -0.48114508390426636 0.25751909613609314
-0.6288583874702454 0.41034573316574097 -0.2701246738433838
0.713241696357727 -0.49979206919670105 0.19909986853599548
-0.801810622215271 0.31560495495796204 0.021369069814682007
-0.3333243727684021 0.493441104888916 0.1817028522491455
-0.041380997747182846 -0.011790324933826923 0.16451330482959747
-0.9999989867210388 0.15283560752868652 -0.11658782511949539
-0.035873640328645706 0.4381929039955139 -0.6701752543449402
0.1970885992050171 0.21788907051086426 0.6436566710472107
0.7997332811355591 0.5013478398323059 0.34330877661705017
0.5116928815841675 -0.49979206919670105 -0.4383476674556732
0.45020821690559387 -0.2773055136203766 -0.10162830352783203
-0.22859692573547363 0.15460801124572754 -0.6701752543449402
-0.2792243957519531 -0.33602088689804077 0.6436566710472107
-0.37005913257598877 0.13418681919574738 0.21267825365066528
0.7352895140647888 -0.15629138052463531 0.6436566710472107
0.40579891204833984 -0.21640446782112122 0.6436566710472107
0.4165872633457184 0.19298963248729706 0.20649316906929016
0.030671248212456703 0.24309830367565155 0.14938557147979736
-0.17920361459255219 0.5013478398323059 -0.12015623599290848
0.8530123233795166 -0.062469951808452606 0.6436566710472107
-0.45159950852394104 -0.34718114137649536 -0.2781336307525635
0.5818833112716675 0.07469496876001358 0.6436566710472107
0.10969394445419312 0.5013478398323059 -0.14374099671840668
-0.02169068716466427 0.1475120186805725 0.13862000405788422
-0.25274354219436646 0.08326927572488785 -0.02268751710653305
-0.7941758036613464 -0.4977283775806427 0.06040535122156143
-0.9443095922470093 0.5013478398323059 0.12563134729862213
0.3486306965351105 -0.03423526883125305 -0.3030119240283966
0.41934651136398315 -0.1387666016817093 -0.6701752543449402
-0.31561750173568726 0.4559656083583832 0.16229994595050812
-0.07143285870552063 0.5013478398323059 0.4516630172729492
-0.9999989867210388 0.2899072468280792 0.4141966998577118
-0.7451587319374084 -0.49979206919670105 -0.34115901589393616
0.9057382345199585 -0.49979206919670105 -0.08544161170721054
0.02178899385035038 -0.49979206919670105 0.08419782668352127
0.9444722533226013 -0.34192490577697754 0.4360398054122925
0.9444722533226013 0.26474085450172424 -0.32815030217170715
-0.33480972051620483 -0.24419154226779938 0.6436566710472107
0.7990293502807617 0.0958564430475235 0.26271048188209534
-0.4021695554256439 -0.49979206919670105 -0.4505320191383362
0.11245767027139664 0.1949557512998581 -0.23132292926311493
-0.9372356534004211 -0.35675251483917236 -0.39341285824775696
0.9444722533226013 0.09331090748310089 -0.40488535165786743
0.17547734081745148 -0.08338209986686707 0.266221821308136
-0.9978605508804321 0.08279954642057419 -0.19028300046920776
-0.5959054231643677 -0.44949132204055786 0.6436566710472107
-0.4084489047527313 -0.49979206919670105 0.5560725331306458
-0.6234570741653442 0.33739322423934937 0.6436566710472107
0.315022349357605 -0.49979206919670105 0.5021239519119263
-0.05190082639455795 -0.08622851967811584 -0.14874249696731567
0.7038067579269409 -0.1303563117980957 -0.2740212380886078
-0.07019899785518646 0.29860880970954895 -0.6701752543449402
-0.9676607251167297 0.004582681693136692 0.5754439234733582
0.06674756109714508 0.5013478398323059 -0.03755076229572296
-0.681155800819397 0.4516441226005554 0.21636836230754852
0.3557579219341278 -0.49979206919670105 -0.3941892683506012
-0.8871139287948608 0.015457804314792156 0.6343204379081726
-0.6592410206794739 0.0001470873539801687 -0.6365399956703186
0.9444722533226013 0.43213099241256714 -0.3320206105709076
0.024348154664039612 -0.2553592920303345 -0.1444890946149826
0.1619182676076889 -0.27685800194740295 -0.10343872755765915
-0.7806047201156616 0.4734044075012207 0.0979422926902771
-0.7568454742431641 -0.32777366042137146 0.14115916192531586
-0.9999989867210388 0.25713714957237244 0.29383334517478943
0.01926848292350769 0.5013478398323059 -0.23974445462226868
0.6912366151809692 0.047008685767650604 0.2750532031059265
-0.47664788365364075 -0.40025946497917175 -0.6701233386993408
-0.6420300006866455 0.24977684020996094 -0.6426104307174683
0.32301533222198486 0.28127074241638184 0.06783365458250046
-0.29152175784111023 0.27494731545448303 0.1277027279138565
0.6925314664840698 0.11310204118490219 0.25619590282440186
0.813329815864563 0.055184245109558105 0.6436566710472107
0.30206605792045593 0.0812888815999031 0.6436566710472107
0.4410691559314728 -0.0004958667559549212 -0.3052220344543457
-0.9999989867210388 0.2704140245914459 0.4566584527492523
0.5957871079444885 0.5013478398323059 -0.025303902104496956
-0.04395419731736183 0.5013478398323059 0.4615194499492645
-0.9999989867210388 0.1011514738202095 -0.13099393248558044
0.9151461124420166 0.5013478398323059 0.2480800300836563
0.27629053592681885 0.05917273834347725 -0.2992385923862457
0.053148720413446426 -0.1369577944278717 -0.6701752543449402
0.9444722533226013 -0.4025353789329529 -0.45514610409736633
-0.4721377491950989 -0.1229996606707573 0.25681260228157043
-0.7204219698905945 0.5013478398323059 0.44627198576927185
0.9444722533226013 0.2354336977005005 0.2881176173686981
-0.2729201912879944 0.1733648031949997 -0.6701752543449402
-0.3447946012020111 -0.29133522510528564 -0.2192019820213318
0.6500893831253052 0.047158654779195786 -0.30145883560180664
0.4750799238681793 -0.3328373432159424 0.6436566710472107
0.38472190499305725 0.5013478398323059 0.2836206257343292
-0.10414685308933258 0.030545007437467575 -0.6701752543449402
-0.25280308723449707 -0.01726651005446911 -0.0003117054875474423
-0.9980298280715942 -0.3528464138507843 -0.1895851492881775
0.7616541385650635 0.5013478398323059 -0.04466845840215683
0.10352113097906113 0.3994564116001129 0.6436566710472107
-0.7296229004859924 0.5013478398323059 0.2810361385345459
-0.994225800037384 0.11397479474544525 -0.22159163653850555
0.08793792128562927 -0.0028646066784858704 -0.6701752543449402
-0.18068625032901764 0.23755471408367157 -0.6701752543449402
-0.45713871717453003 0.0270509235560894 -0.27971819043159485
0.6386076807975769 0.24949079751968384 -0.6701752543449402
0.4059651792049408 0.024041801691055298 0.6436566710472107
-0.04998962953686714 0.14893049001693726 -0.08409766852855682
-0.7738493084907532 -0.3157579004764557 -0.13882137835025787
-0.5977137684822083 -0.0649796649813652 -0.280248761177063
0.33116698265075684 0.5013478398323059 0.3446913957595825
0.9444722533226013 -0.18255558609962463 -0.6443456411361694
0.498603492975235 0.13839904963970184 0.24411441385746002
0.9444722533226013 0.14694055914878845 0.38391435146331787
0.18394458293914795 0.23225775361061096 0.1644776165485382
0.7175192832946777 0.5013478398323059 -0.45782554149627686
0.232987180352211 -0.054176636040210724 0.2734951376914978
0.2317512482404709 -0.2903273403644562 0.008906116709113121
-0.7032054662704468 0.5013478398323059 0.4581391513347626
0.7949959635734558 0.5013478398323059 0.47673141956329346
-0.3848796784877777 -0.49979206919670105 -0.3091125786304474
-0.6027417778968811 -0.1612028032541275 0.2523415982723236
-0.7063702940940857 0.23994280397891998 -0.6162082552909851
0.3600834310054779 -0.00522958766669035 0.278572678565979
-0.25322940945625305 -0.30449461936950684 -0.0321369431912899
-0.27133217453956604 -0.49979206919670105 -0.5510239601135254
-0.5726566314697266 0.26659107208251953 -0.6608874797821045
0.9444722533226013 0.37043288350105286 -0.6621460318565369
0.31699493527412415 0.3856703042984009 -0.6701752543449402
0.9444722533226013 -0.452697217464447 -0.39006462693214417
0.872224748134613 0.5013478398323059 -0.30794909596443176
-0.2630445063114166 0.5013478398323059 -0.45873361825942993
-0.73967045545578 -0.49979206919670105 -0.31297436356544495
-0.3989461362361908 -0.44168752431869507 0.2303464412689209
0.5052782893180847 0.007044557016342878 -0.6701752543449402
-0.797880232334137 0.5013478398323059 0.17223870754241943
0.7480800747871399 -0.49979206919670105 -0.29559242725372314
-0.8031876087188721 0.15505610406398773 0.008573765866458416
-0.9879252910614014 0.33399003744125366 0.5384370684623718
0.6765681505203247 0.5013478398323059 0.2894354462623596
-0.5109861493110657 0.5013478398323059 0.4701729416847229
0.7209668755531311 0.12579183280467987 0.6436566710472107
-0.7296890020370483 -0.37707850337028503 -0.6040166616439819
-0.7657583951950073 -0.3112962543964386 -0.5819154977798462
0.467327356338501 -0.47959595918655396 -0.6701752543449402
0.25184202194213867 0.5013478398323059 0.030519695952534676
0.9444722533226013 0.399391770362854 0.1690586507320404
0.9444722533226013 -0.3420213460922241 0.5019921064376831
-0.998982310295105 -0.4825363755226135 0.49272316694259644
0.9444722533226013 -0.46683934330940247 -0.1606111377477646
-0.0071337721310555935 -0.45364144444465637 -0.6701752543449402
0.9444722533226013 -0.381811261177063 -0.3900686502456665
-0.2772243022918701 -0.14719483256340027 0.10075100511312485
-0.20489391684532166 -0.0045279753394424915 -0.6701752543449402
0.6897106170654297 -0.39200305938720703 0.6436566710472107
0.2739108204841614 0.36062905192375183 0.6436566710472107
-0.3958258628845215 -0.17646408081054688 0.228602796792984
-0.040458403527736664 -0.04527304321527481 -0.18724891543388367
0.12656638026237488 -0.49979206919670105 -0.18320170044898987
-0.15295769274234772 0.37006843090057373 0.6436566710472107
-0.4201728105545044 -0.2849747836589813 0.24043090641498566
0.8304579854011536 0.1593749076128006 0.6436566710472107
0.7704648971557617 0.26259616017341614 -0.6701752543449402
-0.16632018983364105 -0.03569778427481651 -0.6701752543449402
-0.10390917211771011 -0.40820497274398804 0.6436566710472107
-0.2900713086128235 0.062114860862493515 0.6436566710472107
0.6797617077827454 0.059518035501241684 0.6436566710472107
0.6053465008735657 -0.49979206919670105 0.08034967631101608
0.9444722533226013 -0.11231324076652527 -0.5651608109474182
0.39785751700401306 0.1011366993188858 0.6436566710472107
0.9444722533226013 0.10522422194480896 0.4196196496486664
-0.5684738159179688 -0.41321054100990295 0.6436566710472107
0.5682711601257324 0.34201839566230774 0.6436566710472107
0.9444722533226013 0.19695761799812317 -0.6452597379684448
-0.881395697593689 -0.18666811287403107 0.6362868547439575
0.02389788255095482 -0.49979206919670105 0.41439002752304077
-0.7281301617622375 0.1609213948249817 0.6436566710472107
0.10459606349468231 0.5013478398323059 -0.16063183546066284
0.8691913485527039 -0.3131316602230072 -0.6701752543449402
-0.9860299825668335 0.10827717930078506 -0.2647712826728821
0.2850271761417389 -0.49979206919670105 0.6102671027183533
-0.6726043224334717 0.3223475217819214 0.6436566710472107
-0.28990399837493896 0.34308841824531555 0.12539984285831451
0.534771740436554 0.5013478398323059 -0.06866911053657532
-0.7857890725135803 -0.044125430285930634 0.08567329496145248
-0.33093664050102234 -0.49979206919670105 0.23497265577316284
-0.685016393661499 0.5013478398323059 0.4901396930217743
0.8334911465644836 -0.4189625084400177 -0.6701752543449402
-0.06659846007823944 0.19598890841007233 -0.6701752543449402
0.5036689043045044 0.23864445090293884 0.6436566710472107
-0.12205006182193756 -0.01634237915277481 0.020184382796287537
0.9444722533226013 0.44234737753868103 0.39705216884613037
-0.6282371282577515 0.04597894847393036 0.24368241429328918
-0.9373863935470581 0.4691590964794159 0.6069121360778809
-0.9375361204147339 0.5013478398323059 -0.23216108977794647
0.20464502274990082 0.22710193693637848 -0.19769686460494995
-0.7721177935600281 -0.49979206919670105 -0.45809006690979004
0.69935542345047 0.45110824704170227 0.6436566710472107
0.025228174403309822 0.5013478398323059 -0.4914211332798004
-0.33441150188446045 0.04092681035399437 0.6436566710472107
0.9444722533226013 -0.143997460603714 0.3894025981426239
-0.6837325096130371 0.469152569770813 -0.2408987134695053
0.9444722533226013 0.2597881853580475 0.3436720371246338
0.9444722533226013 0.41159066557884216 -0.10246321558952332
0.767371416091919 0.5013478398323059 -0.6465874314308167
0.863357663154602 0.5013478398323059 -0.5338894128799438
0.7025650143623352 -0.49979206919670105 0.01504530943930149
0.21477095782756805 0.16071009635925293 0.23098281025886536
-0.20875117182731628 -0.23575912415981293 -0.6701752543449402
0.5434136986732483 0.11626476049423218 -0.6701752543449402
-0.2970387637615204 -0.08224198967218399 -0.16334475576877594
0.9444722533226013 0.2627871632575989 -0.5155411958694458
-0.40076160430908203 0.010944265872240067 -0.2578398287296295
0.25515374541282654 0.5013478398323059 -0.009021884761750698
-0.9999989867210388 -0.27947795391082764 -0.04995598644018173
0.048542071133852005 -0.49979206919670105 -0.6366673111915588
0.10376395285129547 0.5013478398323059 0.17001324892044067
-0.6366334557533264 0.2974228858947754 -0.2669236958026886
0.3281167447566986 -0.41751793026924133 0.6436566710472107
0.049214161932468414 0.12921111285686493 0.2487906664609909
0.4124554395675659 -0.15893128514289856 0.6436566710472107
-0.4863634407520294 -0.45924678444862366 0.6436566710472107
-0.6896553039550781 -0.4376363456249237 -0.6240524053573608
0.0050359186716377735 0.2998638451099396 -0.6701752543449402
-0.20937292277812958 0.5013478398323059 -0.2702675759792328
0.9260032176971436 0.5013478398323059 -0.05925050377845764
0.9444722533226013 0.1029585674405098 -0.3085646331310272
-0.2829301357269287 0.2494029402732849 -0.13925409317016602
0.16672109067440033 -0.10670226067304611 0.2580125331878662
0.8228242993354797 -0.14565080404281616 -0.6701752543449402
-0.36875447630882263 0.5013478398323059 -0.37576544284820557
0.4191237986087799 0.16598397493362427 0.2273189276456833
0.9444722533226013 0.22209995985031128 0.5479929447174072
0.6703910827636719 -0.23436293005943298 -0.6701752543449402
-0.5544505715370178 0.280428409576416 0.6436566710472107
0.26891034841537476 -0.49979206919670105 -0.20529599487781525
0.5000845789909363 0.5013478398323059 -0.49245592951774597
-0.742972731590271 0.06475876271724701 -0.18648478388786316
0.38171693682670593 0.2879205048084259 0.03852052241563797
-0.7974859476089478 0.4074328541755676 -0.5591205954551697
-0.6253289580345154 0.5013478398323059 0.38707461953163147
0.9444722533226013 0.4697778522968292 -0.18404953181743622
-0.31624993681907654 0.5013478398323059 0.6190903782844543
-0.2551270127296448 0.038612280040979385 -0.050979893654584885
-0.1652715802192688 -0.49979206919670105 -0.22331805527210236
0.02756577357649803 -0.49979206919670105 0.09806301444768906
0.698971152305603 0.5013478398323059 0.32462021708488464
-0.9999989867210388 -0.32864731550216675 -0.13903264701366425
0.10559766739606857 0.5013478398323059 -0.38717544078826904
0.7016359567642212 -0.46165701746940613 -0.6701752543449402
0.0041581676341593266 0.20804256200790405 -0.1604880392551422
-0.04032956808805466 0.17872513830661774 0.013947665691375732
0.5307818055152893 0.5013478398323059 -0.5091180801391602
0.23965071141719818 0.5013478398323059 -0.5725116729736328
0.14585968852043152 -0.11789019405841827 0.25339239835739136
0.9275752305984497 -0.1437687873840332 0.6436566710472107
0.42371782660484314 -0.34778329730033875 -0.6701752543449402
-0.16387337446212769 -0.40787801146507263 -0.6701752543449402
-0.07997986674308777 -0.04819275438785553 -0.6701752543449402
0.9444722533226013 -0.1337299942970276 -0.5337694883346558
0.9444722533226013 0.038334012031555176 0.5981271862983704
-0.7396309971809387 0.3627936542034149 0.16394339501857758
0.8485410213470459 0.21070550382137299 -0.21598543226718903
-0.7922840118408203 -0.4561232626438141 -0.09335311502218246
0.04535936936736107 0.2797867953777313 0.6436566710472107
-0.6430454850196838 0.203171044588089 0.2375948131084442
-0.6622160077095032 -0.3012566864490509 -0.6354052424430847
-0.7819860577583313 -0.11243803054094315 -0.12146212160587311
0.5008630156517029 -0.1223273053765297 0.6436566710472107
0.6210950613021851 0.2976806163787842 0.6436566710472107
0.05554946884512901 -0.11088341474533081 0.2565406858921051
-0.7970913648605347 0.004976434633135796 -0.07482849061489105
0.6502024531364441 0.5013478398323059 -0.5197881460189819
0.15752080082893372 -0.49979206919670105 -0.1598653942346573
-0.9999989867210388 0.23332485556602478 0.19989454746246338
0.15647056698799133 -0.49979206919670105 -0.5305250883102417
-0.04054524749517441 -0.49979206919670105 -0.34564676880836487
0.009004596620798111 0.2474658489227295 0.07559498399496078
0.5351736545562744 -0.49979206919670105 0.21396291255950928
-0.038559965789318085 -0.49979206919670105 -0.13120007514953613
-0.45292964577674866 0.28902000188827515 -0.6701752543449402
0.9444722533226013 0.19969651103019714 0.3475494086742401
-0.9046604633331299 0.0870664045214653 0.6273794770240784
0.46494176983833313 0.5013478398323059 0.2614053189754486
-0.8812053203582764 -0.49979206919670105 0.4819524586200714
0.8677788376808167 0.010008536279201508 0.278573602437973
-0.620911180973053 -0.3466944396495819 -0.6493075489997864
-0.19289085268974304 0.5013478398323059 0.6386898159980774
0.44108331203460693 -0.49979206919670105 -0.18326064944267273
0.004718711134046316 -0.42499059438705444 0.6436566710472107
-0.7508034706115723 -0.1385837346315384 0.1497066766023636
0.9444722533226013 -0.47860991954803467 0.5137000679969788
0.4126676917076111 -0.29084643721580505 -0.001463674707338214
-0.5212109684944153 -0.2666608691215515 0.6436566710472107
-0.8095333576202393 -0.30961501598358154 0.6436566710472107
0.8623005151748657 0.4340737462043762 0.6436566710472107
-0.5394328236579895 0.01353054866194725 -0.288822740316391
0.4804505407810211 0.5013478398323059 0.6104241609573364
-0.8052276372909546 0.5013478398323059 -0.30120477080345154
0.6071606278419495 0.19608451426029205 -0.6701752543449402
0.7222690582275391 0.3820481598377228 0.6436566710472107
-0.16535943746566772 0.09234897792339325 0.6436566710472107
0.27783146500587463 -0.38745924830436707 0.6436566710472107
0.870651125907898 0.20872576534748077 0.6436566710472107
0.8006983399391174 0.5013478398323059 0.044401638209819794
0.4016943871974945 -0.15050776302814484 0.6436566710472107
0.3499581217765808 -0.2710622549057007 -0.11947707831859589
0.8101450204849243 0.5013478398323059 -0.012753279879689217
-0.09010090678930283 -0.09570974111557007 -0.014270356856286526
0.21220634877681732 -0.49979206919670105 0.37887388467788696
0.6067663431167603 -0.1433413177728653 -0.2671103775501251
0.15252800285816193 -0.14059500396251678 0.6436566710472107
-0.2485746294260025 0.5013478398323059 0.5373532772064209
0.9444722533226013 -0.0301110427826643 0.6191357970237732
-0.5673332810401917 0.34354615211486816 -0.2862723767757416
-0.9999989867210388 -0.3967653214931488 -0.03015010803937912
0.6874173879623413 -0.4587459862232208 0.6436566710472107
-0.9999989867210388 -0.06984709948301315 0.37308382987976074
0.7990404963493347 -0.49979206919670105 -0.5564115047454834
0.7522296905517578 -0.054569460451602936 -0.29988160729408264
-0.9096024036407471 -0.29900693893432617 -0.43922480940818787
-0.5485644340515137 -0.30444100499153137 -0.6647883057594299
-0.22065772116184235 0.5013478398323059 0.005735890474170446
0.9444722533226013 -0.07215704023838043 0.42558008432388306
-0.686873197555542 0.29017403721809387 0.21242499351501465
-0.8553885817527771 -0.15358953177928925 -0.5066452622413635
-0.39532899856567383 -0.49979206919670105 -0.48000368475914
-0.34100911021232605 -0.49979206919670105 -0.5247862339019775
0.4496665894985199 0.12293435633182526 -0.6701752543449402
0.3167934715747833 0.5013478398323059 -0.09227079898118973
0.16061002016067505 0.5013478398323059 0.19953107833862305
0.6315179467201233 -0.29036015272140503 -0.6701752543449402
0.5235456824302673 -0.49979206919670105 0.5182226896286011
0.3958061933517456 -0.08524002879858017 0.6436566710472107
0.37080490589141846 0.2682993412017822 -0.1297471672296524
-0.1441114991903305 0.5013478398323059 -0.6143208742141724
0.1638367921113968 0.35862791538238525 -0.6701752543449402
0.21127605438232422 0.5013478398323059 -0.5871005654335022
0.8282201886177063 -0.49979206919670105 -0.3983030319213867
