0.8570127487182617 -0.1647629588842392 0.22896037995815277
0.47501492500305176 -0.1647629588842392 -0.005846070591360331
0.08305851370096207 -0.12002822756767273 0.07664509862661362
-0.2532840371131897 0.16442574560642242 -0.050548896193504333
-0.9233742356300354 0.09631186723709106 0.026961879804730415
-0.7884463667869568 0.16442574560642242 0.00660895137116313
-0.6758263111114502 0.09143155813217163 -0.07246803492307663
-0.7372838854789734 -0.1647629588842392 -0.14840176701545715
0.8917747735977173 -0.030629048123955727 0.1908816397190094
-0.36432945728302 0.12133845686912537 -0.015187162905931473
-0.7461498379707336 0.16442574560642242 -0.22629684209823608
-0.8547179102897644 -0.1647629588842392 -0.024173464626073837
-0.7956093549728394 -0.16022256016731262 -0.27154451608657837
-0.240544393658638 0.12015710026025772 -0.11188647896051407
-0.6647555232048035 -0.09899399429559708 -0.07685358822345734
0.5637363791465759 0.14793577790260315 0.20322774350643158
0.06362126767635345 -0.15079203248023987 0.07265534996986389
-0.8418492078781128 -0.03228984400629997 -0.2762715220451355
0.7340565919876099 0.15775521099567413 0.37340062856674194
0.3205904960632324 -0.10893823951482773 -0.11188647896051407
-0.45915812253952026 0.14711284637451172 -0.03465200215578079
0.3826030492782593 0.16442574560642242 0.019357457756996155
-0.9510167241096497 -0.12853845953941345 0.005221675615757704
0.4335252344608307 -0.051632653921842575 -0.11188647896051407
0.7109159827232361 -0.05128437653183937 -0.11188647896051407
0.5947760939598083 0.1289307028055191 -0.11188647896051407
0.468777596950531 -0.005023275967687368 0.15581904351711273
-0.7566672563552856 -0.13056963682174683 -0.2562636733055115
0.47739753127098083 0.16442574560642242 0.033969953656196594
0.33224108815193176 0.14069536328315735 0.127793088555336
-0.8423405289649963 0.10276549309492111 -0.2761225998401642
0.8364436626434326 -0.1647629588842392 0.3000629246234894
0.6122331023216248 -0.1647629588842392 0.22412686049938202
0.17854739725589752 -0.13585416972637177 -0.11188647896051407
0.274280309677124 -0.1647629588842392 0.0712079331278801
-0.2853925824165344 0.02311865985393524 0.0010156705975532532
-0.8593226075172424 0.16442574560642242 -0.040125031024217606
0.5689875483512878 0.09236043691635132 0.2501288950443268
0.6833017468452454 -0.06912863999605179 0.36727121472358704
0.21459722518920898 -0.1647629588842392 0.011746452189981937
0.6879722476005554 -0.04335238039493561 0.3685523271560669
0.7282176613807678 -0.08136401325464249 -0.06683611869812012
0.02676359750330448 0.01986248604953289 -0.11188647896051407
0.8924676775932312 -0.02374435029923916 0.2038152813911438
-0.9593937397003174 0.00482921302318573 -0.003745731431990862
0.8635933995246887 0.04752397909760475 0.30252185463905334
0.8460435271263123 0.04779516160488129 0.0944296345114708
-0.23505799472332 0.15429650247097015 -0.11188647896051407
0.5948554873466492 0.07598328590393066 0.3053772747516632
0.06658359616994858 0.12020228803157806 -0.11188647896051407
-0.16492320597171783 -0.02871301956474781 -0.11188647896051407
0.539195716381073 -0.11879197508096695 -0.11188647896051407
-0.03396064415574074 0.13496369123458862 0.0526253767311573
-0.39138051867485046 0.05581389740109444 -0.11188647896051407
0.1323217898607254 0.008366283029317856 -0.11188647896051407
-0.5079838633537292 -0.08865649998188019 -0.11188647896051407
0.30582407116889954 -0.044896192848682404 0.12237068265676498
-0.6950165629386902 -0.029589222744107246 -0.1975855976343155
0.3607460558414459 0.06629902124404907 0.13364411890506744
-0.4740294814109802 0.0373493991792202 -0.11188647896051407
0.7431556582450867 0.16442574560642242 0.2190396785736084
0.7514854073524475 0.08092191070318222 0.37193572521209717
-0.9389636516571045 0.09467166662216187 0.01578245870769024
-0.21734949946403503 0.16442574560642242 -0.02028454840183258
-0.9229347705841064 0.16442574560642242 -0.13767419755458832
0.6356680393218994 -0.1647629588842392 0.30801716446876526
-0.23622247576713562 0.16260264813899994 -0.11188647896051407
0.01349575910717249 0.11917360872030258 0.06236641854047775
-0.9109956622123718 0.08604229986667633 -0.25810107588768005
-0.11496792733669281 -0.1647629588842392 0.019786827266216278
0.6846297383308411 -0.1647629588842392 -0.08321208506822586
0.13899362087249756 -0.03387211263179779 0.08812651038169861
-0.687349259853363 0.1256917268037796 -0.04041335731744766
0.18881677091121674 0.05521640181541443 -0.11188647896051407
-0.11251983046531677 -0.1647629588842392 -0.015318124555051327
-0.983798086643219 -0.1463596075773239 -0.04077156260609627
-0.6747573018074036 0.09539343416690826 -0.14718204736709595
0.8898825645446777 0.09351329505443573 0.17838025093078613
0.7512723207473755 0.04459357634186745 0.37192511558532715
0.396127849817276 0.16442574560642242 0.09897445142269135
-0.5299007892608643 0.010895187966525555 -0.11188647896051407
0.7263017892837524 0.16442574560642242 0.3149307668209076
-0.9253806471824646 -0.12751519680023193 -0.24948211014270782
0.2596583664417267 -0.1647629588842392 0.06977923959493637
-0.11298571527004242 0.11466909199953079 -0.11188647896051407
0.3654268980026245 -0.12936775386333466 0.13460493087768555
-0.5178948640823364 0.10539694130420685 -0.11188647896051407
-0.09383238852024078 -0.018987862393260002 -0.11188647896051407
-0.07799629122018814 -0.039003994315862656 0.04358648881316185
-0.49844953417778015 -0.07371118664741516 -0.11188647896051407
-0.9966862201690674 0.03163699805736542 -0.07982305437326431
-0.14223916828632355 -0.1647629588842392 -0.003902082797139883
0.7687508463859558 -0.020541252568364143 0.36834731698036194
0.4467136561870575 0.044265106320381165 -0.11188647896051407
0.1384185254573822 -0.006382415536791086 0.08800848573446274
-0.016615917906165123 -0.0873924046754837 0.05618562921881676
0.5218073129653931 0.16442574560642242 0.06403879076242447
0.8914933800697327 -0.04534895345568657 0.19030047953128815
-0.878190279006958 -0.1647629588842392 -0.2374686300754547
-0.2356354147195816 -0.1647629588842392 -0.05442731827497482
0.784684419631958 -0.1647629588842392 0.24839071929454803
0.7395821809768677 0.16442574560642242 0.08076317608356476
-0.10296714305877686 -0.05469922721385956 0.03846089914441109
-0.9747109413146973 -0.05472147837281227 -0.19940762221813202
0.8318485617637634 -0.1647629588842392 0.3005916476249695
-0.9455229640007019 -0.1317146122455597 -0.23405621945858002
0.2176186591386795 -0.1647629588842392 -0.09172800928354263
-0.9129103422164917 -0.1647629588842392 -0.23880337178707123
0.4827330708503723 0.056193556636571884 0.15868356823921204
-0.24739037454128265 0.028366127982735634 -0.11188647896051407
0.663930356502533 -0.0523957796394825 0.3604387938976288
-0.754160463809967 0.16442574560642242 -0.15429143607616425
-0.6289442181587219 -0.027635524049401283 -0.11188647896051407
-0.6935503482818604 -0.1478361189365387 -0.02888837456703186
-0.5905210971832275 0.1302015632390976 -0.0616159662604332
-0.9642757773399353 -0.1647629588842392 -0.12681183218955994
0.47080209851264954 0.16442574560642242 0.09077554196119308
-0.9468280076980591 -0.10542649775743484 0.009140475653111935
-0.9891573190689087 -0.0426684245467186 -0.05378199741244316
-0.3682440221309662 -0.09458734840154648 -0.015990668907761574
-0.3513878583908081 0.16159780323505402 -0.11188647896051407
-0.19575482606887817 0.09726376086473465 0.01941501535475254
-0.9124742746353149 -0.1647629588842392 -0.01645955629646778
-0.21539655327796936 -0.1647629588842392 -0.00036945691681466997
-0.9110206365585327 0.01861749403178692 0.034260690212249756
0.7282176613807678 0.006458770949393511 -0.0246121846139431
-0.9775189757347107 0.0803566500544548 -0.1948295384645462
-0.4211413860321045 -0.1501198261976242 -0.11188647896051407
0.69391930103302 -0.1647629588842392 0.060511115938425064
0.6645272970199585 -0.06689833849668503 0.36068210005760193
0.31826767325401306 -0.14565764367580414 -0.11188647896051407
-0.9829474687576294 0.10955389589071274 -0.03923957422375679
0.03102421760559082 0.08021043241024017 0.06596437096595764
-0.3313080370426178 -0.08397914469242096 -0.008409086614847183
0.1576627790927887 -0.059321820735931396 0.09195860475301743
0.7282176613807678 0.008401071652770042 -0.09248215705156326
-0.6354936361312866 0.09864389151334763 -0.11188647896051407
-0.6402614116668701 0.06019361689686775 -0.11188647896051407
0.01957973651587963 -0.11958985030651093 -0.11188647896051407
-0.11771512776613235 -0.152353897690773 -0.11188647896051407
0.48339858651161194 -6.965517241042107e-05 0.15882016718387604
0.31821078062057495 -0.011389229446649551 -0.11188647896051407
0.7151944637298584 0.12666040658950806 -0.11188647896051407
0.16736847162246704 0.15963754057884216 0.09395082294940948
0.8058519959449768 -0.1647629588842392 0.2825808525085449
0.12870733439922333 -0.1647629588842392 -0.008890383876860142
0.3832191824913025 -0.10308222472667694 -0.11188647896051407
-0.7566244006156921 0.16442574560642242 -0.12391159683465958
-0.6023305654525757 0.10104681551456451 -0.06404001265764236
-0.9574373960494995 -0.12028143554925919 -0.0018056485569104552
-0.6233313083648682 -0.09299629181623459 -0.11188647896051407
-0.7709442377090454 0.12378448247909546 0.03943224623799324
0.7282176613807678 0.10439561307430267 -0.08337479084730148
-0.26260197162628174 0.16442574560642242 -0.009618810378015041
0.5444086790084839 -0.1647629588842392 0.038109179586172104
0.712004542350769 -0.1647629588842392 0.07817357033491135
-0.6794999837875366 -0.14534695446491241 -0.16419219970703125
0.27343931794166565 0.12845611572265625 -0.11188647896051407
0.3773958086967468 -0.09950080513954163 -0.11188647896051407
0.6097703576087952 -0.1647629588842392 -0.026972630992531776
0.8766076564788818 -0.1647629588842392 0.2561642825603485
0.5709525346755981 0.08654744923114777 -0.11188647896051407
-0.41499587893486023 0.10478869080543518 -0.025587111711502075
0.7119264006614685 -0.04571598395705223 0.37274277210235596
-0.5466917753219604 3.0295095712062903e-05 -0.05261943116784096
-0.4510398805141449 -0.02027534507215023 -0.032985616475343704
0.6475245952606201 -0.13754688203334808 0.35223284363746643
0.8305332660675049 0.14726579189300537 0.08021789789199829
-0.4008052945137024 0.16442574560642242 -0.023773811757564545
-0.7749799489974976 -0.04498211294412613 0.04089036211371422
-0.7013571858406067 -0.07689079642295837 -0.016571858897805214
0.6054980754852295 0.16442574560642242 0.15755194425582886
0.6798228621482849 0.16442574560642242 0.05327143520116806
0.30226635932922363 0.16442574560642242 -0.0706637054681778
0.4744871258735657 -0.1647629588842392 0.06006807088851929
0.8234601020812988 0.09328464418649673 0.34308260679244995
0.7938826084136963 -0.02765408530831337 0.3598581850528717
-0.6765831708908081 0.11515624821186066 -0.06958504021167755
-0.9762271046638489 0.12503595650196075 -0.19693142175674438
0.021588552743196487 0.15842275321483612 -0.11188647896051407
-0.9898585081100464 0.09939679503440857 -0.16842208802700043
-0.7648820877075195 0.16442574560642242 -0.001070482307113707
-0.7331138253211975 -0.07016710937023163 0.01683788187801838
0.6611327528953552 -0.1647629588842392 0.3022843897342682
0.2015247344970703 0.16442574560642242 0.08201396465301514
0.6638962030410767 0.16442574560642242 0.12260586023330688
-0.7181918621063232 0.11490150541067123 -0.22729280591011047
0.673958957195282 0.05901947617530823 0.3642638325691223
-0.7694506645202637 -0.07495051622390747 0.03884359076619148
0.1691366583108902 0.1608516126871109 0.09431377053260803
0.6028571128845215 -0.1647629588842392 0.22760479152202606
-0.3332572877407074 -0.004239115864038467 -0.11188647896051407
-0.33087611198425293 -0.1647629588842392 -0.03862948343157768
-0.7937573790550232 -0.1647629588842392 -0.19342336058616638
0.8662155270576477 -0.1647629588842392 0.16325277090072632
-0.9892175793647766 0.04962993040680885 -0.05386272072792053
0.8176146149635315 0.0703478679060936 0.07107388228178024
0.892643392086029 -0.015129457227885723 0.20501622557640076
-0.07937872409820557 -0.04277936369180679 0.04330272972583771
0.41065818071365356 -0.1647629588842392 -0.06996605545282364
0.5901381969451904 -0.1647629588842392 0.10722751170396805
0.2031867653131485 -0.10278882831335068 -0.11188647896051407
-0.2615809738636017 -0.16009634733200073 -0.11188647896051407
-0.4403308928012848 -0.08180974423885345 -0.11188647896051407
-0.6940563917160034 0.0194079726934433 -0.02767016552388668
0.8229100108146667 -0.04393083229660988 0.34367886185646057
-0.15512870252132416 -0.1647629588842392 -0.0769721046090126
-0.6884599924087524 0.16442574560642242 -0.07214316725730896
-0.5975668430328369 -0.1330290138721466 -0.11188647896051407
0.8304160237312317 0.004536131396889687 0.08005977421998978
0.8441277742385864 0.11888977885246277 0.3255361318588257
-0.3013860583305359 -0.03802942857146263 -0.11188647896051407
-0.8610023260116577 -0.03210826963186264 0.05055518448352814
-0.3896016776561737 0.16442574560642242 -0.08327676355838776
-0.1282302737236023 -0.08234848827123642 -0.11188647896051407
0.8911944031715393 -0.12767499685287476 0.18704473972320557
-0.03068508580327034 0.0214962437748909 0.0532977469265461
0.4275827705860138 0.15426228940486908 -0.11188647896051407
0.5639052391052246 -0.10666563361883163 0.2008552849292755
0.5971810221672058 0.152138814330101 -0.11188647896051407
0.7738646864891052 0.16442574560642242 0.10348853468894958
-0.7931569814682007 0.04437240585684776 -0.2708854079246521
-0.39117616415023804 0.0885029062628746 -0.020697809755802155
-0.8040654063224792 -0.14115536212921143 -0.2732374966144562
-0.02169623225927353 -0.1231086328625679 0.05514282360672951
0.5743544101715088 -0.03438536450266838 -0.11188647896051407
0.5323823094367981 -0.039777010679244995 0.16887472569942474
0.6974459290504456 -0.0950121283531189 0.37068700790405273
0.8414331078529358 -0.1647629588842392 0.14439880847930908
-0.9713378548622131 -0.08686833828687668 -0.20464682579040527
0.6367347836494446 0.16442574560642242 0.03457813337445259
-0.13960371911525726 0.11775805801153183 0.030940759927034378
-0.7233490943908691 -0.1647629588842392 -0.05558837950229645
0.18879279494285583 0.16442574560642242 -0.0993555411696434
-0.5943692326545715 -0.13726121187210083 -0.062405820935964584
-0.640451967716217 0.1121380627155304 -0.07186493277549744
0.42507731914520264 0.16442574560642242 -0.014159268699586391
-0.9574214220046997 -0.12333910167217255 -0.001725603942759335
0.5771286487579346 -0.03581451252102852 0.2740587890148163
0.7282176613807678 0.008647875860333443 0.002437313087284565
0.6525381207466125 -0.003055115230381489 0.3550834655761719
0.2792709767818451 -0.07671090960502625 0.11692029237747192
-0.6798384189605713 0.13260188698768616 -0.16479270160198212
0.6486828327178955 0.0974917784333229 -0.11188647896051407
-0.720664918422699 0.06517935544252396 0.006065111607313156
0.7282176613807678 0.05702362209558487 0.007493778131902218
-0.34456974267959595 -0.12080290913581848 -0.11188647896051407
-0.690769612789154 0.05900217965245247 -0.19022220373153687
0.5807284712791443 0.06300868839025497 0.28165528178215027
-0.4605056941509247 -0.1301552802324295 -0.11188647896051407
0.41014164686203003 0.09502174705266953 0.14378321170806885
0.47034314274787903 -0.009386260062456131 0.15614037215709686
0.40802961587905884 -0.1647629588842392 -0.0433177575469017
0.5374389290809631 -0.1647629588842392 -0.10151200741529465
0.5437770485877991 0.16442574560642242 -0.09129446744918823
0.016336670145392418 -0.03897260129451752 -0.11188647896051407
0.18581324815750122 0.16442574560642242 -0.10099003463983536
0.19154949486255646 0.06268279254436493 -0.11188647896051407
-0.9960537552833557 -0.14913062751293182 -0.07632733136415482
-0.43861711025238037 -0.054758187383413315 -0.030435672029852867
0.17756147682666779 -0.1647629588842392 0.07676319777965546
0.22645795345306396 -0.1479721963405609 0.10607974976301193
0.5664868354797363 -0.1647629588842392 0.12110289931297302
-0.6768043637275696 0.07380165904760361 -0.06882847845554352
0.7927250266075134 0.08134939521551132 0.0577290914952755
-0.07082796841859818 0.16442574560642242 -0.06863997876644135
-0.8676554560661316 -0.1647629588842392 -0.16922302544116974
0.6251407265663147 -0.1647629588842392 0.11411489546298981
-0.1793227195739746 -0.07605572044849396 0.02278788574039936
-0.002805906580761075 0.16442574560642242 -0.059903018176555634
-0.893712043762207 -0.09475579857826233 -0.26574477553367615
-0.19106708467006683 -0.1647629588842392 0.012662849389016628
-0.9564046859741211 0.14340676367282867 -0.000665609142743051
-0.08005204051733017 -0.15003086626529694 0.04316451773047447
0.565369188785553 0.15101972222328186 0.23152247071266174
0.033710043877363205 -0.1647629588842392 -0.1090516671538353
-0.6435068845748901 0.024571450427174568 -0.07249201089143753
-0.6878505945205688 -0.08398745954036713 -0.039490196853876114
-0.9951411485671997 -0.015776092186570168 -0.07233752310276031
-0.7161162495613098 -0.040602002292871475 -0.22509099543094635
-0.5409777164459229 0.1526353508234024 -0.11188647896051407
-0.3561621606349945 0.043570615351200104 -0.11188647896051407
-0.7410651445388794 0.06971408426761627 -0.24655979871749878
-0.1606815755367279 0.16442574560642242 -0.08769863098859787
-0.9589143395423889 0.09935523569583893 -0.003096731612458825
-0.5694147348403931 0.09958068281412125 -0.05728360638022423
0.41075533628463745 -0.09634838998317719 -0.11188647896051407
-0.9934317469596863 0.11614533513784409 -0.06592000275850296
-0.5646691918373108 0.004284391645342112 -0.11188647896051407
0.3006802797317505 0.021870046854019165 -0.11188647896051407
0.8168115019798279 -0.08823756873607635 0.34768229722976685
-0.16568748652935028 -0.1647629588842392 0.01748323254287243
0.6433860063552856 -0.08773765712976456 -0.11188647896051407
0.2108837217092514 0.16442574560642242 -0.050689734518527985
0.15525341033935547 0.12941217422485352 0.09146405011415482
-0.6041455864906311 0.09207791090011597 -0.06441256403923035
-0.19634909927845 0.15406674146652222 -0.11188647896051407
-0.8333410024642944 0.07604636251926422 -0.2764478921890259
-0.045178383588790894 -0.03885801136493683 0.050322793424129486
0.41088101267814636 0.12716050446033478 0.14393498003482819
0.6535542607307434 -0.05314991995692253 -0.11188647896051407
-0.8096279501914978 0.16442574560642242 -0.14081278443336487
0.031630825251340866 0.018273279070854187 -0.11188647896051407
0.8189842104911804 0.1353607177734375 0.3461274206638336
0.8760985136032104 0.0381571426987648 0.13730312883853912
0.1003265231847763 -0.1647629588842392 0.07261210680007935
0.5655162334442139 0.11043865233659744 0.1861681491136551
0.8882284760475159 0.011653546243906021 0.24738337099552155
-0.9409017562866211 -0.07020246982574463 -0.23802079260349274
-0.17216350138187408 0.07769923657178879 0.024257443845272064
0.717025637626648 -0.0153718376532197 -0.11188647896051407
-0.10599783062934875 0.16442574560642242 0.024417709559202194
0.5590314865112305 -0.1647629588842392 0.047276586294174194
-0.30749601125717163 0.10127489268779755 -0.0035213339142501354
-0.7181128859519958 -0.14907528460025787 -0.22713513672351837
-0.8154259324073792 -0.1647629588842392 -0.1497737169265747
-0.35238876938819885 -0.10382001847028732 -0.012736193835735321
0.5788342356681824 -0.11132868379354477 0.27810388803482056
0.4212687611579895 0.16442574560642242 0.06351757049560547
0.6346803307533264 0.16442574560642242 0.14317163825035095
0.6988246440887451 -0.1647629588842392 0.3192492723464966
0.7982646822929382 -0.1647629588842392 0.1143941804766655
0.790343165397644 -0.15928392112255096 0.05673835799098015
-0.1444700062274933 0.08280541002750397 -0.11188647896051407
-0.8366538286209106 -0.1647629588842392 -0.16845542192459106
-0.6591013669967651 -0.11519843339920044 -0.11188647896051407
-0.9799791574478149 -0.1647629588842392 -0.16980686783790588
0.1840183287858963 -0.1647629588842392 0.07220300287008286
0.16080056130886078 0.16442574560642242 0.03694581240415573
-0.8559038043022156 0.006382915657013655 0.05123387277126312
-0.13005433976650238 0.1207442432641983 -0.11188647896051407
0.3965499699115753 0.003522177692502737 -0.11188647896051407
-0.9998161792755127 0.1544496715068817 -0.10722997039556503
-0.8029879927635193 -0.14975985884666443 0.04936564341187477
0.09013210982084274 -0.03815494477748871 0.07809704542160034
-0.6766147613525391 -0.05082596838474274 -0.06963621824979782
0.4556606113910675 0.16442574560642242 0.13670271635055542
-0.1919567883014679 -0.12759236991405487 0.02019459567964077
-0.08546897768974304 0.1057610809803009 0.04205263406038284
0.7921655178070068 0.06260932981967926 0.3605825901031494
0.24727340042591095 0.16442574560642242 -0.018209511414170265
0.6398791074752808 0.16442574560642242 -0.02186676114797592
0.10714484751224518 0.16442574560642242 0.04149401932954788
0.488493412733078 0.04485347867012024 -0.11188647896051407
0.6461566090583801 -0.04894612357020378 0.3516148328781128
-0.5205893516540527 -0.06958683580160141 -0.11188647896051407
0.5018850564956665 0.05316142737865448 0.16261474788188934
0.855805516242981 0.038858562707901 0.31283748149871826
0.11483670026063919 -0.1647629588842392 -0.07871939986944199
0.7282176613807678 -0.040971290320158005 -0.07746914029121399
-0.9589438438415527 0.10574081540107727 -0.22057293355464935
-0.9882428050041199 -0.15223005414009094 -0.1728070080280304
0.5676053166389465 -0.014967935159802437 0.24481189250946045
-0.25820258259773254 -0.05506765469908714 -0.11188647896051407
-0.4410989582538605 0.09003300964832306 -0.030945096164941788
0.8624468445777893 0.14221543073654175 0.30382639169692993
0.2846260964870453 -0.08603961765766144 0.11801950633525848
-0.39672181010246277 0.15889421105384827 -0.021836111322045326
-0.8632314205169678 0.03185613825917244 -0.2740287780761719
-0.19165274500846863 -0.09983931481838226 -0.11188647896051407
-0.5048795938491821 -0.02565806172788143 -0.044036928564310074
0.4936557412147522 0.11165616661310196 -0.11188647896051407
0.5662376880645752 0.16442574560642242 0.2112276703119278
0.31937694549560547 -0.1647629588842392 -0.013013833202421665
0.8093881607055664 0.16442574560642242 0.34265556931495667
0.04264913871884346 0.16442574560642242 0.03733526170253754
-0.3549792468547821 0.10819360613822937 -0.11188647896051407
0.7282176613807678 0.08578299731016159 0.03798466548323631
-0.465261310338974 -0.0561639666557312 -0.03590474650263786
0.5295318365097046 0.012991081923246384 0.16828963160514832
-0.4314294755458832 0.0343196727335453 -0.11188647896051407
0.45622050762176514 -0.1647629588842392 -0.09006400406360626
-0.7737764716148376 -0.1647629588842392 0.03296775370836258
-0.03737873211503029 0.04705103859305382 0.051923781633377075
0.6383824348449707 -0.1647629588842392 0.21187043190002441
0.22418253123760223 0.16442574560642242 0.10286880284547806
0.5185604691505432 -0.1647629588842392 0.0896095335483551
0.7282176613807678 -0.14247922599315643 -0.09071068465709686
-0.2796515226364136 0.07468058168888092 0.0021941084414720535
0.10417890548706055 0.16442574560642242 -0.03081165812909603
0.5779735445976257 -0.1647629588842392 -0.06364362686872482
-0.7226149439811707 0.009536009281873703 0.007689077872782946
-0.4774777889251709 -0.1647629588842392 -0.10229711979627609
-0.9333779215812683 -0.1647629588842392 0.0029602369759231806
0.7282176613807678 -0.15640117228031158 -0.08597714453935623
0.6920477151870728 0.13104474544525146 -0.11188647896051407
0.39935845136642456 0.045268408954143524 -0.11188647896051407
-0.26461806893348694 0.06496871262788773 -0.11188647896051407
-0.8129718899726868 0.16442574560642242 -0.12053316086530685
-0.8885324001312256 -0.1173180341720581 -0.26739564538002014
0.7282176613807678 -0.12547071278095245 -0.10856270045042038
-0.3777964115142822 0.16442574560642242 -0.07734636962413788
-0.9564092755317688 0.16442574560642242 -0.03565440699458122
0.8414255380630493 -0.1647629588842392 0.17155081033706665
0.4428789019584656 -0.1647629588842392 0.14400112628936768
-0.8836809396743774 -0.1647629588842392 -0.04009225592017174
-0.9540369510650635 0.12502633035182953 0.0021254541352391243
0.7172307372093201 0.16442574560642242 -0.06981182843446732
-0.882264256477356 -0.1647629588842392 -0.15555182099342346
-0.17443116009235382 -0.02553427219390869 -0.11188647896051407
0.3261781930923462 -0.04783542454242706 0.1265486180782318
-0.9671798944473267 0.11531855911016464 -0.01329643651843071
0.18470123410224915 -0.1647629588842392 -0.05596315488219261
-0.9957683682441711 0.07018417865037918 -0.14887961745262146
-0.26702818274497986 -0.16092786192893982 0.004785212222486734
0.027846843004226685 0.10210840404033661 -0.11188647896051407
-0.976338267326355 -0.10587845742702484 -0.027206506580114365
0.7282176613807678 -0.03343091160058975 -0.002759993076324463
0.039302077144384384 -0.021685833111405373 -0.11188647896051407
0.5347508788108826 -0.10556457191705704 0.1693609058856964
-0.19542957842350006 -0.09339611232280731 -0.11188647896051407
-0.5058280229568481 0.16442574560642242 -0.06963835656642914
0.07533177733421326 0.16442574560642242 -0.029121514409780502
0.30236855149269104 -0.07156404107809067 0.12166137248277664
-0.9897173643112183 -0.11277064681053162 -0.055152829736471176
0.7282176613807678 0.09124250710010529 -0.012280315160751343
0.4700601100921631 -0.1647629588842392 0.1442713439464569
0.5852122902870178 -0.1647629588842392 0.2772899568080902
-0.6895273327827454 -0.01267335657030344 -0.03604124113917351
0.5379040837287903 0.028095070272684097 0.17000815272331238
0.8290821313858032 0.1389465034008026 0.07900796085596085
0.8535532355308533 -0.1647629588842392 0.1479460746049881
-0.8208129405975342 0.16442574560642242 -0.11939507722854614
-0.9114984273910522 -0.15048490464687347 -0.2576952278614044
0.5913076996803284 0.1060914397239685 -0.11188647896051407
-0.8517228960990906 -0.15007929503917694 -0.27562251687049866
-0.3481382727622986 0.16442574560642242 -0.1116422638297081
0.7005622982978821 0.16442574560642242 -0.05454404652118683
0.8246139883995056 0.022110240533947945 0.3421225845813751
-0.4922460913658142 -0.07890316098928452 -0.11188647896051407
-0.7043609619140625 0.05110263451933861 -0.21118642389774323
0.5690602660179138 -0.09997012466192245 0.2505262494087219
0.7282176613807678 0.12491099536418915 -0.07931820303201675
0.8791636824607849 0.10207431018352509 0.14375825226306915
-0.7071468830108643 0.023807775229215622 -0.008961000479757786
-0.18210680782794952 0.16442574560642242 -0.054805535823106766
-0.823686420917511 -0.1647629588842392 -0.01757805235683918
-0.26704421639442444 -0.001283342600800097 -0.11188647896051407
-0.9526432752609253 -0.13925385475158691 -0.22726662456989288
0.7325173020362854 -0.13888230919837952 0.04464668035507202
-0.14867106080055237 -0.1647629588842392 -0.015263037756085396
0.05624080449342728 0.0525498166680336 0.07114041596651077
-0.4251866340637207 0.05057192221283913 -0.027678895741701126
-0.7441704273223877 -0.1647629588842392 -0.17607587575912476
-0.617591917514801 0.13495366275310516 -0.06717261672019958
-0.14067213237285614 0.1266845464706421 0.030721444636583328
0.6235567927360535 0.16442574560642242 0.22957676649093628
-0.2869623601436615 0.16442574560642242 -0.0816502794623375
-0.839935302734375 -0.1647629588842392 0.02730451337993145
-0.6864516735076904 0.16442574560642242 -0.09321486949920654
-0.8606602549552917 0.16442574560642242 -0.1653517633676529
0.3073737323284149 0.033006321638822556 -0.11188647896051407
0.3457562327384949 0.007844153791666031 0.1305672526359558
0.07547254115343094 0.06281618028879166 0.07508798688650131
0.590324342250824 0.1388421356678009 -0.11188647896051407
0.26841047406196594 -0.1647629588842392 0.02978511154651642
0.6132861375808716 -0.1647629588842392 0.19528017938137054
-0.7345768213272095 -0.06098749861121178 -0.24191543459892273
-0.705967366695404 -0.007066291756927967 -0.2134336531162262
-0.2785291075706482 0.04495259374380112 -0.11188647896051407
-0.6030927896499634 -0.05756419524550438 -0.06419647485017776
-0.6692728400230408 0.05869673937559128 -0.11188647896051407
0.7282176613807678 0.061368927359580994 -0.09383122622966766
-0.7278807759284973 -0.1647629588842392 -0.14163285493850708
-0.1295069009065628 0.16442574560642242 0.0026682543102651834
-0.8195170164108276 0.14320558309555054 0.05189557746052742
0.8529927730560303 -0.05558520182967186 0.10180478543043137
-0.9068623185157776 0.16442574560642242 -0.23777556419372559
0.002265382558107376 -0.1647629588842392 -0.062479034066200256
-0.7107585668563843 -0.027976833283901215 -0.004638818558305502
-0.08478686958551407 -0.1647629588842392 -0.03505523130297661
0.10835543274879456 -0.06384173035621643 0.08183764666318893
0.48912903666496277 -0.06891557574272156 -0.11188647896051407
-0.6032758355140686 0.11145924776792526 -0.11188647896051407
0.8532353639602661 -0.1647629588842392 0.2923647165298462
0.7282176613807678 -0.1167321428656578 -0.051127705723047256
0.29527154564857483 0.16442574560642242 -0.09160035103559494
0.2862151563167572 0.006677988916635513 0.11834567040205002
0.5531774759292603 0.019300123676657677 0.17314322292804718
0.10458487272262573 0.04777109622955322 -0.11188647896051407
0.17676755785942078 0.05742395296692848 -0.11188647896051407
0.033884044736623764 -0.09185125678777695 -0.11188647896051407
-0.9982991814613342 -0.002077784389257431 -0.08829205483198166
-0.9440990686416626 -0.15325315296649933 -0.23539000749588013
0.49789825081825256 0.16442574560642242 -0.0001109283184632659
0.8481316566467285 -0.14817257225513458 0.09655417501926422
0.04848094284534454 -0.1605735570192337 0.0695476084947586
-0.38357216119766235 0.022257447242736816 -0.019136983901262283
0.573473334312439 0.02718399092555046 -0.11188647896051407
-0.9997119307518005 0.03776456415653229 -0.12030856311321259
0.6460143327713013 0.007490030489861965 -0.11188647896051407
0.7647249698638916 -0.1647629588842392 0.21024158596992493
-0.9545027017593384 0.06412573158740997 -0.2252100706100464
-0.805066704750061 -0.07007202506065369 0.04961596801877022
-0.25223517417907715 -0.1647629588842392 -0.007175100967288017
0.8889151811599731 0.11377829313278198 0.17401856184005737
-0.8702085614204407 -0.1647629588842392 -0.23041382431983948
0.5217233896255493 -0.05734292417764664 -0.11188647896051407
0.5090254545211792 -0.1647629588842392 -0.006651323288679123
-0.9911888241767883 0.08277732878923416 -0.058907654136419296
0.3217241168022156 -0.11063994467258453 -0.11188647896051407
0.7171521186828613 -0.0012228701962158084 -0.11188647896051407
0.0807027593255043 0.1597432643175125 -0.11188647896051407
0.7258504629135132 0.16442574560642242 0.2361306995153427
0.7282176613807678 -0.12983444333076477 0.03874536603689194
-0.004435013514012098 0.16442574560642242 0.0010268742917105556
0.321774423122406 0.07939591258764267 0.12564468383789062
0.8857054710388184 0.10082009434700012 0.2568175792694092
-0.7923187613487244 0.16442574560642242 -0.10133611410856247
-0.6743451356887817 0.009873954579234123 -0.14517605304718018
-0.8861880302429199 0.15834009647369385 -0.26822134852409363
0.19818875193595886 0.16442574560642242 0.008490337990224361
0.17170672118663788 -0.1647629588842392 0.051822155714035034
-0.6805770993232727 -0.1297084093093872 -0.1669870764017105
-0.3735214173793793 -0.1647629588842392 -0.03436383605003357
-0.8997729420661926 -0.029363363981246948 -0.2632480263710022
0.7303763031959534 -0.1632600724697113 0.04458706080913544
0.3431882858276367 0.16442574560642242 0.09560670703649521
0.4801134467124939 -0.1647629588842392 -0.017810799181461334
0.43751779198646545 -0.16401085257530212 -0.11188647896051407
0.5849440097808838 0.04219697788357735 0.2895863354206085
0.7282176613807678 -0.125496968626976 -0.054238393902778625
0.8773717284202576 0.16442574560642242 0.20511259138584137
0.4359169006347656 -0.1647629588842392 0.141152024269104
0.11728859692811966 -0.12829382717609406 0.08367126435041428
-0.86109459400177 0.13297663629055023 -0.27428245544433594
0.09110963344573975 0.04368825629353523 -0.11188647896051407
-0.766528844833374 0.16442574560642242 -0.19451013207435608
0.46989545226097107 -0.11598261445760727 -0.11188647896051407
-0.6035619378089905 -0.1647629588842392 -0.10665025562047958
-0.8895158171653748 0.13796596229076385 -0.2672765254974365
0.7481616139411926 0.14519639313220978 0.3723141551017761
0.5654569268226624 0.04641299694776535 0.23343373835086823
0.4675824046134949 -0.04742866009473801 0.15557369589805603
0.352720707654953 0.020462404936552048 0.13199681043624878
-0.5998650193214417 -0.059893716126680374 -0.11188647896051407
-0.6872187852859497 0.12174861133098602 -0.04067207872867584
-0.2750997245311737 0.16442574560642242 -0.0036554348189383745
0.751995325088501 0.16442574560642242 0.09592011570930481
-0.6712164282798767 0.08369563519954681 -0.1205478236079216
0.8924197554588318 -0.1012871190905571 0.19787085056304932
0.2641848921775818 -0.034800805151462555 -0.11188647896051407
0.5740398168563843 -0.07657970488071442 0.26619261503219604
0.44022586941719055 0.13795924186706543 -0.11188647896051407
0.1598907709121704 -0.06366486847400665 0.0924159362912178
0.10742954909801483 -0.15478023886680603 -0.11188647896051407
0.33435511589050293 0.13589954376220703 -0.11188647896051407
-0.17633220553398132 0.1543169617652893 0.023401735350489616
-0.3481440246105194 0.123686283826828 -0.011864876374602318
-0.14066869020462036 -0.12341035157442093 0.030722159892320633
-0.24609938263893127 0.09670127928256989 0.009081121534109116
-0.9965259432792664 0.11933659762144089 -0.07933074235916138
-0.7899177670478821 0.09593122452497482 -0.2700161039829254
0.4469863176345825 -0.1647629588842392 0.027482880279421806
-0.20178990066051483 -0.013734077103435993 0.018176212906837463
0.7282176613807678 -0.07015865296125412 -0.08786919713020325
-0.8795408606529236 -0.03591762110590935 0.04652492702007294
-0.17132771015167236 -0.02904191054403782 0.02442898228764534
0.7796290516853333 -0.1647629588842392 0.17297914624214172
-0.9862417578697205 -0.1647629588842392 -0.07075019925832748
-0.6763210296630859 0.029224731028079987 -0.15320971608161926
0.5033850073814392 -0.1647629588842392 -0.019770512357354164
0.3562008738517761 -0.1647629588842392 0.07283055037260056
-0.909889817237854 -0.1647629588842392 -0.20117968320846558
-0.1548164188861847 0.13928811252117157 0.027818147093057632
0.85649573802948 0.15262290835380554 0.1060614213347435
0.8852694630622864 -0.05784177407622337 0.25795039534568787
-0.876801609992981 0.16442574560642242 -0.15405941009521484
0.890148401260376 0.12267769128084183 0.18105563521385193
-0.7908628582954407 0.16442574560642242 -0.1911436915397644
0.6962308883666992 0.16442574560642242 0.2524292469024658
0.614983320236206 0.16442574560642242 0.3011845648288727
-0.27410680055618286 0.16442574560642242 -0.10645702481269836
0.7867699861526489 0.09705928713083267 0.3625885844230652
0.1917106956243515 0.029476657509803772 -0.11188647896051407
0.8683578372001648 -0.015238138847053051 0.2952539920806885
0.5636771321296692 0.1124744787812233 0.21037693321704865
0.05431824177503586 -0.1647629588842392 -0.05187508091330528
0.6059554219245911 0.11424817889928818 0.31924742460250854
0.5084959268569946 0.09859191626310349 -0.11188647896051407
0.8854487538337708 0.01099479477852583 0.25752249360084534
-0.998102068901062 0.16442574560642242 -0.11289149522781372
-0.28506940603256226 -0.1647629588842392 -0.0031985556706786156
0.36102917790412903 -0.1647629588842392 -0.0681128278374672
0.6928259134292603 0.16442574560642242 0.34369322657585144
-0.8414095640182495 -0.1647629588842392 -0.20638152956962585
-0.6057144999504089 0.03600042313337326 -0.11188647896051407
-0.9783115386962891 0.1069909930229187 -0.19335196912288666
-0.9084419012069702 0.16442574560642242 -0.05323923006653786
-0.12803766131401062 -0.0633292868733406 0.03331483528017998
-0.2954982817173004 0.16442574560642242 -0.02781570516526699
-0.8315366506576538 -0.0847744271159172 -0.2763946056365967
-0.5809054970741272 0.052503831684589386 -0.059642244130373
-0.9999046921730042 0.07865063846111298 -0.11552980542182922
0.690459668636322 0.16442574560642242 0.18089668452739716
-0.993162989616394 -0.09800663590431213 -0.06587032973766327
-0.7678205370903015 0.16442574560642242 -0.11302967369556427
0.6833087205886841 -0.1647629588842392 0.2931046783924103
-0.21303746104240417 0.10307786613702774 0.015867507085204124
0.2531042695045471 0.16442574560642242 0.04413091763854027
0.06744473427534103 -0.1647629588842392 -0.049850303679704666
-0.3386327624320984 0.16442574560642242 -0.022963780909776688
-0.6960653066635132 0.1116340234875679 -0.19937387108802795
-0.13196739554405212 -0.056508868932724 0.032508205622434616
0.04348091781139374 0.047631315886974335 -0.11188647896051407
-0.2754092514514923 -0.01933201774954796 -0.11188647896051407
-0.7104631662368774 -0.05544734373688698 -0.004825867246836424
-0.5454793572425842 0.1251993030309677 -0.05237056314945221
0.1268806904554367 0.16442574560642242 0.02964063175022602
-0.8938508033752441 -0.1647629588842392 -0.10806998610496521
0.831273078918457 -0.09945394843816757 0.08102964609861374
0.26069334149360657 0.16442574560642242 0.06631792336702347
-0.45802032947540283 -0.06758527457714081 -0.11188647896051407
0.21994149684906006 -0.1647629588842392 -0.044605325907468796
0.14481844007968903 -0.1647629588842392 -0.0173335038125515
0.7264190316200256 0.16442574560642242 0.12158132344484329
-0.40569251775741577 0.16442574560642242 -0.10477001219987869
-0.26014798879623413 -0.1173044741153717 -0.11188647896051407
-0.0980835109949112 0.15694983303546906 -0.11188647896051407
0.2899577021598816 -0.04067200794816017 0.11911387741565704
-0.018130123615264893 -0.15219075977802277 -0.11188647896051407
0.8428459167480469 -0.1647629588842392 0.14763131737709045
0.18854168057441711 -0.1647629588842392 0.03137820214033127
0.7282176613807678 -0.0006848182529211044 -0.014594966545701027
0.17726555466651917 -0.14571301639080048 -0.11188647896051407
-0.32334646582603455 -0.07902617007493973 -0.0067748683504760265
-0.876362681388855 0.03990858048200607 0.047378528863191605
0.7282176613807678 0.085089311003685 -0.023828750476241112
0.7713795304298401 0.16442574560642242 0.18677425384521484
-0.7824670672416687 -0.1647629588842392 -0.2158680558204651
-0.8790717124938965 0.16442574560642242 -0.04247768223285675
-0.99604731798172 -0.007611387874931097 -0.14769965410232544
0.7303584218025208 0.16442574560642242 0.1427237093448639
-0.7245191335678101 -0.1647629588842392 -0.05037393048405647
0.7924312353134155 0.13442055881023407 0.05755257606506348
0.25648531317710876 0.12236879020929337 0.11224325001239777
0.4955444037914276 0.16442574560642242 -0.0801878571510315
0.8634685277938843 -0.035345409065485 0.3026912212371826
-0.07665617018938065 -0.10200295597314835 0.043861567974090576
-0.8956710696220398 0.16442574560642242 -0.1860504001379013
-0.026066968217492104 0.16442574560642242 0.006323894951492548
-0.22077684104442596 -0.1647629588842392 -0.1005159318447113
0.36098235845565796 0.15692563354969025 0.13369262218475342
-0.6602060794830322 0.10093659907579422 -0.11188647896051407
-0.8195853233337402 0.028493842110037804 -0.2755652964115143
0.847483217716217 0.16442574560642242 0.3161300718784332
0.6172686219215393 0.16442574560642242 0.14520689845085144
0.5448520183563232 -0.1647629588842392 0.020625241100788116
0.5176642537117004 0.16442574560642242 0.07207126915454865
-0.09920419752597809 0.16442574560642242 0.0011681761825457215
0.6859594583511353 -0.1647629588842392 0.045154497027397156
-0.17269130051136017 -0.10135461390018463 0.024149086326360703
-0.1475706249475479 -0.1647629588842392 -0.016700053587555885
-0.8757136464118958 -0.09830721467733383 -0.271317720413208
0.7282176613807678 0.03699552267789841 -0.034590478986501694
0.8452776074409485 -0.07650302350521088 0.09341875463724136
-0.2353295534849167 -0.15572446584701538 -0.11188647896051407
-0.7729353904724121 -0.1647629588842392 -0.18728746473789215
-0.7288807034492493 0.16442574560642242 -0.1719616949558258
0.564126193523407 -0.0357370488345623 0.1986786276102066
0.8535966277122498 0.13361385464668274 0.10265989601612091
0.5829529762268066 -0.01995895430445671 0.28630661964416504
0.11523900926113129 0.1078738272190094 -0.11188647896051407
0.693371057510376 0.16442574560642242 -0.03782705217599869
-0.7308889627456665 0.16442574560642242 -0.08566437661647797
-0.1703711450099945 -0.13855360448360443 -0.11188647896051407
-0.7720822691917419 0.12258971482515335 -0.2636929750442505
0.014139176346361637 0.019736312329769135 -0.11188647896051407
0.3937644362449646 -0.1647629588842392 0.12005340307950974
-0.01799928955733776 -0.12499865889549255 -0.11188647896051407
-0.9693950414657593 -0.11559546738862991 -0.20709754526615143
-0.22194720804691315 -0.04227888584136963 0.014038676396012306
-0.22982032597064972 -0.10128182172775269 -0.11188647896051407
0.29042524099349976 0.10509954392910004 -0.11188647896051407
0.1637473851442337 0.16442574560642242 0.0167918112128973
-0.7790259718894958 0.16442574560642242 -0.06326934695243835
-0.8107753992080688 -0.03631332144141197 0.05067334324121475
-0.18329976499080658 0.051388829946517944 -0.11188647896051407
0.6350868344306946 -0.1647629588842392 -0.08181505650281906
0.6306354403495789 -0.1619938611984253 -0.11188647896051407
0.7282176613807678 -0.12901851534843445 -0.060225144028663635
0.8465725779533386 0.09134028106927872 0.09478803724050522
0.7282176613807678 -0.09078729897737503 0.01883099228143692
0.5716655254364014 -0.09204766154289246 0.25935885310173035
-0.9943282008171082 -0.09748736023902893 -0.06966134160757065
0.3965660631656647 -0.1647629588842392 0.006185928825289011
0.48179468512535095 0.16442574560642242 0.08399499952793121
0.34665098786354065 -0.1647629588842392 0.017643272876739502
0.37979382276535034 0.16442574560642242 0.0479787178337574
-0.28820696473121643 0.11415062099695206 0.000437983893789351
0.08210732042789459 -0.1647629588842392 -0.014137646183371544
0.4712366759777069 -0.09357117116451263 -0.11188647896051407
-0.04224878549575806 -0.11550750583410263 0.05092412233352661
-0.8273928165435791 -0.06683407723903656 0.052445802837610245
-0.2986590266227722 0.06668555736541748 -0.11188647896051407
-0.10719770193099976 0.009529818780720234 0.03759250417351723
0.09887361526489258 0.04051705077290535 0.07989134639501572
0.8724163174629211 0.039378099143505096 0.28808099031448364
0.10476545989513397 0.11837545782327652 0.08110075443983078
0.057305920869112015 0.0934830904006958 -0.11188647896051407
-0.1136125698685646 0.06855690479278564 -0.11188647896051407
0.8013795018196106 -0.1647629588842392 0.2747667133808136
0.8017848134040833 0.16442574560642242 0.1201677918434143
0.6620564460754395 -0.1647629588842392 0.2864687442779541
0.3678644001483917 0.16442574560642242 -0.04368221014738083
0.24896885454654694 0.01568726822733879 -0.11188647896051407
0.1342555731534958 -0.10846766829490662 -0.11188647896051407
-0.1820261925458908 -0.12624786794185638 -0.11188647896051407
0.7433952689170837 0.06414973735809326 0.37275853753089905
0.7282176613807678 0.09891758859157562 -0.03909948468208313
-0.8993767499923706 -0.1647629588842392 -0.1224907636642456
0.5881743431091309 -0.09595237672328949 -0.11188647896051407
-0.8871371150016785 -0.07025383412837982 -0.2679237127304077
0.4321831464767456 0.02815360017120838 0.14830751717090607
-0.5951956510543823 0.04693238064646721 -0.11188647896051407
0.3529239296913147 -0.018375426530838013 -0.11188647896051407
-0.937617838382721 -0.13004016876220703 -0.2408047318458557
-0.09182938188314438 -0.1647629588842392 -0.10046325623989105
0.4652246832847595 0.16442574560642242 0.053408194333314896
0.4100319445133209 -0.06055630370974541 -0.11188647896051407
-0.87599778175354 -0.1647629588842392 -0.010048583149909973
0.04786083474755287 -0.05857941135764122 0.06942033022642136
0.6425501108169556 -0.041899606585502625 -0.11188647896051407
-0.49476608633995056 -0.15666744112968445 -0.041961006820201874
0.7001268267631531 -0.1647629588842392 -0.048384711146354675
0.6511402726173401 -0.1647629588842392 0.11763844639062881
-0.5415015816688538 0.03146011382341385 -0.05155405402183533
0.2771308124065399 -0.04754040017724037 0.1164809912443161
-0.6528499126434326 -0.1076214611530304 -0.07440977543592453
0.1936325877904892 0.07266978174448013 0.09934189170598984
-0.8327856659889221 -0.08203831315040588 -0.2764427363872528
0.8671822547912598 -0.1270783543586731 0.12089840322732925
0.5622124671936035 0.16442574560642242 0.03825600445270538
-0.49684810638427734 -0.15648025274276733 -0.11188647896051407
0.3722131550312042 -0.1647629588842392 -0.020983660593628883
-0.448830783367157 -0.05858004093170166 -0.03253217041492462
0.5784114599227905 -0.0034686315339058638 -0.11188647896051407
-0.5668435096740723 0.02671010047197342 -0.056755851954221725
0.5672164559364319 -0.1647629588842392 0.23427285254001617
0.8926874995231628 -0.13709227740764618 0.2059457004070282
-0.9149658679962158 0.16442574560642242 -0.10931254178285599
0.7015361189842224 -0.02839341014623642 0.37141576409339905
-0.21033939719200134 -0.15892694890499115 -0.11188647896051407
-0.5422701239585876 -0.1647629588842392 -0.10579553246498108
0.8119789361953735 -0.1647629588842392 0.11917370557785034
-0.9674426317214966 -0.1647629588842392 -0.20940575003623962
-0.4839271008968353 -0.00710429809987545 -0.11188647896051407
-0.9872875213623047 -0.1647629588842392 -0.09963936358690262
0.8308426141738892 0.10652974247932434 0.33766451478004456
-0.716596245765686 -0.08678173273801804 0.0017084060236811638
0.6195272207260132 0.16442574560642242 0.1587868183851242
-0.5324187278747559 0.06051477789878845 -0.049689698964357376
0.4643239378929138 -0.1647629588842392 -0.025112425908446312
0.47579875588417053 0.07566271722316742 0.1572602093219757
0.07531282305717468 -0.04459938406944275 0.07505519688129425
-0.3652190566062927 0.037253450602293015 -0.015369786880910397
0.7607307434082031 0.05912991613149643 0.047857873141765594
0.5714054703712463 -0.1647629588842392 0.06995482742786407
0.848700225353241 0.16442574560642242 0.15907695889472961
-0.6845357418060303 0.11106190830469131 -0.17735624313354492
0.32279133796691895 -0.1647629588842392 -0.02398627996444702
-0.3870432376861572 -0.1647629588842392 -0.05102682486176491
-0.3762001097202301 0.09605585783720016 -0.11188647896051407
0.6815686225891113 -0.1647629588842392 -0.015360339544713497
-0.3723088204860687 0.08601068705320358 -0.016825031489133835
0.623327374458313 -0.1647629588842392 -0.0850171446800232
0.5211082696914673 0.09564247727394104 -0.11188647896051407
0.6219246983528137 0.16442574560642242 0.2976490557193756
0.5583426356315613 0.10879253596067429 -0.11188647896051407
0.8710736036300659 -0.024857087060809135 0.12753534317016602
0.7246477007865906 -0.1647629588842392 -0.0654287040233612
-0.9245416522026062 0.030653152614831924 0.026401950046420097
0.8297058939933777 0.06435831636190414 0.3386097848415375
0.6427797079086304 -0.1647629588842392 0.04220811277627945
0.8313679695129395 -0.16019566357135773 0.08110938966274261
0.5085245370864868 -0.1647629588842392 -0.04610705003142357
0.5759461522102356 -0.04901085048913956 0.2713806629180908
-0.6912158727645874 0.055200595408678055 -0.03300253674387932
-0.921552300453186 0.16442574560642242 -0.22968123853206635
0.7588154077529907 -0.06884203106164932 0.370765745639801
0.5705441832542419 -0.042718615382909775 0.2561812996864319
-0.811613142490387 -0.03844437748193741 -0.2745729684829712
-0.589393138885498 -0.006595971994102001 -0.06138444319367409
0.4010937511920929 0.0714905709028244 0.14192602038383484
-0.10991225391626358 0.012042565271258354 -0.11188647896051407
0.3942568898200989 -0.14019997417926788 -0.11188647896051407
-0.407673716545105 0.13588184118270874 -0.11188647896051407
-0.39470764994621277 0.019847840070724487 -0.11188647896051407
-0.706505298614502 -0.04245953634381294 -0.009621302597224712
-0.970971941947937 -0.09731695055961609 -0.2050902247428894
-0.7089594006538391 -0.1647629588842392 -0.0859338790178299
-0.9643206596374512 0.06259527802467346 -0.21387070417404175
