-0.7995805740356445 -0.09787682443857193 0.26072537899017334
-0.19785599410533905 -0.27137652039527893 -0.48357945680618286
0.48869964480400085 -0.16021126508712769 0.013482262380421162
0.09514869749546051 -0.022377919405698776 -0.5155854225158691
-0.3678118586540222 -0.09843938797712326 -0.031799137592315674
0.6568520665168762 -0.28751838207244873 0.209080770611763
0.35497674345970154 -0.02232120744884014 -0.12619855999946594
-0.8246688842773438 0.21423476934432983 0.209080770611763
0.3718852400779724 0.06691939383745193 -0.3528801500797272
0.48869964480400085 0.02145056053996086 0.17072255909442902
0.10032714158296585 -0.07323351502418518 -0.3884488046169281
-0.3678118586540222 0.22372010350227356 0.16731323301792145
-0.46706193685531616 -0.1423238217830658 0.3314395248889923
0.6425497531890869 0.048383355140686035 0.3007700741291046
0.36634087562561035 -0.10902787744998932 0.1305580586194992
0.4159044623374939 -0.281582772731781 0.3314395248889923
-0.8952857851982117 -0.3058706223964691 0.30045419931411743
0.3790164887905121 0.049968380481004715 -0.34425845742225647
-0.4901706576347351 -0.17837755382061005 0.09817753732204437
0.3926425278186798 -0.0019170682644471526 -0.3267897665500641
-0.3352408707141876 -0.01859961822628975 -0.186477929353714
0.9862390756607056 -0.22728702425956726 0.209080770611763
0.06208443641662598 -0.010606246069073677 -0.5210099220275879
0.785944938659668 0.27295970916748047 0.3314395248889923
0.6240758895874023 -0.3058706223964691 0.30742642283439636
-0.30040034651756287 -0.3058706223964691 -0.3395206928253174
0.6738587617874146 0.09053485840559006 0.209080770611763
-0.3212377727031708 -0.0016116698971018195 -0.2143659144639969
-0.11396832019090652 0.1901479959487915 -0.5116701126098633
-0.4901706576347351 -0.3020934462547302 0.041819822043180466
0.8680787086486816 0.2900961637496948 0.3314395248889923
-0.4900433123111725 0.08494435250759125 -0.0426369346678257
-0.5515313148498535 0.17110812664031982 0.3314395248889923
-0.4480452537536621 0.1812542825937271 -0.23417237401008606
0.8355450630187988 0.06361138075590134 0.2343895137310028
-0.34707656502723694 -0.18794436752796173 -0.15699556469917297
0.3421923518180847 -0.2308427393436432 -0.16637413203716278
0.36634087562561035 -0.24746182560920715 0.24383938312530518
0.4017102122306824 0.05520857870578766 -0.31406909227371216
0.3155336081981659 0.2063807249069214 -0.22173503041267395
-0.7891236543655396 -0.10298864543437958 0.24147945642471313
-0.3259984254837036 0.21570584177970886 -0.40127241611480713
0.7582123279571533 0.25024330615997314 0.3314395248889923
-0.06493832916021347 0.2867230474948883 -0.5208101868629456
-0.5952329039573669 0.04723667725920677 0.3314395248889923
-0.6032868027687073 0.04860757663846016 0.3314395248889923
-0.3678118586540222 0.13852760195732117 -0.006589462514966726
0.36634087562561035 0.13157373666763306 0.18001432716846466
-0.8566465377807617 0.05204511806368828 0.3314395248889923
0.4811452627182007 0.2866393029689789 -0.12061168253421783
0.4418923258781433 -0.1643124669790268 -0.24434426426887512
-0.14502158761024475 0.28106871247291565 -0.3731076121330261
-0.4901706576347351 0.07571933418512344 0.13219036161899567
0.43867430090904236 -0.15194956958293915 -0.2511569559574127
-0.12734027206897736 0.035130392760038376 -0.5083236694335938
0.26277250051498413 -0.051178012043237686 -0.4479915201663971
-0.35569873452186584 0.30153656005859375 -0.12871015071868896
-0.8698014616966248 -0.3058706223964691 0.2885535955429077
-0.3678118586540222 0.044205933809280396 0.06943219155073166
-0.1312001794576645 0.2691507935523987 -0.5072847604751587
0.03186434134840965 0.06931621581315994 -0.5239549279212952
0.4535020887851715 -0.11864091455936432 0.3314395248889923
0.31829261779785156 0.21369172632694244 -0.21690158545970917
0.10837239027023315 0.16783837974071503 -0.38596394658088684
0.8843612670898438 -0.24372287094593048 0.3314395248889923
0.07097293436527252 -0.2915962338447571 -0.39556583762168884
-0.29515960812568665 0.17287084460258484 -0.4265734851360321
-0.8643909096717834 -0.031683359295129776 0.3314395248889923
-0.3678118586540222 -0.13449132442474365 0.01932106725871563
0.5264572501182556 -0.293211966753006 0.3314395248889923
0.3820514380931854 0.3009338080883026 -0.34051069617271423
-0.31874942779541016 -0.3058706223964691 -0.3202938139438629
0.22955335676670074 -0.20853093266487122 -0.3214825689792633
0.48448362946510315 -0.05626824498176575 -0.0993148684501648
0.42745646834373474 0.15213005244731903 -0.2725936770439148
-0.4587433934211731 0.24124716222286224 -0.20813871920108795
0.44421201944351196 -0.18527881801128387 0.3314395248889923
0.4169200658798218 0.20636513829231262 -0.29079777002334595
0.26070278882980347 -0.27590683102607727 -0.44929030537605286
0.18785449862480164 0.15486666560173035 -0.350419282913208
-0.3678118586540222 0.2457938939332962 -0.012862086296081543
-0.8116080164909363 0.09009310603141785 0.32086387276649475
0.6372750997543335 -0.22869780659675598 0.209080770611763
0.10856989771127701 0.10273563861846924 -0.3860185742378235
0.4254346787929535 -0.19759805500507355 -0.2762644588947296
-0.7650333046913147 -0.12426955252885818 0.3314395248889923
-0.11552987992763519 0.10567273944616318 -0.38427990674972534
0.15607012808322906 -0.15461061894893646 -0.4992286264896393
0.8365768194198608 0.30043163895606995 0.209080770611763
-0.5830942392349243 0.2644495666027069 0.209080770611763
-0.3678118586540222 -0.2842889428138733 0.08471546322107315
0.48869964480400085 -0.0062261540442705154 0.11839576810598373
0.387764573097229 -0.18297939002513885 -0.33325517177581787
-0.2137451469898224 0.02691636048257351 -0.33449098467826843
-0.03709260746836662 0.1549418568611145 -0.5236596465110779
-0.27350786328315735 -0.21207082271575928 -0.4419638216495514
0.5328770875930786 -0.20860667526721954 0.3314395248889923
-0.5542159080505371 -0.3058706223964691 0.3038480877876282
-0.3265680968761444 -0.05610724911093712 -0.40077444911003113
0.3159426748752594 -0.23670339584350586 -0.40880489349365234
-0.5747978687286377 0.08500120043754578 0.3314395248889923
0.31283968687057495 0.10191429406404495 -0.22626808285713196
0.16725149750709534 0.06550880521535873 -0.36197078227996826
-0.21760569512844086 -0.13420939445495605 -0.4743329882621765
-0.20232166349887848 0.14803701639175415 -0.3423410654067993
-0.6120532155036926 0.05196835845708847 0.209080770611763
0.6759420037269592 0.08915755897760391 0.24514758586883545
0.4591854214668274 0.2692183554172516 -0.20300370454788208
-0.4901706576347351 -0.03839119151234627 0.1261005848646164
0.6315059661865234 0.0009340679971501231 0.28256118297576904
0.8202378153800964 -0.1862637996673584 0.209080770611763
-0.8493279218673706 -0.13128288090229034 0.3314395248889923
-0.3678118586540222 -0.11805824190378189 -0.028765935450792313
-0.19150663912296295 -0.19728778302669525 -0.3492066562175751
-0.6863875985145569 0.28395166993141174 0.3314395248889923
0.3087913691997528 -0.049440257251262665 -0.4146456718444824
0.3682611584663391 0.05223388597369194 -0.3569740355014801
0.4528616964817047 -0.1647769659757614 -0.21923890709877014
-0.24691572785377502 0.16683675348758698 -0.45854395627975464
0.48869964480400085 -0.09781630337238312 0.1108795627951622
0.35477253794670105 -0.3058706223964691 -0.1764133870601654
0.48869964480400085 -0.1067223846912384 0.20560337603092194
0.6833528876304626 0.09447070956230164 0.2530435621738434
-0.3678118586540222 -0.27297136187553406 0.3275606334209442
-0.33565065264701843 0.30592331290245056 -0.2333860993385315
-0.4901706576347351 0.09591887146234512 0.14198049902915955
-0.8586984276771545 0.11536306142807007 0.3314395248889923
0.48869964480400085 0.17196686565876007 0.05441737174987793
-0.7960888147354126 -0.0995405986905098 0.26718294620513916
0.48869964480400085 -0.012801174074411392 -0.017894014716148376
-0.1546153724193573 -0.18803200125694275 -0.368848979473114
-0.5793709754943848 -0.005752780009061098 0.209080770611763
-0.3574122190475464 -0.2828217148780823 -0.12212350219488144
0.36634087562561035 -0.11529380083084106 0.28153195977211
-0.6114857792854309 -0.2502291798591614 0.3314395248889923
0.3894834518432617 0.28306904435157776 -0.33102524280548096
-0.28702473640441895 0.272228866815567 -0.2653588056564331
0.8415172100067139 0.05401337519288063 0.2520015239715576
-0.8610151410102844 -0.3058706223964691 0.2672445774078369
0.8254551887512207 -0.2999989688396454 0.209080770611763
-0.15721607208251953 0.14019076526165009 -0.49926483631134033
0.8167144656181335 0.132778599858284 0.209080770611763
0.9985278844833374 -0.1478995680809021 0.2972884774208069
0.48869964480400085 0.2560456097126007 0.18458841741085052
-0.6780738234519958 -0.235477477312088 0.3314395248889923
0.6210888624191284 0.14954304695129395 0.209080770611763
-0.3802892565727234 0.30592331290245056 0.055701639503240585
0.6454859972000122 0.26486635208129883 0.3314395248889923
-0.973563551902771 -0.1052226796746254 0.3314395248889923
0.32084140181541443 -0.05451780930161476 -0.2126052975654602
0.6140738129615784 -0.3058706223964691 0.2356831431388855
-0.4608868360519409 0.09331879764795303 -0.20232664048671722
-0.9999989867210388 -0.08617211133241653 0.3308815062046051
0.30117231607437134 0.012019931338727474 -0.24428775906562805
-0.3678118586540222 0.021161673590540886 0.23148581385612488
-0.4901706576347351 -0.14324788749217987 -0.02198013663291931
-0.4901706576347351 -0.05531418323516846 0.1608353555202484
0.3808198869228363 0.30592331290245056 -0.011298036202788353
-0.11977439373731613 -0.2988823652267456 -0.38275274634361267
-0.059606123715639114 0.30592331290245056 -0.45004910230636597
0.39295992255210876 0.19796915352344513 -0.3262830376625061
-0.8238157629966736 0.22386012971401215 0.3314395248889923
0.8955081105232239 -0.3058706223964691 0.3166406452655792
-0.45839834213256836 -0.3058706223964691 0.25463882088661194
-0.4901706576347351 -0.20792609453201294 0.03462306782603264
0.48869964480400085 -0.2831237316131592 0.07016395777463913
-0.6352099180221558 -0.3058706223964691 0.22571305930614471
-0.015278512611985207 0.12890255451202393 -0.40236902236938477
-0.8078389167785645 0.30592331290245056 0.275523841381073
0.5198429226875305 -0.2181480973958969 0.3314395248889923
0.9078483581542969 0.21727846562862396 0.3314395248889923
-0.7145371437072754 -0.10771981626749039 0.316985160112381
0.48869964480400085 -0.22366218268871307 0.1882011443376541
-0.20944750308990479 -0.027628133073449135 -0.4782983362674713
-0.31638163328170776 -0.058297958225011826 -0.40962982177734375
-0.12165824323892593 0.049338698387145996 -0.3822025954723358
-0.21149571239948273 0.12063398957252502 -0.477241188287735
0.36634087562561035 0.05515655502676964 0.1733594834804535
0.6024061441421509 -0.3058706223964691 0.233699768781662
-0.08384488523006439 -0.1562013477087021 -0.5178998708724976
0.48869964480400085 -0.29536348581314087 0.10826746374368668
-0.849903404712677 0.08856358379125595 0.209080770611763
-0.29268479347229004 0.06995758414268494 -0.2580731213092804
0.920348048210144 0.30592331290245056 0.25471314787864685
0.6541423797607422 -0.11229559779167175 0.209080770611763
0.4555778205394745 0.30592331290245056 0.15685802698135376
-0.2280990332365036 -0.11972002685070038 -0.46893811225891113
-0.19941741228103638 -0.1455259621143341 -0.48281294107437134
0.2623376250267029 0.10652465373277664 -0.2915494441986084
-0.2755196988582611 0.02570091187953949 -0.2788354754447937
-0.17961640655994415 -0.0007830705726519227 -0.35614025592803955
0.5733746290206909 0.2399604171514511 0.209080770611763
-0.5496948957443237 0.28410691022872925 0.3314395248889923
-0.3678118586540222 0.014256770722568035 0.1992568075656891
0.2460733950138092 0.07057322561740875 -0.30723145604133606
0.36634087562561035 -0.11084591597318649 0.20686742663383484
-0.25130197405815125 -0.27809569239616394 -0.4560125172138214
0.3661857843399048 0.08502548933029175 -0.04059136286377907
0.48869964480400085 0.23441830277442932 0.04000980779528618
-0.3560115396976471 -0.2879735827445984 -0.12772421538829803
0.36634087562561035 0.07768889516592026 0.23720049858093262
0.836968183517456 -0.2142753303050995 0.209080770611763
-0.9999989867210388 0.17491258680820465 0.2706076502799988
-0.12595787644386292 -0.0809793472290039 -0.5087108016014099
0.3206542432308197 -0.12708809971809387 -0.2127665877342224
0.23834674060344696 0.09341522306203842 -0.31407442688941956
0.9606637954711914 -0.15264637768268585 0.3314395248889923
0.9243005514144897 0.004709353670477867 0.209080770611763
0.5268310308456421 0.2104305475950241 0.209080770611763
-0.005724357441067696 -0.3058706223964691 -0.5131674408912659
-0.18500523269176483 -0.16605542600154877 -0.4889860451221466
0.7530477643013 -0.18338581919670105 0.3314395248889923
0.36634087562561035 -0.22403275966644287 0.03733083978295326
-0.442460834980011 -0.3058706223964691 -0.16507716476917267
0.2682163119316101 -0.3058706223964691 -0.41724681854248047
0.5234156250953674 0.28267166018486023 0.209080770611763
0.8112635016441345 0.2156890630722046 0.3314395248889923
0.3571604788303375 -0.11219318211078644 -0.116820327937603
-0.4654562473297119 -0.06290112435817719 -0.18913254141807556
-0.4901706576347351 0.1446574628353119 -0.02723047137260437
0.6868058443069458 -0.0965423509478569 0.24897080659866333
0.062367409467697144 0.08645129203796387 -0.5209376215934753
0.3335709869861603 0.30592331290245056 -0.3147309422492981
0.11593553423881531 0.28354373574256897 -0.3835924565792084
0.5419555902481079 0.23000116646289825 0.209080770611763
0.19243234395980835 -0.06145719438791275 -0.4852682650089264
-0.4519568979740143 -0.1607252061367035 0.3314395248889923
0.09541352838277817 0.02696828730404377 -0.5155190825462341
0.007354713976383209 0.2819008529186249 -0.40252816677093506
0.3625371754169464 0.29355889558792114 -0.08771265298128128
0.3805766999721527 -0.3058706223964691 0.03655365854501724
0.6134973764419556 0.15047535300254822 0.3314395248889923
0.6393949389457703 -0.3058706223964691 0.26922839879989624
-0.5778425931930542 -0.03807460889220238 0.3314395248889923
0.7118415832519531 0.27883630990982056 0.209080770611763
0.47073084115982056 0.03858359530568123 -0.16698266565799713
-0.22650587558746338 -0.019402312114834785 -0.4698272943496704
-0.29513484239578247 0.08648962527513504 -0.4265834391117096
-0.43894097208976746 0.2606339752674103 -0.25348934531211853
-0.4313713610172272 -0.3058706223964691 0.162254199385643
0.4128214716911316 0.30592331290245056 -0.10864923894405365
0.9985278844833374 -0.03061521239578724 0.24455663561820984
0.06079068034887314 0.2781822681427002 -0.5211317539215088
-0.4901706576347351 -0.01006326638162136 0.05225256085395813
-0.8233435750007629 0.14155517518520355 0.3314395248889923
0.699957013130188 -0.164249986410141 0.3314395248889923
-0.8863414525985718 0.27253803610801697 0.209080770611763
-0.3614540696144104 -0.08862964808940887 -0.10306908190250397
-0.5279854536056519 0.038066208362579346 0.209080770611763
-0.6329266428947449 0.2768439054489136 0.3314395248889923
-0.430171400308609 0.18470172584056854 0.3314395248889923
-0.07446573674678802 -0.2153703272342682 -0.39517128467559814
0.09870727360248566 -0.1275831013917923 -0.388921856880188
0.47828441858291626 -0.18342941999435425 -0.1357678472995758
0.21577760577201843 -0.12731385231018066 -0.3319312632083893
-0.40845614671707153 0.13370268046855927 -0.3062290549278259
-0.06594288349151611 -0.24188250303268433 -0.5206801891326904
0.4056321382522583 -0.3058706223964691 -0.2696071267127991
0.9985278844833374 0.28892725706100464 0.2347436398267746
0.7144736051559448 0.11196357756853104 0.209080770611763
0.9721038341522217 -0.1265619397163391 0.209080770611763
0.37227436900138855 -0.09932281076908112 -0.35240063071250916
-0.0753457322716713 -0.2988493740558624 -0.3949379622936249
0.6970187425613403 -0.2628794312477112 0.209080770611763
-0.3553813695907593 -0.26150473952293396 -0.37280914187431335
0.38265371322631836 0.3046189546585083 -0.3397170603275299
-0.3087008595466614 0.30592331290245056 -0.3260638117790222
0.36634087562561035 -0.09923778474330902 0.09235763549804688
-0.3678118586540222 -0.030883096158504486 0.00920898001641035
0.9985278844833374 0.1800430715084076 0.30090734362602234
0.29565954208374023 0.30592331290245056 -0.2685118317604065
0.34997475147247314 0.26845046877861023 -0.1438155323266983
0.44694679975509644 0.19550400972366333 -0.2333938628435135
0.9985278844833374 -0.21409890055656433 0.27323952317237854
-0.7582069635391235 0.11134801805019379 0.3135976195335388
-0.4822218418121338 0.2545338571071625 -0.12329886853694916
0.36634087562561035 -0.07422192394733429 0.1765623688697815
-0.05990505591034889 0.1108076423406601 -0.3978945314884186
0.7374027371406555 0.11179783940315247 0.27899545431137085
0.15080104768276215 0.30592331290245056 -0.47320717573165894
0.30740121006965637 0.2583889961242676 -0.41574716567993164
0.3207617700099945 0.22093439102172852 -0.40457576513290405
-0.46540695428848267 0.30592331290245056 -0.08147650212049484
-0.2692915201187134 -0.08503344655036926 -0.28571557998657227
-0.8225986361503601 -0.24548481404781342 0.209080770611763
0.48869964480400085 0.09676925837993622 0.05799155309796333
0.8636965155601501 -0.29845237731933594 0.209080770611763
-0.28553879261016846 0.30592331290245056 -0.4154108762741089
0.0923653095960617 -0.07717730104923248 -0.5161018371582031
0.36634087562561035 0.21874359250068665 0.01060605701059103
0.32790228724479675 0.08297261595726013 -0.19903509318828583
0.9985278844833374 0.2877010405063629 0.25616246461868286
0.45622846484184265 -0.3058706223964691 -0.169452965259552
0.030282529070973396 -0.06879877299070358 -0.4012455344200134
0.1633218377828598 -0.3058706223964691 -0.4054102301597595
0.36634087562561035 -0.04943811893463135 0.20292119681835175
-0.3678118586540222 -0.238259419798851 0.24454520642757416
0.3826112449169159 -0.2843894362449646 -0.33983588218688965
-0.4523257911205292 0.23620150983333588 0.3314395248889923
-0.9999989867210388 -0.23591414093971252 0.24056917428970337
-0.6397872567176819 -0.04283394664525986 0.209080770611763
-0.4901706576347351 0.16549928486347198 0.11068519204854965
-0.1485464870929718 -0.23472432792186737 -0.5022044777870178
0.1607440561056137 -0.18704158067703247 -0.4976504445075989
-0.9999989867210388 0.24322885274887085 0.30232056975364685
0.19562390446662903 0.08992841839790344 -0.3456733822822571
0.8846957683563232 -0.24230049550533295 0.209080770611763
0.05939392372965813 0.15820394456386566 -0.5213308334350586
0.35337913036346436 0.10034793615341187 -0.13220207393169403
0.5429847836494446 0.028152598068118095 0.209080770611763
0.36684924364089966 0.30592331290245056 0.041422080248594284
-0.06037804111838341 -0.18025046586990356 -0.5213602781295776
0.36634087562561035 0.021101268008351326 0.007960494607686996
0.4313671588897705 -0.25151440501213074 -0.2653554379940033
-0.4494900703430176 0.0469503179192543 -0.23082944750785828
0.36634087562561035 0.07476017624139786 -0.026180140674114227
-0.3678118586540222 -0.20665638148784637 0.06450488418340683
0.12242600321769714 -0.3058706223964691 -0.4962814450263977
-0.3273123502731323 -0.29816389083862305 -0.20306915044784546
-0.3678118586540222 0.015623546205461025 0.2186381071805954
0.3383062481880188 0.2120140641927719 -0.1762639880180359
-0.9999989867210388 0.03417154774069786 0.325016587972641
-0.9999989867210388 -0.24754996597766876 0.2555712163448334
-0.3877388834953308 0.18705631792545319 0.3314395248889923
0.29950979351997375 -0.15442407131195068 -0.42212387919425964
-0.7749502062797546 0.28059688210487366 0.209080770611763
-0.7862957715988159 -0.17965729534626007 0.209080770611763
0.8532883524894714 -0.04516993463039398 0.209080770611763
-0.31528332829475403 -0.2627791464328766 -0.2247600257396698
-0.3093792200088501 0.14098189771175385 -0.2342299222946167
0.6183249354362488 -0.3058706223964691 0.28332626819610596
-0.5871797800064087 0.062478020787239075 0.209080770611763
0.691110372543335 0.2509084939956665 0.3314395248889923
0.5459820628166199 -0.2354923039674759 0.3314395248889923
-0.36979010701179504 -0.03753320500254631 -0.3570115864276886
0.36634087562561035 -0.1749643087387085 0.1565660983324051
0.48325932025909424 0.22256052494049072 0.3314395248889923
-0.8230423927307129 -0.08036065846681595 0.32106640934944153
-0.46222159266471863 -0.3058706223964691 0.3018147051334381
-0.5172521471977234 -0.2289324253797531 0.3314395248889923
0.4776065945625305 0.12705473601818085 -0.1389022171497345
0.48869964480400085 -0.043530937284231186 -0.01554605457931757
0.596655547618866 0.21710073947906494 0.3314395248889923
-0.3658665120601654 -0.24226579070091248 -0.361422598361969
0.4465174078941345 0.06193607300519943 -0.2343604564666748
-0.9999989867210388 -0.26054853200912476 0.2379506528377533
0.36634087562561035 -0.297501802444458 0.15503805875778198
0.20014968514442444 -0.25587889552116394 -0.48189178109169006
-0.559856116771698 0.2258334904909134 0.209080770611763
0.43276849389076233 0.13654272258281708 0.3314395248889923
-0.6327771544456482 0.09355058521032333 0.3314395248889923
0.48869964480400085 0.20129947364330292 0.09460941702127457
0.36634087562561035 0.17261187732219696 -0.032583605498075485
0.6954351663589478 0.26965051889419556 0.3314395248889923
0.4523666799068451 -0.3058706223964691 0.217027485370636
0.1177050918340683 -0.3058706223964691 -0.4002523124217987
-0.9601050019264221 0.30592331290245056 0.26911255717277527
-0.221251979470253 0.24404479563236237 -0.4725273549556732
-0.3765678405761719 -0.06439308822154999 0.3314395248889923
0.3559456467628479 0.04451671987771988 -0.12232514470815659
-0.47818273305892944 -0.1546860784292221 -0.14322715997695923
0.48869964480400085 -0.04155668988823891 -0.016662662848830223
0.4369763731956482 0.01713583432137966 -0.2544662654399872
0.47795793414115906 -0.1442909836769104 -0.1371864676475525
0.9376498460769653 0.04361904039978981 0.209080770611763
0.4475902318954468 0.17845942080020905 -0.2319268435239792
0.6205177903175354 -0.24212996661663055 0.209080770611763
-0.8951258659362793 -0.24620957672595978 0.3314395248889923
-0.2729918658733368 0.2545872628688812 -0.4422242343425751
-0.23007231950759888 -0.2227632850408554 -0.32219409942626953
0.48629435896873474 0.044123608618974686 -0.08364123106002808
0.26917991042137146 -0.10775517672300339 -0.44389936327934265
-0.4901706576347351 -0.1953975409269333 0.12771938741207123
-0.36497318744659424 0.04787413775920868 -0.36242854595184326
-0.9055180549621582 -0.3058706223964691 0.2539747357368469
-0.48978951573371887 -0.009707399643957615 -0.052107878029346466
0.8354740738868713 0.2642388343811035 0.3314395248889923
0.9985278844833374 -0.11085719615221024 0.21619491279125214
0.36634087562561035 -0.0908086895942688 -0.03302890807390213
0.6188293099403381 0.23523235321044922 0.209080770611763
0.8465690016746521 -0.04376614838838577 0.31827908754348755
-0.7710249423980713 -0.2956875264644623 0.209080770611763
-0.17385056614875793 0.159651517868042 -0.4933479130268097
-0.04754367098212242 -0.3058706223964691 -0.4564439356327057
-0.4235687553882599 -0.3058706223964691 0.07659301161766052
-0.9999989867210388 0.2515534460544586 0.21455951035022736
-0.9525212645530701 0.2719196379184723 0.3314395248889923
0.36634087562561035 -0.13728287816047668 0.16358372569084167
0.4681403934955597 0.02638942562043667 0.3314395248889923
-0.3678118586540222 0.28472715616226196 0.13970527052879333
-0.4787521958351135 0.27708700299263 -0.140537828207016
0.7235903739929199 -0.3058706223964691 0.22289693355560303
0.36634087562561035 -0.005006583407521248 0.28851518034935
0.8980535268783569 -0.13423830270767212 0.209080770611763
0.12083672732114792 -0.3058706223964691 -0.428403377532959
-0.4901706576347351 -0.1513293981552124 0.06103050336241722
0.9867955446243286 -0.039185620844364166 0.3314395248889923
-0.9999989867210388 0.2884972393512726 0.30499982833862305
0.9861202239990234 0.014017594046890736 0.209080770611763
-0.6900918483734131 0.29912084341049194 0.209080770611763
0.645142138004303 0.30592331290245056 0.3201429843902588
-0.3678118586540222 0.09105297923088074 -0.026477156206965446
0.1258644163608551 -0.3058706223964691 -0.39021381735801697
-0.008248805068433285 -0.2761872708797455 -0.4025926887989044
-0.9305548667907715 -0.2648968994617462 0.209080770611763
-0.9769290685653687 -0.12118982523679733 0.209080770611763
0.48869964480400085 0.3024437129497528 0.10262491554021835
-0.2326001077890396 0.1503031998872757 -0.320122629404068
0.5621855854988098 0.21379844844341278 0.209080770611763
-0.46783700585365295 0.001270486507564783 -0.18149468302726746
0.36634087562561035 0.07284380495548248 0.045989736914634705
-0.4901706576347351 -0.10310688614845276 0.06493227183818817
-0.4724158048629761 -0.13123613595962524 -0.1661646068096161
0.49980592727661133 0.2060408592224121 0.3314395248889923
-0.47822198271751404 0.12209845334291458 -0.14283309876918793
-0.4901197850704193 0.30592331290245056 0.11548052728176117
0.5051538348197937 0.24459217488765717 0.3314395248889923
-0.4873768389225006 -0.08974112570285797 -0.08763045072555542
-0.3678118586540222 0.04993142932653427 0.06996485590934753
0.9629259705543518 -0.11997060477733612 0.209080770611763
-0.6350221037864685 -0.12691842019557953 0.3314395248889923
0.9985278844833374 0.018308650702238083 0.28077834844589233
0.03332730382680893 0.026318106800317764 -0.40106403827667236
0.6365413069725037 0.03307073190808296 0.2577235996723175
0.36634087562561035 0.12287739664316177 -0.012026281096041203
0.36634087562561035 -0.00022258699755184352 0.167007714509964
0.23839198052883148 0.066780224442482 -0.314111590385437
-0.4901706576347351 0.30393481254577637 0.01644895039498806
-0.8995799422264099 0.30592331290245056 0.3267432451248169
0.22154010832309723 0.10811588168144226 -0.3276572823524475
-0.48889273405075073 0.08664175122976303 -0.07062232494354248
-0.5444161295890808 -0.04070590063929558 0.209080770611763
-0.3678118586540222 -0.2068389654159546 -0.016002828255295753
0.5341804623603821 -0.3058706223964691 0.28782472014427185
-0.9999989867210388 -0.18839755654335022 0.2419729232788086
-0.13134177029132843 -0.03510701656341553 -0.507269561290741
-0.3088974058628082 -0.23147429525852203 -0.23503516614437103
-0.6338415145874023 0.01350798737257719 0.2588804066181183
0.36634087562561035 -0.03751438111066818 0.07712692767381668
-0.4478132724761963 0.2575293481349945 -0.2346009463071823
-0.3678118586540222 -0.2816033959388733 0.1488305628299713
-0.16498057544231415 0.30592331290245056 -0.48580050468444824
-0.44763606786727905 0.30592331290245056 0.07886197417974472
-0.3439740240573883 0.26175734400749207 -0.3843832314014435
-0.2346811145544052 -0.10658278316259384 -0.3183615803718567
0.45675474405288696 0.1446230411529541 0.3314395248889923
-0.44366931915283203 0.27273187041282654 0.3314395248889923
0.9985278844833374 0.16955780982971191 0.2247994840145111
-0.38429784774780273 -0.08464673161506653 -0.3394503593444824
0.5200196504592896 0.30592331290245056 0.3024556636810303
-0.8695753812789917 -0.17695894837379456 0.3314395248889923
0.36634087562561035 -0.28167524933815 0.2592222988605499
-0.24002592265605927 -0.3028319478034973 -0.31386709213256836
-0.3801741302013397 0.30592331290245056 -0.11167725920677185
0.13024047017097473 0.029214266687631607 -0.3784742057323456
0.9544904828071594 -0.23816654086112976 0.3314395248889923
0.2483566850423813 0.10974577814340591 -0.45693036913871765
-0.491168349981308 0.2468789517879486 0.3314395248889923
0.7354742884635925 -0.19083288311958313 0.209080770611763
-0.9976917505264282 -0.10703293979167938 0.209080770611763
-0.3678118586540222 -0.030268525704741478 0.058823321014642715
-0.011751010082662106 0.2715204358100891 -0.40247538685798645
-0.2379031479358673 -0.22384577989578247 -0.31574827432632446
-0.20245961844921112 -0.15659354627132416 -0.4815075397491455
-0.11410048604011536 0.25756722688674927 -0.384662002325058
-0.41977930068969727 -0.2516273558139801 -0.28838127851486206
-0.03725384548306465 0.26218000054359436 -0.5236671566963196
0.48869964480400085 0.27572745084762573 0.006876115221530199
0.004238157067447901 0.17131340503692627 -0.4026549160480499
0.48869964480400085 -0.1576365977525711 -0.01398759987205267
-0.4388422667980194 0.30005547404289246 -0.25377124547958374
-0.680527925491333 0.30592331290245056 0.28504419326782227
-0.4820019602775574 0.1103476881980896 -0.12432980537414551
0.48869964480400085 0.254107803106308 -0.026300350204110146
-0.5157729387283325 0.12324802577495575 0.209080770611763
0.2735236883163452 -0.0887003242969513 -0.27952679991722107
-0.355074942111969 0.03397757187485695 -0.1312742680311203
-0.9999989867210388 -0.010988893918693066 0.31766700744628906
0.44537460803985596 -0.11605287343263626 -0.2368869036436081
-0.326144278049469 -0.3058706223964691 -0.26920419931411743
-0.36608752608299255 -0.17083124816417694 -0.07006372511386871
0.8962888121604919 0.30592331290245056 0.31654125452041626
-0.36972931027412415 -0.3058706223964691 0.3247789144515991
-0.6284179091453552 -0.265886127948761 0.3314395248889923
0.34710493683815 -0.3058706223964691 -0.3184303641319275
-0.33968621492385864 -0.09932040423154831 -0.3886587917804718
0.5358554124832153 0.0407835990190506 0.3314395248889923
-0.9755976796150208 -0.20886124670505524 0.3314395248889923
-0.11123846471309662 0.18860484659671783 -0.5123448967933655
0.8252568244934082 -0.0762663409113884 0.23533941805362701
-0.448555588722229 0.30592331290245056 0.04269379749894142
0.14180737733840942 0.1122693419456482 -0.5038129687309265
-0.4401263892650604 0.30592331290245056 0.20998744666576385
0.40225374698638916 0.30592331290245056 -0.22297365963459015
-0.4938969612121582 -0.2415449172258377 0.209080770611763
0.5557557940483093 -0.14021021127700806 0.209080770611763
-0.9282162189483643 -0.19956021010875702 0.3314395248889923
-0.6468528509140015 0.05312627553939819 0.21074238419532776
-0.4901706576347351 -0.0025972372386604548 0.10643453150987625
0.8503987193107605 0.12756100296974182 0.209080770611763
-0.9999989867210388 -0.17496909201145172 0.31363627314567566
0.09418002516031265 -0.0062166438437998295 -0.5157681703567505
-0.681097149848938 -0.09175823628902435 0.30359283089637756
0.311477929353714 0.30592331290245056 -0.28401637077331543
-0.9999989867210388 0.08333056420087814 0.293846994638443
0.9985278844833374 -0.2866043448448181 0.30157220363616943
-0.4666433036327362 -0.3058706223964691 0.1877608448266983
0.48869964480400085 0.10459679365158081 0.0742187574505806
0.45034611225128174 0.30592331290245056 -0.10392827540636063
-0.8471462726593018 -0.046417977660894394 0.25103336572647095
0.5529764294624329 -0.0764307975769043 0.209080770611763
-0.364509254693985 -0.3058706223964691 -0.1534213274717331
0.8876231908798218 -0.10552973300218582 0.209080770611763
-0.4359591603279114 -0.3058706223964691 0.27467846870422363
-0.3678118586540222 0.17868253588676453 0.18872833251953125
0.25797510147094727 -0.13339754939079285 -0.2960290312767029
0.44492051005363464 -0.00914714951068163 -0.23787841200828552
-0.2948529124259949 0.1314011663198471 -0.25523820519447327
-0.6498762369155884 0.10809841752052307 0.3314395248889923
-0.9372212290763855 -0.059049833565950394 0.209080770611763
0.5985205769538879 0.071018747985363 0.3314395248889923
-0.4853747487068176 0.23867927491664886 -0.1034402847290039
0.7613815665245056 -0.2303582727909088 0.3314395248889923
0.16949567198753357 0.028991330415010452 -0.494413286447525
0.4021701216697693 -0.3058706223964691 0.130731463432312
0.56336909532547 -0.02408607304096222 0.209080770611763
0.36634087562561035 0.17928427457809448 0.07032869011163712
-0.9999989867210388 0.24467772245407104 0.31578266620635986
0.8191851377487183 -0.08260317146778107 0.2921302318572998
0.36634087562561035 -0.16556645929813385 0.021995674818754196
-0.0948917344212532 0.22564537823200226 -0.5158505439758301
-0.28790754079818726 -0.2450283169746399 -0.2641461491584778
0.14595100283622742 0.2661774754524231 -0.5025148391723633
-0.3678118586540222 0.1343146115541458 0.16992051899433136
0.6142604947090149 0.016250522807240486 0.209080770611763
0.1604233682155609 -0.249116450548172 -0.365349143743515
0.30693116784095764 -0.1236172541975975 -0.4162205755710602
0.33164992928504944 0.30592331290245056 -0.2528659999370575
-0.21508479118347168 0.24783633649349213 -0.3335737884044647
0.4805000424385071 0.30592331290245056 0.3116288185119629
-0.9999989867210388 0.3055126368999481 0.24246101081371307
0.36634087562561035 -0.07772909104824066 0.050594281405210495
0.6564974188804626 0.16255587339401245 0.209080770611763
0.634777307510376 -0.026696203276515007 0.2551099956035614
-0.9002025127410889 0.28014880418777466 0.209080770611763
0.36634087562561035 0.0538211464881897 0.18320998549461365
-0.6265177726745605 0.30592331290245056 0.28884047269821167
0.3716508150100708 -0.1748380959033966 -0.3531060218811035
0.43952444195747375 -0.020254328846931458 -0.24937328696250916
-0.5116270184516907 0.0754985511302948 0.3314395248889923
-0.48832589387893677 -0.3058706223964691 0.09322717785835266
0.39627593755722046 -0.3058706223964691 0.2623444199562073
-0.7045652270317078 0.2477390021085739 0.3314395248889923
0.5431959629058838 -0.3058706223964691 0.2597573399543762
0.7383283972740173 -0.17067846655845642 0.3314395248889923
0.8789184093475342 0.014885109849274158 0.209080770611763
-0.823335587978363 0.30592331290245056 0.24715901911258698
0.5513554811477661 -0.11618800461292267 0.209080770611763
-0.4901706576347351 -0.09067481011152267 -0.024430887773633003
-0.13624219596385956 0.2383180409669876 -0.5058993697166443
0.48869964480400085 0.12601301074028015 0.09448817372322083
-0.8216151595115662 0.0819220095872879 0.2683261036872864
-0.3678118586540222 -0.11103316396474838 0.31990909576416016
-0.29218152165412903 -0.14399704337120056 -0.4287291169166565
-0.6734495759010315 -0.304774671792984 0.3314395248889923
0.7941929697990417 0.30592331290245056 0.32379746437072754
-0.4706566333770752 0.17718543112277985 -0.17244486510753632
0.07523912936449051 -0.17245811223983765 -0.51904296875
-0.6305690407752991 -0.24016691744327545 0.3314395248889923
-0.4524064064025879 -0.02414686791598797 0.3314395248889923
-0.9085129499435425 0.23098847270011902 0.3314395248889923
-0.852032482624054 -0.26760679483413696 0.209080770611763
0.48869964480400085 0.010728595778346062 0.14174245297908783
0.7168503403663635 -0.2632848024368286 0.3314395248889923
-0.3384096920490265 0.24082262814044952 -0.1792689859867096
0.22527667880058289 0.0408904105424881 -0.32476329803466797
0.5747894644737244 0.09766817837953568 0.3314395248889923
-0.4236204922199249 0.30592331290245056 0.019825758412480354
0.6699629426002502 0.12816926836967468 0.3314395248889923
0.4066086411476135 0.1757884919643402 -0.30688872933387756
-0.4033094346523285 -0.0031307265162467957 0.3314395248889923
0.41330111026763916 0.19753360748291016 -0.2965620756149292
-0.8570481538772583 0.0005332947475835681 0.24270322918891907
0.4174633026123047 0.07737047970294952 -0.28980061411857605
-0.21189232170581818 0.22852081060409546 -0.47711148858070374
-0.4400688409805298 -0.24613766372203827 -0.2511233985424042
0.36634087562561035 -0.2010512799024582 -0.023854803293943405
-0.1794368177652359 -0.18544918298721313 -0.49118489027023315
0.48869964480400085 0.17068351805210114 0.13486525416374207
-0.40032970905303955 0.30592331290245056 -0.1706671416759491
-0.9834980964660645 0.10146491974592209 0.209080770611763
0.07233775407075882 -0.05552687123417854 -0.5195019841194153
0.48869964480400085 0.16514115035533905 0.1098683625459671
0.3569190800189972 0.27720266580581665 -0.11767949908971786
0.8516522645950317 -0.029058173298835754 0.22426144778728485
0.36187615990638733 0.16973383724689484 -0.09237837791442871
0.5806213021278381 0.2189415544271469 0.209080770611763
0.3771734833717346 -0.3058706223964691 -0.07374880462884903
-0.4901706576347351 0.2267598956823349 0.02798551134765148
0.6894757747650146 -0.24010001122951508 0.3314395248889923
-0.3678118586540222 0.23942549526691437 0.25899192690849304
-0.3579753339290619 0.30592331290245056 -0.3502423167228699
0.8983579277992249 -0.3034566640853882 0.3314395248889923
-0.7159746885299683 -0.3058706223964691 0.3013726770877838
0.45001664757728577 0.30592331290245056 -0.03687421232461929
0.4836241602897644 0.30592331290245056 0.31534847617149353
0.46541735529899597 0.2822588086128235 -0.18443362414836884
-0.22912321984767914 0.30592331290245056 -0.3764890432357788
-0.21563196182250977 0.30592331290245056 -0.4331616461277008
0.8965010046958923 0.023257803171873093 0.209080770611763
0.36634087562561035 0.1784917414188385 0.23993754386901855
-0.41296565532684326 -0.22722750902175903 -0.29939475655555725
-0.49946874380111694 -0.15195198357105255 0.209080770611763
-0.4901706576347351 -0.03854529932141304 0.13805711269378662
-0.21563708782196045 -0.15514226257801056 -0.47530946135520935
0.9985278844833374 -0.1847795695066452 0.24596768617630005
-0.9767072796821594 -0.1399383246898651 0.209080770611763
0.3476168215274811 0.30592331290245056 -0.263361394405365
0.8109961152076721 -0.2831076681613922 0.3314395248889923
0.38975951075553894 -0.26744502782821655 0.3314395248889923
0.7700207233428955 -0.1712544858455658 0.3314395248889923
-0.6098378300666809 -0.3058706223964691 0.31150490045547485
-0.3736366629600525 0.24663548171520233 -0.352586567401886
0.8415687680244446 -0.11273027211427689 0.209080770611763
-0.4586421847343445 0.23677024245262146 -0.20840127766132355
0.2653927803039551 -0.2766971290111542 -0.2882848381996155
0.7616642713546753 -0.3058706223964691 0.262977659702301
-0.8594252467155457 0.30592331290245056 0.2779645621776581
0.6481331586837769 0.1603853702545166 0.3314395248889923
0.18675535917282104 -0.1982588768005371 -0.4877016246318817
-0.6768600344657898 0.16378745436668396 0.3314395248889923
-0.21568971872329712 -0.07169250398874283 -0.4752611815929413
-0.9331836104393005 0.2628270089626312 0.209080770611763
-0.2712298035621643 0.2993558347225189 -0.2836267948150635
0.3973386585712433 -0.19605164229869843 -0.3202917277812958
-0.19310201704502106 0.18192127346992493 -0.34825074672698975
-0.3954736292362213 -0.3058706223964691 -0.3031913638114929
0.7615982890129089 -0.23384055495262146 0.209080770611763
-0.3678118586540222 0.07132478803396225 0.08473706990480423
0.8320882320404053 0.07833807915449142 0.3314395248889923
0.31848880648612976 0.009869812987744808 -0.21669717133045197
0.05953839421272278 -0.16371406614780426 -0.5212923288345337
-0.3678118586540222 -0.2453135848045349 0.00679934723302722
0.48869964480400085 0.24928118288516998 0.02855166420340538
0.4470510184764862 -0.3058706223964691 0.15707410871982574
0.9985278844833374 -0.05685542896389961 0.28708478808403015
0.3160783350467682 0.16714854538440704 -0.4085375666618347
-0.16555093228816986 0.06562397629022598 -0.3634602427482605
-0.9999989867210388 0.057787105441093445 0.2543253004550934
-0.730840802192688 0.1257072538137436 0.209080770611763
-0.9793972969055176 0.021434690803289413 0.3314395248889923
-0.6151303052902222 0.013973057270050049 0.209080770611763
-0.3390277624130249 -0.3013491928577423 -0.17779451608657837
0.6415413618087769 0.0455147922039032 0.3119354844093323
0.36634087562561035 0.29540345072746277 0.3172155022621155
-0.2846512794494629 0.13696730136871338 -0.26821333169937134
-0.47392532229423523 -0.28248077630996704 -0.1602887362241745
-0.16668656468391418 -0.005991626065224409 -0.49606844782829285
-0.3678118586540222 -0.1910705864429474 0.17719370126724243
-0.495154470205307 -0.20621918141841888 0.209080770611763
-0.4655577540397644 -0.3058706223964691 -0.1244339719414711
0.854820728302002 -0.011267569847404957 0.2555375397205353
0.026925425976514816 0.16088318824768066 -0.5242066979408264
0.604346752166748 0.2645489275455475 0.209080770611763
0.7437275052070618 0.1120520681142807 0.325680673122406
-0.06669414043426514 -0.11222900450229645 -0.3966994881629944
-0.46290650963783264 0.30592331290245056 0.013794437982141972
0.1580590307712555 -0.1578226089477539 -0.49851715564727783
-0.38668668270111084 -0.3058706223964691 -0.3247891366481781
-0.6565971374511719 -0.06846647709608078 0.21920490264892578
0.366677463054657 -0.3058706223964691 0.31192392110824585
0.33836278319358826 0.12441794574260712 -0.17592193186283112
0.9938310980796814 0.012967360205948353 0.3314395248889923
0.9985278844833374 0.053291041404008865 0.24877230823040009
-0.4517805576324463 0.0791541188955307 0.3314395248889923
-0.36110562086105347 -0.07486593723297119 -0.10531529784202576
0.30895787477493286 0.30592331290245056 -0.40175023674964905
0.48869964480400085 0.12693774700164795 0.060179419815540314
0.549012303352356 -0.2798512876033783 0.209080770611763
0.850639820098877 0.25975897908210754 0.209080770611763
0.35571786761283875 -0.14947690069675446 -0.12307585030794144
0.30134087800979614 -0.002676995238289237 -0.42062392830848694
-0.14490589499473572 0.20510470867156982 -0.5033086538314819
0.30449435114860535 0.022852635011076927 -0.23946166038513184
-0.3678118586540222 -0.14063437283039093 0.1860540211200714
0.15194576978683472 -0.04902760311961174 -0.36940255761146545
-0.5416637063026428 -0.28607675433158875 0.209080770611763
-0.4378565847873688 0.06504927575588226 -0.25572046637535095
-0.5959333181381226 -0.08548301458358765 0.3314395248889923
0.6602685451507568 0.20294883847236633 0.3314395248889923
0.3661525547504425 -0.2697782814502716 -0.04470919072628021
0.36634087562561035 0.10731110721826553 0.07300276309251785
-0.6737719774246216 0.17539669573307037 0.209080770611763
0.32593098282814026 0.10899582505226135 -0.40006545186042786
-0.19113270938396454 0.09059605747461319 -0.48639237880706787
-0.8468340039253235 -0.2965601086616516 0.3314395248889923
-0.02244836650788784 0.2774699926376343 -0.4019336998462677
-0.649544358253479 0.30592331290245056 0.2411007136106491
0.36634087562561035 -0.1112075001001358 0.17770685255527496
-0.3678118586540222 0.09162861853837967 -0.0009782086126506329
-0.9916952848434448 -0.04883459582924843 0.3314395248889923
-0.3678118586540222 0.3012085556983948 0.03588417172431946
-0.07716365903615952 0.0674285963177681 -0.3945610821247101
-0.2570514678955078 0.26493826508522034 -0.298287034034729
-0.4901706576347351 -0.28210917115211487 0.04858719930052757
0.36634087562561035 -0.04969581216573715 0.2238752245903015
0.36634087562561035 0.2554537355899811 0.10736377537250519
-0.4901706576347351 0.20702308416366577 0.08250109106302261
0.005468991119414568 -0.08432257175445557 -0.5249717235565186
0.4063848555088043 -0.3058706223964691 0.046019066125154495
0.4564599096775055 0.28915587067604065 0.3314395248889923
0.8436070084571838 0.28777527809143066 0.3314395248889923
-0.022745026275515556 0.29491645097732544 -0.40197449922561646
0.4883408546447754 -0.15103888511657715 -0.052029456943273544
-0.3463505208492279 0.11825970560312271 -0.38213425874710083
0.35392695665359497 0.2314237803220749 -0.37290918827056885
0.23091866075992584 -0.29044926166534424 -0.32030245661735535
0.7120089530944824 -0.14093321561813354 0.209080770611763
0.36634087562561035 -0.014076600782573223 0.3101664185523987
-0.36768272519111633 -0.01877436228096485 -0.03990623354911804
-0.38480016589164734 0.30592331290245056 -0.2885305881500244
0.21665658056735992 -0.19301986694335938 -0.47408774495124817
-0.3676876723766327 0.22023393213748932 -0.04054443538188934
0.9095706343650818 -0.242489755153656 0.209080770611763
-0.4901706576347351 0.07303167879581451 -0.015168295241892338
-0.40444833040237427 -0.04480578005313873 0.3314395248889923
-0.5259853601455688 0.14925679564476013 0.3314395248889923
-0.47232893109321594 -0.3058706223964691 0.15574699640274048
0.6358211040496826 -0.02978772297501564 0.21626359224319458
0.3267572820186615 -0.2008303850889206 -0.201174795627594
-0.08542677760124207 -0.2596020996570587 -0.5175980925559998
-0.5707151293754578 -0.3058706223964691 0.3263567388057709
-0.5914450883865356 0.21465982496738434 0.209080770611763
-0.6142491698265076 0.001263815793208778 0.3314395248889923
-0.9131650924682617 -0.15999744832515717 0.3314395248889923
0.38264819979667664 -0.28956177830696106 0.3314395248889923
-0.3678118586540222 -0.0800618901848793 0.13839903473854065
-0.7732524871826172 -0.10838533937931061 0.30853939056396484
0.8165965676307678 0.10126541554927826 0.209080770611763
-0.4901706576347351 0.14209012687206268 -0.023615382611751556
-0.39083829522132874 0.056709643453359604 -0.3311728537082672
-0.4623141288757324 -0.3058706223964691 0.1853393167257309
-0.20001158118247986 -0.017817772924900055 -0.34377679228782654
-0.3305416405200958 0.08881968259811401 -0.19678549468517303
0.9290393590927124 0.27207937836647034 0.209080770611763
0.359632670879364 0.1482894867658615 -0.10511905699968338
-0.4824691116809845 0.27815794944763184 -0.1214064210653305
0.9533410668373108 -0.3058706223964691 0.24275128543376923
-0.3678118586540222 0.21114632487297058 0.31232306361198425
-0.4901706576347351 -0.23133035004138947 -0.019805263727903366
0.42550817131996155 0.06340421736240387 -0.2760592997074127
0.14925694465637207 -0.06624756753444672 -0.5014212131500244
0.48869964480400085 -0.058104485273361206 -0.026395142078399658
-0.31811749935150146 0.06623547524213791 -0.408189594745636
0.36634087562561035 0.018384423106908798 0.22940930724143982
-0.03249388560652733 -0.3058706223964691 -0.5153976082801819
-0.08944365382194519 -0.04593546316027641 -0.5169495344161987
0.3774279057979584 0.30592331290245056 0.22497251629829407
-0.3678118586540222 0.13903094828128815 -0.022474046796560287
-0.12901537120342255 0.17601409554481506 -0.37950724363327026
-0.4901706576347351 -0.2623369097709656 0.09071438759565353
0.4025876820087433 0.11089008301496506 0.3314395248889923
0.48869964480400085 -0.15624700486660004 -0.007223696913570166
0.4263792335987091 -0.3058706223964691 0.1318071186542511
0.12195206433534622 -0.10678298771381378 -0.38156479597091675
0.26848602294921875 0.12555977702140808 -0.2851232588291168
0.4568961262702942 -0.2187160700559616 -0.20897331833839417
-0.11593228578567505 0.1353713721036911 -0.3841252624988556
0.9749372005462646 -0.3058706223964691 0.2905062139034271
0.5018388628959656 0.25302302837371826 0.3314395248889923
-0.5454931259155273 0.10576019436120987 0.3314395248889923
0.9219323992729187 0.01448750589042902 0.209080770611763
-0.41579505801200867 0.16051940619945526 -0.2949312925338745
0.8874756097793579 0.04656446352601051 0.3314395248889923
-0.19376452267169952 -0.08273620158433914 -0.48532938957214355
-0.7460227012634277 -0.3058706223964691 0.27534857392311096
-0.4891452491283417 -0.1895657479763031 -0.06579171121120453
0.0050949640572071075 -0.14995910227298737 -0.4025458097457886
0.36634087562561035 0.005319489166140556 0.32079997658729553
-0.3678118586540222 -0.15512853860855103 0.2693351209163666
-0.3678118586540222 -0.1939324140548706 0.26526302099227905
0.09239426255226135 0.1672537922859192 -0.516018807888031
0.14704303443431854 -0.3058706223964691 -0.50077223777771
-0.613698422908783 -0.10653579980134964 0.209080770611763
0.026915965601801872 0.02473806031048298 -0.4016474485397339
-0.52118319272995 -0.17711006104946136 0.209080770611763
-0.4724315404891968 0.30592331290245056 -0.062094684690237045
0.39390552043914795 0.30592331290245056 -0.04731857031583786
0.14679627120494843 0.1466607302427292 -0.37171462178230286
-0.1798219233751297 -0.08561203628778458 -0.49108901619911194
-0.3678118586540222 -0.26612159609794617 0.18697726726531982
0.03783472999930382 0.30592331290245056 -0.48996421694755554
0.4167013168334961 0.0798313319683075 0.3314395248889923
-0.04802553728222847 -0.036850567907094955 -0.5227388143539429
0.7968758344650269 -0.12651918828487396 0.209080770611763
-0.3678118586540222 -0.12776027619838715 -0.035419344902038574
0.3149557113647461 0.056172147393226624 -0.2227814644575119
-0.4901706576347351 -0.172793909907341 0.13094940781593323
0.02824007160961628 -0.2815125286579132 -0.40145188570022583
-0.3678118586540222 0.14637304842472076 0.14183290302753448
0.08534442633390427 0.30592331290245056 -0.463626503944397
