-0.14035114645957947 0.4762599468231201 -0.0867164134979248
0.17710569500923157 0.5641863942146301 0.08641933649778366
-0.9883376955986023 -0.010056580416858196 0.08641933649778366
0.2904660701751709 0.8572723269462585 0.08641933649778366
0.7940346002578735 0.3621504008769989 -0.0037445600610226393
-0.04103409871459007 0.8355570435523987 -0.0867164134979248
-0.5188376903533936 0.8372779488563538 -0.06671567261219025
-0.6251083016395569 0.6532118320465088 0.07456256449222565
-0.24424323439598083 0.7474641799926758 -0.0867164134979248
-0.7101786732673645 -0.13858582079410553 0.08641933649778366
0.3174872398376465 -0.7573633790016174 0.08641933649778366
0.6294711232185364 0.5107114315032959 -0.0867164134979248
0.5806832313537598 -0.01398986391723156 0.08641933649778366
-0.20522145926952362 0.18149538338184357 -0.0867164134979248
0.6343934535980225 0.2809266149997711 -0.0867164134979248
0.5708028674125671 -0.10317691415548325 0.08641933649778366
-0.05540778860449791 0.4393916130065918 -0.0867164134979248
-0.2689884603023529 -0.698616087436676 0.08641933649778366
0.964756190776825 -0.055777017027139664 0.003018357325345278
-0.4723062813282013 -0.15706898272037506 -0.0867164134979248
-0.2644806504249573 0.7339499592781067 0.08641933649778366
-0.4372604787349701 0.49094700813293457 -0.0867164134979248
0.5496603846549988 0.005723604932427406 0.08641933649778366
-0.9009301066398621 -0.16479966044425964 0.0017040540697053075
0.47354817390441895 -0.051459334790706635 -0.0867164134979248
-0.8254830837249756 0.10915479809045792 -0.0867164134979248
-0.04756997525691986 0.8710162043571472 0.04138541966676712
0.11153842508792877 -0.063519686460495 0.08641933649778366
-0.43480080366134644 0.8710162043571472 -0.05982748791575432
-0.5917863249778748 -0.5188930630683899 -0.0867164134979248
-0.2147234082221985 0.7029630541801453 0.08641933649778366
0.56578129529953 0.6043086051940918 0.08641933649778366
0.9554183483123779 -0.07195063680410385 -0.07348968833684921
0.7435430288314819 0.2924555540084839 -0.0867164134979248
-0.7203190326690674 -0.08803010731935501 -0.0867164134979248
-0.10662008076906204 -0.6907939910888672 -0.0867164134979248
0.1628209799528122 -0.039770711213350296 -0.0867164134979248
-0.4665725827217102 0.06917282193899155 0.08641933649778366
-0.05428919196128845 -0.8603413701057434 -0.08164623379707336
0.3307073414325714 0.18858738243579865 -0.0867164134979248
-0.6706956028938293 0.4595423936843872 -0.0867164134979248
-0.6629312634468079 0.08185519278049469 -0.0867164134979248
-0.11151566356420517 -0.4946970045566559 -0.0867164134979248
-0.3535611927509308 -0.3115454316139221 -0.0867164134979248
0.24826136231422424 -0.1520954668521881 -0.0867164134979248
0.6857704520225525 0.19267287850379944 0.08641933649778366
-0.7136685848236084 -0.34509751200675964 0.08641933649778366
-0.6378928422927856 0.12108086049556732 0.08641933649778366
0.6878865361213684 0.0873338058590889 -0.0867164134979248
-0.5816699862480164 -0.2455381602048874 -0.0867164134979248
-0.17945453524589539 0.683827817440033 0.08641933649778366
-0.4733031690120697 -0.8603413701057434 -0.0315125547349453
-0.6559321880340576 -0.19077324867248535 0.08641933649778366
-0.22080479562282562 0.15958033502101898 -0.0867164134979248
0.1042090579867363 -0.76761394739151 0.08641933649778366
0.06522217392921448 -0.011472705751657486 -0.0867164134979248
0.22837018966674805 -0.6121453046798706 -0.0867164134979248
0.32999879121780396 -0.15859021246433258 -0.0867164134979248
0.8033971190452576 -0.05448169633746147 0.08641933649778366
-0.664799153804779 0.19143390655517578 -0.0867164134979248
0.34065935015678406 -0.14740540087223053 -0.0867164134979248
-0.11867289990186691 -0.026078147813677788 -0.0867164134979248
0.2767150402069092 -0.17560333013534546 -0.0867164134979248
0.5812685489654541 -0.4607008397579193 -0.0867164134979248
-0.8463700413703918 -0.015537447296082973 -0.0867164134979248
0.5404966473579407 -0.09644628316164017 -0.0867164134979248
-0.34634384512901306 -0.6881101131439209 0.08641933649778366
-0.01751767285168171 -0.7668885588645935 0.08641933649778366
0.6316627860069275 -0.12524302303791046 -0.0867164134979248
-0.16615720093250275 -0.7135024666786194 0.08641933649778366
-0.1061534658074379 0.7478318810462952 -0.0867164134979248
0.18359778821468353 0.7626006007194519 -0.0867164134979248
0.25713348388671875 -0.8603413701057434 -0.050876352936029434
0.3396461308002472 -0.8603413701057434 0.035462554544210434
-0.7044382095336914 -0.48532232642173767 0.08641933649778366
-0.6600527167320251 -0.5820115804672241 -0.04747839272022247
0.5800620317459106 0.5613614916801453 0.08641933649778366
-0.8163071870803833 -0.2890295088291168 -0.0867164134979248
-0.37658125162124634 -0.5160024762153625 -0.0867164134979248
-0.2547566890716553 0.7085740566253662 -0.0867164134979248
0.6470699906349182 0.37484630942344666 -0.0867164134979248
-0.46234261989593506 0.5851507186889648 -0.0867164134979248
0.07151150703430176 0.15552420914173126 -0.0867164134979248
-0.6777833700180054 0.5619760751724243 4.810133759747259e-05
-0.6227864623069763 0.535017728805542 0.08641933649778366
0.13663415610790253 0.7121953368186951 0.08641933649778366
-0.7505009770393372 0.12346062809228897 0.08641933649778366
0.5990325212478638 -0.6892290711402893 -0.039716288447380066
-0.12872014939785004 0.17329485714435577 -0.0867164134979248
-0.7820934057235718 0.3813057541847229 -0.07035540789365768
-0.6620246171951294 0.5376743674278259 0.08641933649778366
0.04308481141924858 0.09749031811952591 -0.0867164134979248
0.43415847420692444 -0.7662671804428101 0.08641933649778366
-0.3010169267654419 0.8118509650230408 -0.0867164134979248
-0.20079807937145233 0.4890750050544739 -0.0867164134979248
-0.6501836776733398 -0.5110426545143127 0.08641933649778366
-0.6593393087387085 0.5576427578926086 0.08641933649778366
-0.7901505827903748 -0.344397634267807 0.08641933649778366
0.5416330695152283 -0.3404630124568939 -0.0867164134979248
-0.10231862962245941 -0.7551475167274475 -0.0867164134979248
0.07550033926963806 -0.44819244742393494 0.08641933649778366
0.12024186551570892 -0.5437883734703064 -0.0867164134979248
0.30154791474342346 -0.2994990348815918 -0.0867164134979248
-0.7093148827552795 -0.2899504005908966 0.08641933649778366
-0.3130595088005066 0.5654541254043579 0.08641933649778366
-0.6454173922538757 -0.6073607206344604 -0.06605064868927002
0.7857018113136292 -0.31539857387542725 0.08641933649778366
0.05362120270729065 0.13511505722999573 -0.0867164134979248
0.32812991738319397 0.298279345035553 -0.0867164134979248
0.37997567653656006 -0.8603413701057434 0.007574015762656927
-0.4166051745414734 -0.19686751067638397 -0.0867164134979248
0.11973220109939575 -0.6870524883270264 -0.0867164134979248
0.22690550982952118 0.4424273669719696 0.08641933649778366
-0.5004395246505737 -0.022371748462319374 -0.0867164134979248
-0.27038174867630005 0.5221267938613892 -0.0867164134979248
0.9713170528411865 -0.04441327229142189 0.04529854282736778
0.3521379828453064 -0.5979647040367126 -0.0867164134979248
0.2936227321624756 0.8350563049316406 0.08641933649778366
0.35343971848487854 -0.22536592185497284 0.08641933649778366
0.3016136884689331 0.33622437715530396 0.08641933649778366
0.46803924441337585 0.8710162043571472 0.039636388421058655
0.6468536257743835 0.5408943295478821 -0.0867164134979248
0.27086952328681946 0.5167828798294067 0.08641933649778366
-0.8503771424293518 0.2630348205566406 -0.054900676012039185
0.001151560922153294 0.8710162043571472 0.07320401072502136
0.9794281125068665 0.0410393550992012 0.03987676650285721
0.8118691444396973 -0.19220881164073944 -0.0867164134979248
0.2300112545490265 0.7989495396614075 0.08641933649778366
0.4352116286754608 0.4210469424724579 -0.0867164134979248
0.9191378951072693 0.05373048037290573 -0.0867164134979248
0.17610584199428558 -0.2952389717102051 0.08641933649778366
-0.28347745537757874 -0.32538890838623047 -0.0867164134979248
-0.20438602566719055 0.3647376596927643 -0.0867164134979248
0.36157089471817017 -0.7736733555793762 -0.0867164134979248
-0.07453818619251251 -0.08570301532745361 0.08641933649778366
0.06925738602876663 0.5766286253929138 -0.0867164134979248
-0.36085081100463867 0.030777795240283012 0.08641933649778366
0.62299644947052 -0.457146018743515 -0.0867164134979248
0.8368591070175171 0.20693325996398926 -0.0867164134979248
-0.2188943773508072 0.6228126287460327 0.08641933649778366
-0.6785151958465576 -0.41178902983665466 0.08641933649778366
-0.34918084740638733 0.7829371690750122 -0.0867164134979248
-0.006588779855519533 0.7150455117225647 -0.0867164134979248
0.13657936453819275 -0.6650897264480591 0.08641933649778366
0.5928900241851807 0.2330736219882965 0.08641933649778366
-0.2973184287548065 -0.458936870098114 0.08641933649778366
-0.7469657063484192 -0.25998225808143616 -0.0867164134979248
-0.1235542744398117 0.4864206910133362 0.08641933649778366
0.639331579208374 -0.4678833782672882 0.08641933649778366
-0.24540749192237854 -0.7752546072006226 0.08641933649778366
-0.8576164245605469 -0.10180102288722992 -0.0867164134979248
0.35936829447746277 0.7768182754516602 0.08641933649778366
0.8019348978996277 0.348466694355011 0.0343717522919178
0.06787729263305664 0.8710162043571472 -0.01792607270181179
0.07367880642414093 -0.13877402245998383 -0.0867164134979248
0.14705345034599304 -0.8442742824554443 -0.0867164134979248
-0.11366517096757889 -0.64389568567276 0.08641933649778366
-0.24588342010974884 -0.8603413701057434 0.04312022402882576
-0.3198416233062744 -0.13034497201442719 0.08641933649778366
0.1271442174911499 0.6063863635063171 -0.0867164134979248
-0.3562029004096985 -0.708802342414856 0.08641933649778366
0.1797192394733429 -0.5142037272453308 0.08641933649778366
-0.10205798596143723 -0.39644473791122437 0.08641933649778366
-0.542524516582489 -0.7855764031410217 0.0011683611664921045
0.6470769643783569 0.2480541616678238 -0.0867164134979248
-0.2845589518547058 0.7873148918151855 -0.0867164134979248
-0.4101933240890503 -0.5201386213302612 0.08641933649778366
-0.6095253229141235 0.6231930255889893 -0.0867164134979248
-0.6962854862213135 0.03191359341144562 -0.0867164134979248
0.8493088483810425 0.1824885457754135 -0.0867164134979248
0.7164834141731262 0.25211474299430847 -0.0867164134979248
0.7789536714553833 -0.3498021960258484 0.08641933649778366
0.6818088889122009 0.5565310716629028 0.021734440699219704
0.32220521569252014 -0.44079092144966125 0.08641933649778366
0.5187959671020508 0.34121689200401306 -0.0867164134979248
0.5763487815856934 -0.09520123898983002 -0.0867164134979248
0.38911569118499756 -0.37534376978874207 -0.0867164134979248
0.4621410071849823 0.7955374121665955 -0.0867164134979248
-0.47706255316734314 0.5000731348991394 -0.0867164134979248
-0.0710676833987236 -0.053591031581163406 0.08641933649778366
0.2510254383087158 -0.7920565605163574 -0.0867164134979248
-0.5972499251365662 0.7014639973640442 -0.04210008680820465
-0.00638534827157855 0.8710162043571472 -0.08512452989816666
-0.5888829231262207 0.5231902003288269 -0.0867164134979248
0.4277321696281433 0.8051655292510986 -0.0867164134979248
0.12100311368703842 0.3312830626964569 0.08641933649778366
0.968310534954071 -0.04962063580751419 -0.048831261694431305
0.5712217688560486 -0.06900196522474289 0.08641933649778366
0.5028693675994873 0.7368589639663696 -0.0867164134979248
0.33918970823287964 -0.39824169874191284 -0.0867164134979248
0.572797417640686 0.0458655022084713 0.08641933649778366
-0.344510942697525 -0.0421316884458065 0.08641933649778366
0.3199478089809418 0.48274192214012146 -0.0867164134979248
0.09948766976594925 0.4813779592514038 0.08641933649778366
0.33494630455970764 0.08681400865316391 0.08641933649778366
0.1680181622505188 0.5787664651870728 0.08641933649778366
0.3377474546432495 0.31461939215660095 0.08641933649778366
0.9200516939163208 0.0653064027428627 -0.0867164134979248
0.14247748255729675 -0.703434944152832 -0.0867164134979248
-0.8916910886764526 0.06693296134471893 0.08641933649778366
-0.24397902190685272 -0.6358334422111511 0.08641933649778366
-0.04667066037654877 -0.8276824951171875 0.08641933649778366
-0.019657660275697708 -0.17724740505218506 0.08641933649778366
0.5959265828132629 0.705283522605896 -0.03392748534679413
0.28840744495391846 -0.09197130054235458 0.08641933649778366
0.5776577591896057 0.5673980712890625 0.08641933649778366
-0.06305316835641861 -0.282314270734787 0.08641933649778366
-0.02057131566107273 -0.09852556884288788 0.08641933649778366
-0.1622145026922226 -0.38108137249946594 0.08641933649778366
-0.30435287952423096 -0.6063340306282043 -0.0867164134979248
0.7766210436820984 -0.22523942589759827 -0.0867164134979248
0.07445542514324188 -0.8603413701057434 0.03115049935877323
-0.8255248069763184 -0.08319547027349472 0.08641933649778366
0.3648737967014313 -0.11452794075012207 0.08641933649778366
-0.506016194820404 0.09211917221546173 -0.0867164134979248
-0.6085936427116394 -0.42493826150894165 0.08641933649778366
0.4291529357433319 -0.8603413701057434 -0.017085770145058632
-0.3913949131965637 0.17336778342723846 0.08641933649778366
-0.2810319662094116 0.8016855120658875 -0.0867164134979248
0.08472933620214462 0.710466206073761 0.08641933649778366
-0.2420174777507782 0.2208547443151474 -0.0867164134979248
0.13230961561203003 -0.6025822758674622 -0.0867164134979248
0.5359746217727661 0.7325221300125122 -0.0867164134979248
0.018320482224225998 0.7287764549255371 0.08641933649778366
0.6774407625198364 -0.07197751849889755 -0.0867164134979248
0.3900781571865082 0.7616142630577087 0.08641933649778366
-0.2030671387910843 -0.3697914183139801 0.08641933649778366
-0.48640474677085876 0.3056315779685974 0.08641933649778366
-0.2613890767097473 -0.8603413701057434 0.0018261930672451854
0.18667072057724 -0.727763295173645 -0.0867164134979248
0.4052615463733673 -0.8603413701057434 0.07298118621110916
-0.06376759707927704 -0.025691216811537743 -0.0867164134979248
-0.580353856086731 -0.720054030418396 -0.0326126292347908
-0.7495461702346802 -0.3553999364376068 -0.0867164134979248
-0.2869443893432617 0.7980374097824097 -0.0867164134979248
0.02888643741607666 0.7838678956031799 -0.0867164134979248
-0.17633052170276642 -0.8380898833274841 0.08641933649778366
-0.0020605800673365593 0.8710162043571472 0.04871819540858269
-0.6851673126220703 -0.38125142455101013 -0.0867164134979248
0.08841931074857712 0.3620329201221466 0.08641933649778366
0.3325066566467285 0.48322364687919617 -0.0867164134979248
-0.6670360565185547 -0.19478151202201843 -0.0867164134979248
0.013049203902482986 -0.141170933842659 0.08641933649778366
-0.29693034291267395 -0.7381559014320374 -0.0867164134979248
0.528597891330719 0.8219001889228821 -0.059146225452423096
0.09899988025426865 -0.4794686436653137 0.08641933649778366
-0.08338184654712677 0.8710162043571472 0.031027376651763916
0.4267849624156952 -0.06389101594686508 -0.0867164134979248
-0.01006331853568554 -0.33082160353660583 0.08641933649778366
-0.22520394623279572 -0.8603413701057434 0.06376637518405914
-0.2178928405046463 0.16442489624023438 -0.0867164134979248
0.8486019968986511 -0.25696197152137756 0.07753851264715195
-0.5883725881576538 0.7168400287628174 -0.06049603968858719
0.06852791458368301 0.4740544855594635 -0.0867164134979248
-0.653605580329895 0.6038531064987183 -0.0011631501838564873
-0.6146115660667419 -0.27794188261032104 -0.0867164134979248
0.1792152225971222 0.594753623008728 -0.0867164134979248
0.5084694623947144 0.8567637205123901 0.009724983014166355
0.32009193301200867 0.45025378465652466 0.08641933649778366
-0.07474717497825623 0.14918667078018188 0.08641933649778366
0.6635755300521851 -0.04694865643978119 -0.0867164134979248
-0.357827365398407 0.625665009021759 0.08641933649778366
0.7090603709220886 -0.19013077020645142 -0.0867164134979248
0.6702041029930115 0.5766310691833496 0.08460180461406708
-0.29983654618263245 0.5872677564620972 0.08641933649778366
0.12375710159540176 0.8710162043571472 0.010651543736457825
0.06792202591896057 -0.8603413701057434 -0.013507282361388206
0.27213287353515625 -0.8431007862091064 0.08641933649778366
-0.6224998831748962 -0.013480556197464466 0.08641933649778366
-0.28745967149734497 -0.8106644153594971 0.08641933649778366
-0.35654863715171814 -0.4873274862766266 0.08641933649778366
-0.9014281630516052 -0.015251285396516323 0.08641933649778366
0.3836854100227356 0.1841023564338684 0.08641933649778366
-0.42712661623954773 0.8710162043571472 -0.02931229956448078
0.01071018073707819 0.0678209662437439 0.08641933649778366
0.24473659694194794 0.5862606763839722 0.08641933649778366
-0.10594435781240463 0.458159863948822 0.08641933649778366
-0.2940402328968048 -0.36797380447387695 -0.0867164134979248
-0.5163376331329346 -0.15316519141197205 0.08641933649778366
0.7248725891113281 0.19775091111660004 0.08641933649778366
0.44515395164489746 -0.8066602945327759 0.08641933649778366
0.5898950099945068 0.23223914206027985 0.08641933649778366
0.8775717616081238 -0.20678488910198212 0.011279740370810032
0.23739950358867645 -0.7589018940925598 0.08641933649778366
0.35165759921073914 0.2248062938451767 -0.0867164134979248
-0.09451492875814438 -0.04945860058069229 0.08641933649778366
0.5400772094726562 -0.7852227091789246 0.08641933649778366
0.3275894522666931 -0.8603413701057434 0.053705133497714996
0.642370343208313 0.47362440824508667 -0.0867164134979248
0.2337113618850708 -0.16519008576869965 -0.0867164134979248
0.24133650958538055 0.02035745047032833 0.08641933649778366
0.6633654832839966 -0.4487680494785309 0.08641933649778366
0.39197829365730286 -0.23631112277507782 0.08641933649778366
0.20595991611480713 -0.7566730976104736 -0.0867164134979248
-0.7748117446899414 0.011242257431149483 -0.0867164134979248
0.07002229988574982 0.3343946039676666 0.08641933649778366
0.11822043359279633 0.521045446395874 -0.0867164134979248
0.11272741854190826 -0.2308807075023651 0.08641933649778366
-0.5953196883201599 0.3430635631084442 -0.0867164134979248
0.1212625801563263 0.6918344497680664 0.08641933649778366
0.18299759924411774 -0.36447784304618835 -0.0867164134979248
-0.22960253059864044 -0.015424077399075031 0.08641933649778366
-0.26241692900657654 0.5003713369369507 0.08641933649778366
0.7885227203369141 -0.36102232336997986 -0.0505949892103672
0.09872797876596451 -0.6382958292961121 0.08641933649778366
-0.6230974197387695 -0.6460199952125549 0.04953604191541672
0.07169386744499207 -0.6318698525428772 0.08641933649778366
0.24571111798286438 -0.006712242960929871 -0.0867164134979248
0.18962830305099487 -0.6259413361549377 0.08641933649778366
0.21943913400173187 -0.42930540442466736 0.08641933649778366
-0.9499363899230957 -0.028009694069623947 0.08641933649778366
0.5550537109375 -0.5476904511451721 -0.0867164134979248
-0.40277090668678284 -0.05011967197060585 0.08641933649778366
-0.3875493109226227 0.7621133923530579 0.08641933649778366
0.4767932891845703 0.7822977900505066 -0.0867164134979248
0.22476650774478912 -0.8047755360603333 -0.0867164134979248
0.5818713903427124 -0.7189529538154602 0.06426578760147095
-0.37737902998924255 -0.322419673204422 0.08641933649778366
-0.3726278841495514 0.5292149782180786 -0.0867164134979248
-0.034389521926641464 0.16454322636127472 0.08641933649778366
0.3685154914855957 -0.14105814695358276 -0.0867164134979248
0.7111545205116272 0.2867125868797302 0.08641933649778366
0.5807545185089111 0.12349863350391388 -0.0867164134979248
0.24770544469356537 0.392849862575531 0.08641933649778366
0.5715625286102295 0.6748644113540649 0.08641933649778366
-0.08194443583488464 -0.08336126804351807 0.08641933649778366
-0.666419506072998 0.13460808992385864 -0.0867164134979248
0.39553022384643555 0.6372255682945251 -0.0867164134979248
0.8625555038452148 0.05953006446361542 0.08641933649778366
0.2993338406085968 0.8236532211303711 -0.0867164134979248
0.3400852680206299 -0.8258693814277649 0.08641933649778366
0.5529905557632446 -0.028313225135207176 0.08641933649778366
0.05622962489724159 0.12124346941709518 0.08641933649778366
0.0720914751291275 -0.10300101339817047 -0.0867164134979248
0.6714511513710022 -0.3509525656700134 0.08641933649778366
-0.6365157961845398 -0.18188944458961487 -0.0867164134979248
-0.9689816832542419 0.05760583281517029 0.015301726758480072
-0.40524205565452576 -0.4091603755950928 0.08641933649778366
-0.33316582441329956 -0.29784315824508667 -0.0867164134979248
-0.37779971957206726 0.3535022437572479 0.08641933649778366
-0.18306948244571686 -0.4513562023639679 0.08641933649778366
0.3599278926849365 -0.7851658463478088 0.08641933649778366
0.9938756227493286 0.016015473753213882 -0.012136357836425304
0.5609551668167114 0.258331835269928 -0.0867164134979248
-0.6381645798683167 0.36760595440864563 0.08641933649778366
-0.4921215772628784 0.34732785820961 -0.0867164134979248
-0.7972614169120789 0.23783168196678162 -0.0867164134979248
-0.6138862371444702 -0.14386677742004395 0.08641933649778366
0.5207875967025757 -0.8003361225128174 0.08641933649778366
-0.3753042221069336 0.8678220510482788 0.08641933649778366
0.9040205478668213 -0.10111932456493378 -0.0867164134979248
-0.4662668704986572 -0.19281277060508728 0.08641933649778366
0.14215028285980225 -0.706108033657074 -0.0867164134979248
0.17427992820739746 0.763052761554718 0.08641933649778366
0.01608416438102722 -0.8603413701057434 -0.06494808197021484
-0.5935996174812317 -0.6971118450164795 -0.0024030788335949183
0.158551886677742 0.7960925698280334 -0.0867164134979248
0.05787765979766846 -0.5938915610313416 0.08641933649778366
0.06951964646577835 0.41081416606903076 -0.0867164134979248
-0.3870963752269745 0.8710162043571472 0.05660775303840637
0.9451659917831421 0.10038305073976517 -0.04806585982441902
0.3858465254306793 -0.10050248354673386 -0.0867164134979248
-0.1996787190437317 0.3665347993373871 0.08641933649778366
0.2757744789123535 -0.8603413701057434 0.00027288246201351285
-0.5875092148780823 0.16512654721736908 0.08641933649778366
0.4882686734199524 0.6358380913734436 -0.0867164134979248
0.8138992190361023 -0.20205970108509064 0.08641933649778366
0.21967975795269012 -0.6548688411712646 -0.0867164134979248
0.7920551896095276 -0.026326768100261688 -0.0867164134979248
0.6593595743179321 0.4634108245372772 0.08641933649778366
0.6566493511199951 -0.1711520403623581 0.08641933649778366
-0.08978566527366638 -0.5513171553611755 -0.0867164134979248
-0.7077635526657104 0.5100488662719727 -0.05825107544660568
-0.8582088351249695 0.24946992099285126 0.06543487310409546
-0.1805313527584076 0.5237830281257629 -0.0867164134979248
0.5412333607673645 -0.5586870908737183 -0.0867164134979248
-0.5211561322212219 0.19985295832157135 0.08641933649778366
0.18643413484096527 -0.8603413701057434 -0.04592142626643181
0.6413186192512512 0.6266622543334961 0.08116672188043594
0.5754334330558777 0.3133915662765503 0.08641933649778366
-0.16175687313079834 -0.2071332335472107 0.08641933649778366
0.17955060303211212 -0.2647544741630554 0.08641933649778366
0.8729051351547241 -0.2148677408695221 0.06083177775144577
-0.5070866942405701 -0.5160602331161499 0.08641933649778366
0.4293900430202484 -0.6475033760070801 -0.0867164134979248
0.5647885203361511 0.7592162489891052 0.08264876902103424
-0.766328752040863 -0.3567626476287842 -0.0867164134979248
-0.09953972697257996 0.8342834711074829 0.08641933649778366
0.4886838495731354 -0.7823296189308167 0.08641933649778366
-0.19068191945552826 0.8710162043571472 0.06495610624551773
-0.565024733543396 -0.37732765078544617 -0.0867164134979248
0.2957894504070282 0.11061011999845505 0.08641933649778366
-0.4797939956188202 0.8272751569747925 -0.0867164134979248
-0.3936974108219147 0.22872838377952576 0.08641933649778366
0.601290225982666 -0.07273891568183899 -0.0867164134979248
0.6947455406188965 0.4439309537410736 -0.0867164134979248
0.5316581726074219 -0.427359938621521 0.08641933649778366
0.1415339559316635 0.7563899755477905 0.08641933649778366
-0.5066392421722412 0.4382900595664978 0.08641933649778366
0.2862075865268707 0.8334283232688904 0.08641933649778366
0.40253230929374695 -0.5295974612236023 0.08641933649778366
0.7789857387542725 0.3882158398628235 0.026000017300248146
-0.01966073550283909 0.18693016469478607 0.08641933649778366
-0.5868707895278931 -0.6705815196037292 0.08641933649778366
-0.5191271901130676 0.6298202276229858 0.08641933649778366
-0.4124298393726349 0.7068173885345459 -0.0867164134979248
0.39336898922920227 -0.31867721676826477 0.08641933649778366
0.2992923855781555 0.08188536763191223 -0.0867164134979248
-0.24805966019630432 0.32004886865615845 -0.0867164134979248
-0.6136318445205688 -0.6624149680137634 0.06900372356176376
-0.5157654285430908 0.8425993323326111 -0.055874936282634735
-0.036905527114868164 -0.3050737679004669 0.08641933649778366
0.4404870271682739 0.7704741954803467 0.08641933649778366
0.1203012764453888 0.43424683809280396 -0.0867164134979248
0.2009727507829666 -0.8603413701057434 0.05271732062101364
0.5822435021400452 0.1893921196460724 -0.0867164134979248
0.3707766532897949 -0.40380606055259705 0.08641933649778366
-0.5668508410453796 -0.7413584589958191 -0.0867164134979248
0.1055077388882637 0.6327682137489319 0.08641933649778366
-0.09074129909276962 0.38599544763565063 0.08641933649778366
0.5304635167121887 -0.7144491076469421 0.08641933649778366
0.027624573558568954 0.7324219942092896 -0.0867164134979248
0.059709202498197556 0.8710162043571472 -0.05285431072115898
0.04992055892944336 -0.6188150644302368 0.08641933649778366
0.5896337628364563 0.41627445816993713 0.08641933649778366
0.4078783392906189 0.42526039481163025 -0.0867164134979248
-0.2716636061668396 -0.4270850419998169 0.08641933649778366
0.29259422421455383 0.2203267216682434 -0.0867164134979248
-0.6103438138961792 -0.09892915189266205 0.08641933649778366
-0.6286512017250061 -0.5444695949554443 -0.0867164134979248
-0.28745323419570923 0.30891871452331543 -0.0867164134979248
0.6060948371887207 -0.6769968271255493 -0.038778334856033325
0.8266918659210205 -0.2949114441871643 -0.050259459763765335
-0.061619535088539124 -0.10085985064506531 -0.0867164134979248
0.4127422571182251 0.3494328260421753 0.08641933649778366
-0.8048732876777649 -0.2362445443868637 0.08641933649778366
0.7563533186912537 0.21348248422145844 -0.0867164134979248
0.6760773062705994 -0.06336180120706558 0.08641933649778366
0.07414181530475616 0.18567794561386108 -0.0867164134979248
0.16837060451507568 -0.5677183866500854 -0.0867164134979248
0.14421352744102478 -0.02063130773603916 -0.0867164134979248
0.07848148792982101 -0.8603413701057434 -0.06187009438872337
0.19594837725162506 0.724127471446991 0.08641933649778366
-0.15578877925872803 -0.09468156844377518 0.08641933649778366
0.6190490126609802 -0.6545594334602356 0.043607670813798904
-0.6435018181800842 -0.43298274278640747 -0.0867164134979248
-0.17193864285945892 0.44885802268981934 0.08641933649778366
-0.5589300990104675 0.6594331860542297 0.08641933649778366
0.37662553787231445 -0.5061206221580505 0.08641933649778366
0.1177096739411354 -0.6636781692504883 0.08641933649778366
-0.04841490462422371 -0.16531962156295776 0.08641933649778366
0.5687860250473022 0.6451651453971863 -0.0867164134979248
-0.3409205973148346 -0.5890755653381348 -0.0867164134979248
-0.5174558162689209 0.177031010389328 0.08641933649778366
-0.7258227467536926 -0.3938191831111908 0.08641933649778366
-0.4852590262889862 0.3105165362358093 -0.0867164134979248
-0.10323742032051086 0.3321896493434906 0.08641933649778366
-0.4513748586177826 0.31907814741134644 0.08641933649778366
-0.1901102513074875 0.3829529881477356 -0.0867164134979248
0.9017235040664673 0.17562764883041382 -0.029280828312039375
-0.48963630199432373 0.38064178824424744 0.08641933649778366
-0.21970875561237335 0.7340611815452576 0.08641933649778366
-0.05187392234802246 -0.3516744077205658 0.08641933649778366
-0.10635155439376831 0.6863909363746643 0.08641933649778366
0.38968363404273987 -0.311368852853775 -0.0867164134979248
-0.5070607662200928 0.5937651991844177 0.08641933649778366
-0.8502986431121826 0.2631707787513733 0.05780866742134094
0.8910338878631592 0.1941426694393158 0.039298176765441895
0.7057158350944519 0.49738988280296326 -0.0867164134979248
-0.4211224317550659 0.13607341051101685 0.08641933649778366
0.31185078620910645 0.316531777381897 -0.0867164134979248
0.5251335501670837 0.366034597158432 -0.0867164134979248
0.05038418993353844 0.49771857261657715 -0.0867164134979248
-0.3904343247413635 -0.7590842843055725 0.08641933649778366
0.028761012479662895 0.24034680426120758 0.08641933649778366
-0.7158452868461609 -0.11803734302520752 0.08641933649778366
-0.022013487294316292 -0.28021398186683655 -0.0867164134979248
0.8776637315750122 -0.20662562549114227 -0.006539721041917801
0.44410741329193115 0.6180129051208496 0.08641933649778366
-0.04565073177218437 0.04882834479212761 0.08641933649778366
0.10628042370080948 0.3729375898838043 0.08641933649778366
0.5779213905334473 0.4970565438270569 0.08641933649778366
-0.8444347381591797 0.04716509208083153 -0.0867164134979248
-0.7300286293029785 0.19395747780799866 -0.0867164134979248
-0.8484737277030945 0.16756150126457214 0.08641933649778366
0.8027613759040833 0.34703513979911804 0.0715765580534935
-0.8541054129600525 0.07947172224521637 -0.0867164134979248
0.2979029715061188 -0.2451874166727066 -0.0867164134979248
0.5901414752006531 0.41464561223983765 -0.0867164134979248
0.41228947043418884 0.010086821392178535 -0.0867164134979248
-0.488352507352829 0.06822901964187622 -0.0867164134979248
-0.07780894637107849 0.6462900638580322 -0.0867164134979248
0.9853551387786865 -0.020098567008972168 -0.05044855922460556
-0.48593053221702576 -0.40874361991882324 -0.0867164134979248
0.49122318625450134 -0.0488172210752964 0.08641933649778366
0.018767839297652245 0.5577940940856934 -0.0867164134979248
0.37294426560401917 -0.7596606612205505 -0.0867164134979248
-0.09448879957199097 0.19472074508666992 -0.0867164134979248
-0.19577030837535858 0.7878151535987854 -0.0867164134979248
-0.4594965875148773 -0.038458529859781265 0.08641933649778366
-0.6880941987037659 0.5441170930862427 0.0661742314696312
-0.34914472699165344 0.37662672996520996 0.08641933649778366
0.19953516125679016 0.5063754916191101 -0.0867164134979248
-0.9709675908088684 -0.04349131137132645 0.03306322172284126
-0.6426551342010498 0.6228199005126953 -0.053581539541482925
0.3490094244480133 0.2275683730840683 0.08641933649778366
0.26082926988601685 0.8444937467575073 -0.0867164134979248
0.07257070392370224 0.07688184082508087 0.08641933649778366
-0.5837060213088989 -0.71424800157547 0.018875980749726295
0.05850142985582352 -0.7149130702018738 -0.0867164134979248
0.14151312410831451 -0.23032574355602264 0.08641933649778366
-0.49223122000694275 -0.293395459651947 -0.0867164134979248
-0.3408449590206146 0.5681501030921936 -0.0867164134979248
0.14833952486515045 -0.8603413701057434 0.03729967772960663
-0.390704482793808 0.8710162043571472 0.008344072848558426
0.2929700016975403 0.37814006209373474 -0.0867164134979248
0.2259073406457901 0.41080859303474426 0.08641933649778366
0.44154852628707886 0.4186718463897705 -0.0867164134979248
-0.31731075048446655 -0.8603413701057434 0.07299134880304337
0.5733439326286316 0.4875513017177582 -0.0867164134979248
0.266154408454895 -0.8030180335044861 0.08641933649778366
0.14015556871891022 -0.8603413701057434 -0.02645818516612053
-0.07655230909585953 -0.8361685276031494 -0.0867164134979248
0.522228479385376 0.4476504921913147 0.08641933649778366
-0.6133243441581726 0.09640668332576752 0.08641933649778366
-0.08737011253833771 -0.3350368142127991 0.08641933649778366
-0.3901822865009308 -0.8603413701057434 0.06625726073980331
-0.4224737584590912 -0.6729757785797119 -0.0867164134979248
-0.6410550475120544 0.42609795928001404 0.08641933649778366
-0.050855111330747604 -0.0715319961309433 0.08641933649778366
-0.0034923276398330927 0.8709604740142822 -0.0867164134979248
-0.2830386757850647 0.7508051991462708 0.08641933649778366
0.05340922996401787 0.6557567119598389 -0.0867164134979248
-0.3942367136478424 -0.555415153503418 -0.0867164134979248
0.5217826962471008 0.8337045311927795 0.019342154264450073
-0.930188000202179 -0.11412368714809418 -0.0174177885055542
-0.11534383893013 0.7635316848754883 0.08641933649778366
0.8236491084098816 0.23880605399608612 -0.0867164134979248
0.10684406012296677 0.16197329759597778 -0.0867164134979248
-0.14544685184955597 -0.3148135244846344 0.08641933649778366
-0.8939672112464905 -0.17685982584953308 0.06995896250009537
0.18699713051319122 0.6601775884628296 -0.0867164134979248
0.6070995330810547 0.08984239399433136 0.08641933649778366
0.5317506194114685 -0.6916248798370361 -0.0867164134979248
0.4288623631000519 0.4735258221626282 0.08641933649778366
-0.5776092410087585 0.6638470888137817 0.08641933649778366
-0.251354843378067 0.25199127197265625 0.08641933649778366
-0.8252143859863281 0.04858299717307091 -0.0867164134979248
0.9707806706428528 -0.04534238949418068 0.0032258937135338783
0.414823979139328 -0.2459847331047058 0.08641933649778366
-0.35375964641571045 0.18805402517318726 0.08641933649778366
0.2914852499961853 -0.8550095558166504 -0.0867164134979248
-0.5020220279693604 0.5044318437576294 -0.0867164134979248
0.5518423914909363 0.7816396355628967 0.029096124693751335
-0.7674047946929932 0.32148343324661255 0.08641933649778366
0.997423529624939 0.009870341047644615 0.03558224439620972
-0.3861130475997925 0.5712658762931824 -0.0867164134979248
-0.13451826572418213 -0.5377623438835144 -0.0867164134979248
0.2317192107439041 0.4803624749183655 0.08641933649778366
-0.49410945177078247 -0.10208538174629211 0.08641933649778366
0.11603698879480362 0.8528861403465271 -0.0867164134979248
0.8630234599113464 0.24265825748443604 -0.07649896293878555
-0.2972281873226166 0.30828478932380676 0.08641933649778366
-0.5185872316360474 -0.6544690132141113 -0.0867164134979248
-0.14727887511253357 -0.8286717534065247 0.08641933649778366
0.13009335100650787 0.8281650543212891 -0.0867164134979248
0.5264902114868164 0.7758722901344299 -0.0867164134979248
-0.3529099225997925 0.3771507441997528 0.08641933649778366
-0.15855401754379272 0.8710162043571472 0.05397288501262665
0.6589154005050659 0.5517222285270691 0.08641933649778366
0.029787523671984673 0.6226955056190491 -0.0867164134979248
-0.7376112937927246 0.36817318201065063 -0.0867164134979248
0.19498507678508759 -0.23933950066566467 0.08641933649778366
0.5017302632331848 0.6849244832992554 0.08641933649778366
-0.38974806666374207 -0.6898238658905029 0.08641933649778366
0.5301442742347717 0.594292163848877 -0.0867164134979248
-0.6777036190032959 0.17330695688724518 0.08641933649778366
-0.17654280364513397 -0.04559798538684845 0.08641933649778366
0.6355190277099609 0.6367074251174927 0.015151630155742168
-0.4992899000644684 -0.0018851585919037461 -0.0867164134979248
0.1274566352367401 -0.8289589881896973 0.08641933649778366
0.007899411022663116 -0.18779243528842926 0.08641933649778366
-0.6040895581245422 -0.2582695186138153 0.08641933649778366
0.03682328760623932 0.8710162043571472 0.0644068643450737
0.7661360502243042 -0.06929581612348557 0.08641933649778366
-0.796127200126648 -0.3463236093521118 0.007441454567015171
-0.29815489053726196 -0.8603413701057434 0.07890185713768005
-0.2782250940799713 -0.18081127107143402 -0.0867164134979248
0.6478605270385742 0.22624343633651733 0.08641933649778366
-0.055088043212890625 0.19606970250606537 0.08641933649778366
-0.5190876126289368 -0.686241626739502 -0.0867164134979248
-0.7380507588386536 0.45758986473083496 0.06028870865702629
0.49516481161117554 0.8710162043571472 -0.0762663334608078
-0.23983584344387054 0.19997330009937286 0.08641933649778366
-0.7597211003303528 -0.402791827917099 0.08641933649778366
-0.3526079058647156 -0.37348178029060364 -0.0867164134979248
0.017583640292286873 0.8710162043571472 0.06074903532862663
-0.4577227234840393 -0.7055017352104187 0.08641933649778366
0.2579261064529419 -0.46489962935447693 0.08641933649778366
-0.4002797305583954 -0.40797197818756104 0.08641933649778366
0.35621902346611023 -0.23946735262870789 -0.0867164134979248
-0.3359776437282562 -0.2217162400484085 -0.0867164134979248
0.05125146359205246 -0.3384089171886444 0.08641933649778366
0.23945818841457367 0.3155003488063812 -0.0867164134979248
0.30025947093963623 -0.8603413701057434 -0.009966632351279259
-0.2328406125307083 -0.25057196617126465 -0.0867164134979248
-0.4762912392616272 0.4686039090156555 0.08641933649778366
0.6596246361732483 0.5893593430519104 0.08641933649778366
0.18951593339443207 0.18328945338726044 0.08641933649778366
0.3817254304885864 0.6198264360427856 -0.0867164134979248
-0.7428684234619141 0.4492453932762146 0.0476011298596859
0.11236653476953506 -0.36398759484291077 0.08641933649778366
-0.2348075658082962 -0.6515992879867554 0.08641933649778366
-0.7820758819580078 0.38133615255355835 0.07162076979875565
-0.051117684692144394 -0.5384398102760315 -0.0867164134979248
0.2096717208623886 -0.25319382548332214 -0.0867164134979248
0.5648655891418457 0.17532315850257874 0.08641933649778366
0.17887119948863983 -0.8327452540397644 -0.0867164134979248
0.2519800066947937 -0.24608725309371948 0.08641933649778366
0.20219887793064117 -0.33450445532798767 -0.0867164134979248
0.9109512567520142 0.024613065645098686 0.08641933649778366
-0.01773931458592415 0.0970645323395729 0.08641933649778366
-0.24448572099208832 0.6436684727668762 -0.0867164134979248
-0.3832610845565796 0.22106891870498657 0.08641933649778366
-0.1830003261566162 0.49508243799209595 0.08641933649778366
-0.4119264483451843 0.6857874989509583 0.08641933649778366
-0.8563432097434998 0.0013756095431745052 -0.0867164134979248
0.5264122486114502 0.3546842038631439 -0.0867164134979248
-0.4681551158428192 -0.009962785989046097 0.08641933649778366
-0.2266300618648529 -0.637775182723999 0.08641933649778366
0.6557661890983582 -0.5909634232521057 0.06733934581279755
0.24913883209228516 0.0724651962518692 -0.0867164134979248
-0.09043252468109131 -0.017461294308304787 -0.0867164134979248
0.867591917514801 -0.10157491266727448 -0.0867164134979248
-0.3571392297744751 0.7684129476547241 -0.0867164134979248
0.6086931824684143 0.11559071391820908 0.08641933649778366
-0.0681450143456459 0.8710162043571472 -0.04508604109287262
-0.0706636905670166 0.1782902330160141 0.08641933649778366
0.879835844039917 0.21353833377361298 -0.056789278984069824
-0.4044220745563507 0.04769343137741089 0.08641933649778366
-0.07081539183855057 -0.7056472301483154 -0.0867164134979248
0.4743439853191376 0.35309332609176636 0.08641933649778366
0.6949657201766968 -0.42067059874534607 0.08641933649778366
-0.5678750276565552 0.35480284690856934 0.08641933649778366
-0.6115133166313171 0.12243562191724777 -0.0867164134979248
-0.5813344717025757 0.5497559309005737 0.08641933649778366
0.2851577699184418 0.7049206495285034 0.08641933649778366
-0.028093185275793076 -0.24895645678043365 0.08641933649778366
0.47212377190589905 0.7885466814041138 -0.0867164134979248
0.11407667398452759 -0.3749346137046814 0.08641933649778366
-0.5229640007019043 -0.8174762725830078 0.08641933649778366
0.21982510387897491 0.7532520890235901 0.08641933649778366
-0.442289263010025 -0.21429358422756195 0.08641933649778366
-0.23105137050151825 -0.8105483055114746 0.08641933649778366
-0.8787763714790344 0.20521515607833862 0.08641933649778366
-0.07848856598138809 -0.23482629656791687 -0.0867164134979248
-0.31761202216148376 -0.3361215889453888 0.08641933649778366
-0.8451117873191833 -0.17185847461223602 0.08641933649778366
-0.5148739218711853 -0.8334686160087585 0.08215048164129257
-0.16163520514965057 -0.8603413701057434 0.0013564868131652474
-0.48515579104423523 -0.28606852889060974 0.08641933649778366
0.42644405364990234 -0.06319482624530792 0.08641933649778366
0.15447472035884857 -0.13488523662090302 0.08641933649778366
-0.7378392815589905 -0.3736865222454071 -0.0867164134979248
0.8184869885444641 -0.30912280082702637 0.025000859051942825
-0.49251261353492737 -0.5504650473594666 -0.0867164134979248
0.3375003933906555 0.5631217360496521 0.08641933649778366
-0.3201912045478821 -0.26287445425987244 -0.0867164134979248
-0.5948777198791504 0.05990776792168617 -0.0867164134979248
0.4142652451992035 -0.681374728679657 0.08641933649778366
-0.49628275632858276 0.31018880009651184 -0.0867164134979248
-0.48088207840919495 0.029970213770866394 0.08641933649778366
0.7751809358596802 -0.0762714147567749 -0.0867164134979248
-0.8093568086624146 0.2526218295097351 0.08641933649778366
-0.2376866489648819 -0.34755682945251465 0.08641933649778366
0.7434936761856079 0.40280625224113464 -0.0867164134979248
-0.2459326833486557 0.11003977805376053 0.08641933649778366
0.8769418597221375 -0.20787601172924042 0.0052960277535021305
0.527621865272522 0.8235908150672913 -0.05988317355513573
-0.07636616379022598 0.2102033793926239 -0.0867164134979248
-0.3086395859718323 0.5200152397155762 -0.0867164134979248
0.31080684065818787 0.6311176419258118 0.08641933649778366
-0.21234342455863953 -0.3315359055995941 -0.0867164134979248
0.1878448873758316 0.499472439289093 -0.0867164134979248
0.02350260317325592 0.49963417649269104 -0.0867164134979248
0.7172970175743103 0.10874540358781815 0.08641933649778366
0.8553007245063782 0.2560344338417053 -0.07232959568500519
0.2518450915813446 -0.48995500802993774 -0.0867164134979248
-0.33664122223854065 0.31636419892311096 0.08641933649778366
0.6461668014526367 -0.18292950093746185 -0.0867164134979248
-0.3405888080596924 0.8710162043571472 -0.004187940154224634
-0.6985265016555786 -0.030697649344801903 0.08641933649778366
-0.10918062180280685 -0.2821258306503296 -0.0867164134979248
0.00026217816048301756 -0.7454215288162231 0.08641933649778366
0.4433820843696594 -0.023099279031157494 -0.0867164134979248
-0.13727577030658722 -0.2238338589668274 0.08641933649778366
0.533089280128479 0.5829911828041077 0.08641933649778366
-0.3732735812664032 -0.7894415855407715 0.08641933649778366
0.5178185701370239 0.3888739049434662 -0.0867164134979248
-0.3325996994972229 -0.6803697347640991 0.08641933649778366
-0.3073107898235321 -0.007491163909435272 -0.0867164134979248
-0.8833417296409607 0.00016885374498087913 -0.0867164134979248
0.7039108872413635 -0.19549807906150818 0.08641933649778366
0.2551058232784271 0.5969048738479614 -0.0867164134979248
-0.4370284080505371 -0.434694766998291 -0.0867164134979248
-0.09500027447938919 0.7603104710578918 0.08641933649778366
-0.4815438687801361 0.8014481663703918 0.08641933649778366
-0.9045783877372742 0.1501612663269043 -0.0867164134979248
-0.8060256242752075 -0.329179048538208 0.02670929953455925
-0.5950045585632324 -0.07106024771928787 0.08641933649778366
0.33140525221824646 -0.8067344427108765 -0.0867164134979248
0.4831405282020569 -0.01952233538031578 -0.0867164134979248
0.6076053380966187 0.31615597009658813 -0.0867164134979248
-0.5372890830039978 0.8053191900253296 0.02446625754237175
0.15454638004302979 -0.007768530864268541 0.08641933649778366
-0.2765880525112152 -0.07403632253408432 -0.0867164134979248
-0.5844453573226929 -0.7129673957824707 -0.06246758624911308
0.5608862638473511 -0.17828324437141418 0.08641933649778366
0.46681472659111023 0.35145148634910583 -0.0867164134979248
-0.13553081452846527 0.6440869569778442 -0.0867164134979248
-0.25124382972717285 -0.6761215925216675 -0.0867164134979248
0.13159707188606262 0.19839434325695038 0.08641933649778366
-0.09634978324174881 -0.4188423454761505 -0.0867164134979248
-0.027554303407669067 -0.15887726843357086 -0.0867164134979248
-0.4931458830833435 0.5169748663902283 -0.0867164134979248
-0.4875536859035492 0.344754159450531 0.08641933649778366
0.6370049118995667 -0.6233506202697754 0.08641933649778366
0.17190274596214294 -0.8603413701057434 -0.02140144258737564
-0.526110827922821 -0.8140057921409607 -0.009855113923549652
-0.412161648273468 -0.023611517623066902 0.08641933649778366
0.7683904767036438 0.2358270287513733 -0.0867164134979248
-0.9202844500541687 0.009754098020493984 0.08641933649778366
0.002016874495893717 0.7226587533950806 0.08641933649778366
0.5477086901664734 0.07148417085409164 -0.0867164134979248
0.3176794648170471 0.6284140944480896 -0.0867164134979248
-0.6788843274116516 -0.1449746936559677 0.08641933649778366
0.47583043575286865 0.6699866652488708 0.08641933649778366
-0.2514801621437073 -0.2209976762533188 -0.0867164134979248
-0.4320594370365143 -0.027772773057222366 -0.0867164134979248
0.7206128835678101 -0.4786457121372223 -0.056189753115177155
0.4163801968097687 -0.4154781103134155 -0.0867164134979248
-0.8085571527481079 -0.19159652292728424 -0.0867164134979248
-0.40423402190208435 0.418125182390213 0.08641933649778366
-0.40053069591522217 0.07148859649896622 0.08641933649778366
0.6828358173370361 0.5217683911323547 0.08641933649778366
-0.17563697695732117 -0.8603413701057434 0.0442521870136261
-0.06884760409593582 -0.4174971282482147 -0.0867164134979248
0.5300746560096741 -0.8086676001548767 -0.03390520438551903
0.6071528792381287 0.685839056968689 0.06728552281856537
-0.10885516554117203 0.2809770107269287 0.08641933649778366
-0.02065392956137657 -0.37079134583473206 0.08641933649778366
-0.9095350503921509 -0.05875120311975479 -0.0867164134979248
-0.2810024619102478 -0.007210408803075552 -0.0867164134979248
0.39827823638916016 0.5787011981010437 -0.0867164134979248
-0.09024522453546524 -0.49566102027893066 0.08641933649778366
-0.3703295588493347 -0.8603413701057434 0.017816027626395226
-0.5720869302749634 -0.5521677136421204 0.08641933649778366
0.41626498103141785 0.26309487223625183 -0.0867164134979248
0.5422298908233643 -0.5323665142059326 0.08641933649778366
0.3600503206253052 0.06345780193805695 -0.0867164134979248
0.1801694929599762 -0.4762763977050781 0.08641933649778366
-0.7706499099731445 -0.3904516100883484 0.03454279527068138
-0.4972713589668274 0.7066402435302734 -0.0867164134979248
0.5911830067634583 -0.17059671878814697 0.08641933649778366
0.4516856074333191 0.8710162043571472 -0.026855116710066795
0.6264244318008423 -0.34447699785232544 -0.0867164134979248
0.07624481618404388 -0.5559691786766052 0.08641933649778366
-0.4073840379714966 0.1555529534816742 0.08641933649778366
0.38275837898254395 0.25207892060279846 -0.0867164134979248
-0.7024685740470886 -0.38600125908851624 -0.0867164134979248
-0.005256198812276125 0.8710162043571472 -0.03533023223280907
-0.24786049127578735 -0.8521623611450195 -0.0867164134979248
-0.11051753163337708 0.2539009153842926 0.08641933649778366
-0.3708063066005707 0.8113993406295776 -0.0867164134979248
-0.24413560330867767 -0.6373482942581177 -0.0867164134979248
-0.2552337646484375 0.3133488893508911 0.08641933649778366
0.22831149399280548 0.1932103931903839 0.08641933649778366
0.2952611446380615 0.7054747939109802 0.08641933649778366
0.062417227774858475 -0.5153458714485168 -0.0867164134979248
0.2230294942855835 -0.19184885919094086 -0.0867164134979248
0.14962273836135864 0.4408726990222931 -0.0867164134979248
-0.06163569912314415 -0.038922324776649475 0.08641933649778366
0.8217029571533203 -0.27496597170829773 0.08641933649778366
0.7374235391616821 -0.44952884316444397 0.07789646834135056
-0.773939311504364 -0.11613188683986664 -0.0867164134979248
0.6542372703552246 -0.5936116576194763 -0.013783586211502552
-0.7249355912208557 -0.3127284646034241 0.08641933649778366
-0.3997659683227539 0.31100085377693176 -0.0867164134979248
0.3344734013080597 0.5980975031852722 0.08641933649778366
-0.4369315505027771 0.7964296936988831 -0.0867164134979248
-0.7913768291473389 0.3652264475822449 0.04623628780245781
-0.7359070777893066 0.46130290627479553 0.05339783430099487
0.7318046689033508 -0.4592609703540802 0.019587883725762367
-0.09982097893953323 -0.37366676330566406 0.08641933649778366
-0.46709614992141724 -0.027968771755695343 -0.0867164134979248
0.4412512481212616 0.5370097160339355 0.08641933649778366
0.06800025701522827 -0.277892529964447 0.08641933649778366
0.5018243193626404 -0.3222652077674866 0.08641933649778366
0.13480007648468018 0.6715704798698425 -0.0867164134979248
-0.8591471910476685 -0.13374918699264526 -0.0867164134979248
0.31814417243003845 0.8684290647506714 -0.0867164134979248
