-0.4772834777832031 0.1754954755306244 0.2061326801776886
0.4711456596851349 -0.6033103466033936 -0.08725021779537201
-0.0777352899312973 0.034644607454538345 0.7387307286262512
-0.36016929149627686 0.061651334166526794 -0.40477195382118225
0.4647355377674103 -0.9818789958953857 -0.27518582344055176
-0.4416017234325409 0.034644607454538345 0.17371879518032074
0.03261328488588333 0.37952789664268494 0.0978296548128128
-0.236557736992836 0.37952789664268494 0.6264983415603638
-0.01477504801005125 0.19701829552650452 0.6283439993858337
-0.4772834777832031 -0.5055032968521118 -0.06236343830823898
-0.0005998429260216653 0.26626062393188477 0.8885403275489807
0.25559359788894653 -0.6741734743118286 -0.17206192016601562
-0.4772834777832031 0.0803489163517952 0.3633092939853668
-0.16471457481384277 -0.2808155119419098 -0.194707453250885
-0.13485151529312134 0.1277022808790207 0.7543123364448547
-0.4772834777832031 0.1333180069923401 -0.3175376057624817
0.34181442856788635 -0.8477561473846436 -0.026446372270584106
-0.24460196495056152 0.37952789664268494 -0.3363383114337921
-0.4772834777832031 -0.8910399079322815 -0.30367666482925415
0.24138213694095612 0.37952789664268494 -0.24760496616363525
-0.03622870519757271 0.37952789664268494 -0.9188539385795593
0.26219287514686584 -0.6769811511039734 -0.08898824453353882
0.24081987142562866 0.2717726230621338 0.6561926603317261
-0.44131606817245483 0.034644607454538345 0.1410037875175476
-0.40126630663871765 0.034644607454538345 0.2245655655860901
-0.19050346314907074 0.05927196517586708 0.8885403275489807
-0.33914101123809814 -0.405328631401062 -0.013184375129640102
0.4711456596851349 0.22941569983959198 0.38211894035339355
-0.2242559939622879 0.2621104419231415 0.12544874846935272
-0.09450827538967133 0.21235397458076477 -0.23420260846614838
0.4711456596851349 0.19316715002059937 0.3475094437599182
0.016543002799153328 0.37952789664268494 -0.24830734729766846
-0.45887309312820435 0.37952789664268494 0.3758256435394287
-0.4772834777832031 -0.5622518062591553 -0.09524115920066833
-0.33762672543525696 -0.8772011995315552 -0.08898824453353882
0.23377947509288788 0.034644607454538345 0.06220794841647148
-0.06320115923881531 0.034644607454538345 0.7895751595497131
0.217582568526268 -0.21773818135261536 -0.39383944869041443
-0.4772834777832031 -0.24011260271072388 -0.2970826029777527
-0.4772834777832031 -0.1603260487318039 -0.16702653467655182
-0.09334518015384674 0.3187142014503479 -0.6949876546859741
0.29986515641212463 0.37952789664268494 0.2688850462436676
-0.18174582719802856 0.37952789664268494 0.5260363817214966
-0.10875814408063889 0.37952789664268494 0.4586723744869232
-0.4772834777832031 -0.8116690516471863 -0.2531413733959198
0.2659918963909149 0.2501966655254364 -0.8027321100234985
0.4711456596851349 0.3585693836212158 0.46960771083831787
-0.4772834777832031 -0.03200583532452583 -0.11786531656980515
0.047584276646375656 0.24060329794883728 -0.40477195382118225
-0.15171964466571808 -0.23449431359767914 -0.28945162892341614
-0.24116884171962738 0.2601180374622345 -0.6045802235603333
-0.4772834777832031 -0.2507319152355194 -0.4005381166934967
-0.4772834777832031 0.06212068349123001 -0.06508349627256393
0.24308274686336517 0.12285574525594711 -0.12001405656337738
-0.4772834777832031 -0.9888841509819031 -0.1955527365207672
0.326107919216156 0.16585151851177216 0.8885403275489807
-0.17181138694286346 0.1870366632938385 -0.40477195382118225
-0.25338953733444214 0.37952789664268494 -0.9040074348449707
-0.39700764417648315 0.37952789664268494 -0.22400175034999847
-0.14077889919281006 0.37952789664268494 -0.2588843107223511
0.25747552514076233 0.07354773581027985 0.19445040822029114
0.3852100968360901 -0.02135658822953701 0.026332158595323563
-0.13902369141578674 0.35564786195755005 -0.9220969080924988
-0.4772834777832031 -0.34421002864837646 0.025784529745578766
0.4711456596851349 -0.8257696032524109 -0.046604547649621964
-0.16204039752483368 -0.1768101006746292 0.024787122383713722
-0.4772834777832031 0.12870962917804718 0.5970261693000793
0.4711456596851349 0.21971729397773743 -0.3790647089481354
0.4711456596851349 -0.6588685512542725 -0.4031531512737274
-0.3451027572154999 -0.8083277940750122 -0.24933114647865295
-0.4772834777832031 0.17996211349964142 0.30951499938964844
0.007363719400018454 0.25205206871032715 0.6406102180480957
0.3415336310863495 0.339123398065567 -0.9220969080924988
-0.38908031582832336 0.37952789664268494 -0.4648846983909607
0.43185362219810486 -0.8439321517944336 -0.3963544964790344
-0.43157947063446045 0.034644607454538345 0.2231234759092331
0.4711456596851349 0.20309346914291382 -0.2694701552391052
-0.4772834777832031 0.23689746856689453 0.5806464552879333
0.08618184924125671 0.37952789664268494 -0.5349166393280029
-0.06867745518684387 0.29277628660202026 -0.12570743262767792
-0.4274429678916931 -0.8679301142692566 0.009434678591787815
0.159509539604187 0.2075117826461792 -0.40477195382118225
0.26941433548927307 0.12279290705919266 0.6896905899047852
-0.26173141598701477 -0.5903584957122803 -0.22459419071674347
-0.05178317800164223 -0.22894401848316193 -0.21435648202896118
0.1457720249891281 0.034644607454538345 0.5682443976402283
0.32619425654411316 -0.42468616366386414 -0.08898824453353882
-0.432911217212677 0.37952789664268494 0.2651241719722748
0.21945667266845703 0.2501966655254364 -0.5498167872428894
-0.4772834777832031 0.27156156301498413 -0.32158955931663513
-0.4772834777832031 -0.2541998624801636 -0.3201926350593567
-0.4772834777832031 0.057958848774433136 0.2543993592262268
0.3379151523113251 0.37952789664268494 0.09591583162546158
-0.472610205411911 0.034644607454538345 0.8309797048568726
-0.312004417181015 0.2501966655254364 -0.753812313079834
-0.2893802523612976 0.17489957809448242 0.6340935826301575
0.31231892108917236 -0.013728673569858074 -0.40477195382118225
0.32272717356681824 -0.7527573108673096 -0.16114594042301178
0.4711456596851349 0.35221201181411743 0.1767764687538147
-0.4772834777832031 -0.5935244560241699 -0.2651989161968231
0.09308625012636185 0.037462472915649414 -0.40477195382118225
-0.23631681501865387 0.2501966655254364 -0.5780439972877502
-0.19725294411182404 0.2501966655254364 -0.8637921810150146
-0.4772834777832031 0.26746296882629395 -0.2911401689052582
0.4711456596851349 0.3383316397666931 -0.4349968731403351
0.25559359788894653 -0.6869649887084961 -0.11528521031141281
0.3681027591228485 0.28345605731010437 0.7602378726005554
0.3058023154735565 0.2501966655254364 -0.442990779876709
-0.3427451550960541 -0.7935149073600769 -0.08898824453353882
-0.35749396681785583 0.034644607454538345 0.5564868450164795
-0.22739967703819275 0.08181434124708176 0.2701036334037781
-0.42581719160079956 0.37952789664268494 0.20161892473697662
0.4711456596851349 -0.05804222449660301 -0.1324353665113449
0.226767435669899 0.37952789664268494 0.7217785716056824
0.1397278755903244 0.08510007709264755 -0.40477195382118225
0.009491332806646824 0.28639647364616394 0.6778244972229004
0.05209974944591522 0.034644607454538345 0.16968952119350433
-0.4139402210712433 0.243235245347023 -0.40477195382118225
0.33750641345977783 0.2501966655254364 -0.7578349113464355
-0.31557172536849976 -0.33710333704948425 -0.3512418866157532
-0.19000697135925293 0.3772915303707123 0.2853119373321533
0.19046661257743835 0.18976551294326782 -0.05970299616456032
-0.011110620573163033 -0.029286354780197144 0.026332158595323563
-0.08248099684715271 0.007302090525627136 -0.40477195382118225
0.34827595949172974 0.1889987736940384 -0.05982469022274017
0.3931388556957245 0.3520697057247162 0.8885403275489807
-0.401982843875885 0.034644607454538345 0.06969344615936279
0.4711456596851349 -0.8609862923622131 -0.28491899371147156
0.23995526134967804 -0.23802174627780914 0.02610192447900772
-0.238763228058815 0.37952789664268494 0.8110430836677551
0.4711456596851349 -0.4041803479194641 -0.07327992469072342
-0.39525341987609863 0.034644607454538345 0.17286790907382965
0.25559359788894653 -0.8972386717796326 -0.10498912632465363
-0.06739060580730438 0.16884450614452362 0.8885403275489807
-0.3267256021499634 0.034644607454538345 0.7296001315116882
-0.3886969983577728 -0.997028648853302 -0.15471598505973816
0.3804437518119812 0.37952789664268494 0.8379068374633789
0.4419716000556946 -0.9930055141448975 -0.24314935505390167
0.23701007664203644 0.37952789664268494 -0.3012898862361908
-0.4473288059234619 0.37952789664268494 -0.32834210991859436
0.10702760517597198 0.2754710912704468 -0.6016075611114502
0.19975994527339935 0.37952789664268494 -0.5105011463165283
0.26590046286582947 0.2501966655254364 -0.47214940190315247
-0.3238455355167389 0.034644607454538345 0.8535356521606445
-0.03151876479387283 0.2775430381298065 -0.09311839938163757
0.14839307963848114 0.13527463376522064 0.6646016240119934
-0.26121288537979126 -0.46998924016952515 -0.282182902097702
-0.46190381050109863 0.13792532682418823 0.661571741104126
0.028024382889270782 0.2653692364692688 0.8885403275489807
-0.3022066354751587 0.37952789664268494 0.7267764210700989
-0.4136364758014679 -0.5128787159919739 0.026332158595323563
-0.3548811376094818 0.37952789664268494 0.015063663944602013
0.3396624028682709 0.28970974683761597 0.7466964721679688
-0.3869023025035858 -0.052106987684965134 0.026332158595323563
0.45223715901374817 -0.7626436948776245 -0.23007245361804962
-0.2549087405204773 0.37952789664268494 0.26070860028266907
-0.18299780786037445 0.37952789664268494 0.7940695285797119
0.44669607281684875 0.2602304220199585 0.8885403275489807
-0.26173141598701477 -0.8950541615486145 -0.27293723821640015
0.2432509809732437 -0.4040638208389282 -0.14346730709075928
0.2641053795814514 0.2501966655254364 -0.9024829864501953
0.01661560870707035 0.37952789664268494 0.2581687867641449
-0.41954413056373596 0.37952789664268494 -0.1664554625749588
-0.14934642612934113 0.37952789664268494 0.6806100010871887
-0.2324409931898117 0.29277148842811584 -0.1653437614440918
-0.23822283744812012 -0.04940399155020714 0.026332158595323563
0.25559359788894653 -0.872690737247467 -0.25209200382232666
-0.2781578302383423 -0.15639685094356537 0.026332158595323563
0.27700352668762207 -0.3881833255290985 -0.08898824453353882
-0.4772834777832031 0.041554972529411316 0.16017672419548035
0.4711456596851349 0.17718428373336792 0.011673379689455032
0.1459026038646698 -0.044129323214292526 0.026332158595323563
-0.11007952690124512 0.07834604382514954 -0.40477195382118225
0.07836505770683289 -0.17504218220710754 -0.28945162892341614
-0.09123516827821732 0.034644607454538345 0.6923843622207642
-0.25940948724746704 -0.44950437545776367 -0.2104138880968094
-0.2028086632490158 0.03993888944387436 0.2824515998363495
-0.4772834777832031 -0.35453858971595764 -0.18433523178100586
0.02919989451766014 0.15181070566177368 0.7846202254295349
0.2589532136917114 -0.19584719836711884 0.026332158595323563
0.32172319293022156 0.37952789664268494 -0.15046551823616028
-0.35460370779037476 -0.3268086612224579 0.026332158595323563
0.35789942741394043 -0.8166910409927368 -0.24740728735923767
0.28078314661979675 0.37952789664268494 0.8882964253425598
0.41648125648498535 0.37952789664268494 0.42597514390945435
0.36017265915870667 0.2501966655254364 -0.7773245573043823
-0.1763874590396881 0.37952789664268494 -0.9214274287223816
-0.39295122027397156 0.2950655221939087 -0.15216054022312164
-0.4772834777832031 0.0808715969324112 -0.10502620786428452
-0.417126327753067 -0.8579471111297607 0.013348417356610298
0.4711456596851349 -0.45271819829940796 0.012236466631293297
-0.4772834777832031 0.26272571086883545 -0.49576571583747864
0.08192604780197144 0.37952789664268494 -0.06555169075727463
0.4711456596851349 0.277723491191864 0.5104315280914307
-0.45570820569992065 -0.3161373734474182 0.026332158595323563
0.4711456596851349 0.2557201683521271 0.16564348340034485
0.4149934649467468 0.14731919765472412 0.6511421203613281
-0.003048797370865941 0.009999493137001991 -0.40477195382118225
0.05731423199176788 0.2501966655254364 -0.6142110824584961
0.4664202630519867 0.37952789664268494 0.24351517856121063
-0.03847678005695343 0.034644607454538345 0.5121168494224548
-0.27995020151138306 0.23237943649291992 -0.0617610439658165
-0.46094292402267456 0.37952789664268494 0.5515155792236328
0.4711456596851349 0.06404078006744385 0.67037034034729
-0.39621710777282715 0.37952789664268494 0.5504353046417236
0.37651947140693665 0.3478505611419678 -0.9220969080924988
0.41662558913230896 -0.245131716132164 -0.40477195382118225
0.4711456596851349 0.3356950879096985 0.1952022910118103
0.3839399218559265 0.2501966655254364 -0.9111633896827698
0.1442255973815918 0.10969100147485733 0.8885403275489807
0.46961739659309387 -0.9988932609558105 -0.168732151389122
0.05472228676080704 0.034644607454538345 0.1654234379529953
-0.10174503922462463 0.37952789664268494 -0.5081165432929993
-0.43512770533561707 0.37952789664268494 0.4394262731075287
-0.15727141499519348 0.15893052518367767 0.2852056920528412
0.2136518806219101 0.07708709686994553 -0.40477195382118225
0.19911998510360718 0.16650791466236115 0.11591169238090515
-0.09046182036399841 0.37952789664268494 -0.4470018744468689
-0.08372623473405838 0.2476561814546585 0.7945255637168884
-0.4772834777832031 0.3694341480731964 0.45097678899765015
0.4711456596851349 0.13983243703842163 0.33112266659736633
0.24239985644817352 0.37952789664268494 0.07267045974731445
0.08198993653059006 0.37828969955444336 -0.6573248505592346
0.26285412907600403 0.034644607454538345 0.8003526329994202
0.4711456596851349 0.30914998054504395 0.2739429771900177
0.055333804339170456 0.2588167190551758 0.7874380946159363
-0.4772834777832031 -0.819861114025116 -0.12024330347776413
0.21205471456050873 -0.22432078421115875 -0.08898824453353882
-0.4091087579727173 0.034644607454538345 0.43354278802871704
-0.4063066244125366 0.055965859442949295 -0.40477195382118225
0.4711456596851349 0.19686275720596313 -0.33098939061164856
-0.4619661271572113 0.034644607454538345 0.715214729309082
0.3259197771549225 -0.4836437702178955 -0.28945162892341614
-0.1787230223417282 0.2501966655254364 -0.40589097142219543
0.4462662935256958 0.11948435753583908 -0.13565446436405182
0.4410182535648346 0.034644607454538345 0.8325208425521851
0.4322143495082855 0.37952789664268494 0.158311665058136
-0.18585781753063202 0.1250227689743042 -0.40477195382118225
-0.25986701250076294 0.034644607454538345 0.5363233685493469
0.23660099506378174 0.034644607454538345 0.46545493602752686
-0.21703583002090454 0.034644607454538345 0.8835460543632507
0.34181442856788635 -0.8732098937034607 -0.3026113510131836
0.08053699135780334 0.11882802098989487 -0.14446964859962463
-0.2410116344690323 0.2501966655254364 -0.5023544430732727
0.3109925389289856 0.1472059190273285 0.8885403275489807
-0.45315787196159363 0.1214544028043747 -0.16712932288646698
-0.3645051121711731 0.13908374309539795 -0.09031660854816437
0.45058631896972656 -0.9693322777748108 -0.2995843291282654
0.20154023170471191 0.19130714237689972 0.2806638479232788
-0.41015681624412537 0.034644607454538345 0.3601420819759369
0.4711456596851349 0.3757818341255188 0.2129846215248108
-0.18185174465179443 0.034644607454538345 0.8432304859161377
0.4711456596851349 0.2655602991580963 -0.5596955418586731
-0.3275408148765564 -0.6953091621398926 -0.08898824453353882
0.4711456596851349 0.0474371537566185 0.8210266828536987
-0.10751602798700333 0.28766360878944397 0.7517091631889343
-0.091762974858284 0.2879391610622406 0.6812891960144043
-0.4772834777832031 0.3169674277305603 -0.8927934765815735
0.3151935040950775 0.37952789664268494 0.3991044759750366
0.11473478376865387 -0.19478878378868103 -0.08898824453353882
-0.05203799903392792 0.37952789664268494 0.1945081353187561
0.2555263340473175 0.17152239382266998 -0.40477195382118225
-0.13356360793113708 0.2577269673347473 0.7879839539527893
-0.3878434896469116 0.13302524387836456 -0.09836947172880173
0.19438248872756958 0.37952789664268494 0.817857027053833
0.4667063355445862 0.2938040792942047 -0.13264915347099304
0.3327336609363556 -0.9368326663970947 -0.08898824453353882
-0.2746136784553528 -0.8555537462234497 -0.15558026731014252
-0.24198107421398163 -0.3838266134262085 -0.09060399234294891
-0.34844279289245605 0.2074548304080963 -0.40477195382118225
-0.2572069764137268 0.37952789664268494 -0.6011044979095459
0.05963277444243431 0.27224400639533997 0.7756098508834839
-0.36709901690483093 -0.41651028394699097 0.026332158595323563
-0.4297749102115631 0.37952789664268494 0.8300939798355103
0.07395327091217041 0.034644607454538345 0.633642315864563
0.34181442856788635 -0.7184293866157532 -0.3753628730773926
-0.3887762427330017 0.22160907089710236 -0.059211693704128265
0.4711456596851349 -0.3173900842666626 -0.4043886959552765
0.25559359788894653 -0.8715459108352661 -0.12821681797504425
0.4711456596851349 0.3687344789505005 0.5107477903366089
-0.26027780771255493 0.36319971084594727 -0.6390078067779541
0.4711456596851349 0.061201635748147964 0.056149739772081375
-0.16687417030334473 0.2501966655254364 -0.8403587341308594
-0.36643823981285095 0.034644607454538345 0.43912187218666077
0.4711456596851349 -0.0905480831861496 -0.2503238022327423
0.33650729060173035 0.27132469415664673 0.7763401865959167
-0.3687766194343567 0.15035177767276764 0.7834203839302063
0.03636215627193451 0.07445518672466278 0.8885403275489807
0.4711456596851349 -0.8460740447044373 -0.3674866557121277
-0.3479522466659546 -0.8825958967208862 -0.054534561932086945
0.40692201256752014 -0.4590994715690613 -0.40477195382118225
0.12328733503818512 0.37952789664268494 -0.017549702897667885
0.219588965177536 0.2828311324119568 -0.19158218801021576
0.30620941519737244 0.29958635568618774 0.8885403275489807
0.11248448491096497 0.034644607454538345 0.3002627193927765
-0.4772834777832031 0.06001202389597893 0.17641812562942505
-0.08161704242229462 -0.1703823208808899 -0.08898824453353882
0.22339844703674316 0.2888769209384918 -0.9220969080924988
-0.4772834777832031 -0.8747992515563965 -0.2971656322479248
0.08220824599266052 0.2203088253736496 0.21242547035217285
0.3590395152568817 -0.45758914947509766 -0.40477195382118225
0.3829260766506195 0.2501966655254364 -0.7150433659553528
-0.4772834777832031 -0.5240836143493652 -0.35460996627807617
-0.01131503563374281 0.1610124409198761 0.8885403275489807
-0.4772834777832031 0.37127864360809326 -0.08366291970014572
-0.4772834777832031 0.14787472784519196 -0.3588809669017792
0.06632938981056213 0.15292559564113617 -0.40477195382118225
0.28850504755973816 0.37952789664268494 -0.8402417302131653
0.4475513994693756 0.37952789664268494 -0.007507862988859415
0.00536248879507184 0.37952789664268494 0.27663934230804443
0.06292323768138885 0.37952789664268494 0.3617349863052368
0.21765673160552979 0.3182627558708191 0.12520954012870789
0.30522534251213074 0.034644607454538345 0.4483858346939087
-0.01919020526111126 0.37952789664268494 -0.024528518319129944
-0.06351592391729355 0.2866278886795044 0.6780834794044495
0.4711456596851349 -0.17718452215194702 -0.3810073137283325
0.41493624448776245 0.2950344979763031 0.723630964756012
0.3855307698249817 -0.23229865729808807 -0.40477195382118225
-0.03526484593749046 -0.13941723108291626 0.016577044501900673
-0.4772834777832031 0.2694859802722931 0.13609404861927032
0.32977861166000366 0.2501966655254364 -0.8293720483779907
0.14343300461769104 0.37952789664268494 -0.906675398349762
-0.1275080293416977 -0.25616973638534546 -0.13752683997154236
0.07918296754360199 0.37952789664268494 0.6468276977539062
-0.4772834777832031 0.3161879777908325 -0.3199416697025299
-0.36379286646842957 0.23511721193790436 -0.40477195382118225
-0.035063061863183975 0.37952789664268494 0.25353318452835083
-0.4772834777832031 0.27962392568588257 -0.06245676428079605
0.07108504325151443 0.034644607454538345 0.06485005468130112
-0.4116511940956116 -0.447524756193161 0.026332158595323563
-0.3479522466659546 -0.8880677819252014 -0.010829322971403599
-0.3243614137172699 0.034644607454538345 0.034193430095911026
-0.09393787384033203 0.06826099753379822 0.16499322652816772
-0.4772834777832031 0.32384780049324036 -0.7911165952682495
0.4711456596851349 0.2375003546476364 0.5249994993209839
-0.4772834777832031 0.2670856714248657 -0.47572553157806396
0.3067265450954437 0.034644607454538345 0.5276889204978943
0.28044214844703674 0.2501966655254364 -0.48899343609809875
0.28783664107322693 0.12042239308357239 0.7321473360061646
-0.42106398940086365 -0.008396443910896778 0.026332158595323563
0.36734703183174133 -0.16744214296340942 -0.40477195382118225
0.4692195951938629 -0.6108407378196716 -0.40477195382118225
-0.07870712131261826 0.37952789664268494 0.47025826573371887
0.29947227239608765 -0.5503888130187988 -0.08898824453353882
0.3966695964336395 0.034644607454538345 0.36808088421821594
0.24757914245128632 0.37952789664268494 -0.88252854347229
-0.23828548192977905 -0.3754573464393616 -0.27059057354927063
-0.3479522466659546 -0.7187944054603577 -0.30113711953163147
0.4711456596851349 -0.20354241132736206 -0.25988641381263733
-0.2748090624809265 -0.08622119575738907 0.026332158595323563
0.24398542940616608 0.034644607454538345 0.5987907648086548
0.05289693921804428 0.034644607454538345 0.801224410533905
-0.20962673425674438 0.36219555139541626 -0.9220969080924988
0.15037745237350464 0.034644607454538345 0.44548800587654114
0.3064568340778351 0.2592117488384247 0.7871578931808472
-0.3232824504375458 -0.10498328506946564 0.026332158595323563
-0.4772834777832031 0.15393224358558655 0.2269698828458786
-0.21471096575260162 0.2245737463235855 0.629754364490509
-0.2330177277326584 0.2501966655254364 -0.834383487701416
0.14048461616039276 0.034644607454538345 0.8250113725662231
-0.41883713006973267 0.37952789664268494 0.5872652530670166
-0.34298640489578247 -0.42528411746025085 -0.08301612734794617
0.32688701152801514 -0.38242194056510925 -0.3520253300666809
0.4711456596851349 -0.8807264566421509 -0.2096841186285019
0.42882010340690613 -0.8121513724327087 -0.12994907796382904
0.3220572769641876 0.37952789664268494 0.5638183355331421
-0.04879235103726387 -0.1408931165933609 -0.2983531653881073
-0.4772834777832031 -0.7656394243240356 -0.27952417731285095
0.14515548944473267 0.37952789664268494 -0.8370470404624939
-0.02250451222062111 0.034644607454538345 0.2838354706764221
-0.0968029722571373 0.37952789664268494 0.02598845213651657
-0.38698863983154297 0.2798655927181244 -0.09667108207941055
0.10661613941192627 0.11924585700035095 0.7083711624145508
-0.10182569921016693 0.37952789664268494 -0.1729586124420166
0.014810323715209961 -0.14341673254966736 -0.08898824453353882
-0.08717752993106842 0.034644607454538345 0.22382569313049316
-0.08316799998283386 0.23388148844242096 0.8885403275489807
-0.08946672081947327 0.2951817810535431 0.7206022143363953
-0.3986307680606842 -0.7732254266738892 -0.23965948820114136
0.4711456596851349 -0.7406364679336548 -0.07275769859552383
-0.2878858745098114 0.37952789664268494 0.5403414964675903
0.34181442856788635 -0.8266727924346924 -0.39024415612220764
0.24291755259037018 0.31048765778541565 0.15076573193073273
0.2884141802787781 0.2501966655254364 -0.471478670835495
0.04819900542497635 0.37952789664268494 -0.3982928991317749
-0.2771937847137451 0.034644607454538345 0.05051993206143379
-0.2819877564907074 -0.9994456171989441 -0.17664334177970886
0.2123004049062729 -0.2482965737581253 -0.28945162892341614
-0.30603575706481934 0.17401856184005737 0.6343448758125305
0.4010776877403259 0.034644607454538345 0.5219863653182983
0.13338977098464966 -0.2058740258216858 -0.08898824453353882
0.3505326807498932 0.1467832773923874 -0.40477195382118225
0.08312532305717468 0.3482915461063385 0.17970669269561768
0.030352052301168442 0.37952789664268494 -0.48780322074890137
-0.4560517370700836 -0.2217199206352234 0.026332158595323563
0.2740342319011688 0.37952789664268494 0.6397702097892761
-0.26173141598701477 -0.890140175819397 -0.23687447607517242
-0.3746528625488281 0.0017144243465736508 -0.40477195382118225
0.040356725454330444 0.034644607454538345 0.6550922989845276
-0.3334791958332062 0.034644607454538345 0.4267355799674988
-0.19209831953048706 0.37634041905403137 -0.7498390078544617
0.08433635532855988 0.37952789664268494 -0.4208827018737793
0.25559359788894653 -0.6084727048873901 -0.27289730310440063
-0.35367026925086975 0.37952789664268494 0.4348985552787781
-0.19441793859004974 0.37952789664268494 0.08961094170808792
-0.2567611336708069 0.29392725229263306 -0.16066104173660278
0.13748778402805328 0.23586753010749817 0.799373984336853
0.15139411389827728 0.14664900302886963 0.6518795490264893
-0.037502311170101166 0.2841140031814575 -0.9220969080924988
-0.007846471853554249 0.17581577599048615 0.798675537109375
-0.4071647524833679 -0.23667491972446442 0.026332158595323563
-0.39910653233528137 0.21923983097076416 0.8885403275489807
-0.0540333092212677 0.37952789664268494 -0.7418689727783203
0.45889317989349365 0.25114133954048157 -0.22233188152313232
-0.4442252516746521 -0.7503368258476257 -0.21140536665916443
0.1769580990076065 0.2501966655254364 -0.45428091287612915
-0.24404776096343994 -0.38897621631622314 -0.27121058106422424
-0.12593461573123932 0.2270258069038391 -0.40477195382118225
-0.15642349421977997 0.034644607454538345 0.7456584572792053
-0.13433842360973358 0.03665303438901901 0.2766145169734955
-0.4772834777832031 0.3326058089733124 0.5317103266716003
-0.02755560912191868 0.034644607454538345 0.10117118060588837
0.36436834931373596 0.17347431182861328 0.797501802444458
-0.04037933796644211 0.2501966655254364 -0.9203521013259888
0.285186231136322 0.37952789664268494 0.041906122118234634
-0.4772834777832031 0.13816267251968384 0.4336613714694977
-0.4772834777832031 0.10899220407009125 0.14248140156269073
-0.059210870414972305 0.37952789664268494 -0.5425449013710022
-0.4772834777832031 0.23979726433753967 0.08317934721708298
0.29307395219802856 -0.7893083691596985 -0.08898824453353882
0.4711456596851349 0.22103796899318695 -0.400833398103714
-0.39288330078125 0.1897152066230774 0.8885403275489807
0.3602597415447235 0.2501966655254364 -0.5495116114616394
-0.04130348190665245 0.18109965324401855 0.8004228472709656
-0.0653916746377945 0.37952789664268494 -0.7821062207221985
-0.0029865517280995846 0.2501966655254364 -0.43588823080062866
0.15492673218250275 0.37952789664268494 0.6299181580543518
-0.24129481613636017 0.034644607454538345 0.41232767701148987
0.34181442856788635 -0.5034275054931641 -0.29461926221847534
-0.21869006752967834 0.37952789664268494 0.5671057105064392
0.3306225836277008 -0.3509279191493988 -0.40477195382118225
-0.4772834777832031 0.2024526298046112 0.4377065896987915
-0.07558391243219376 0.32704734802246094 0.8885403275489807
0.33518606424331665 0.37952789664268494 0.2653598189353943
-0.4716854989528656 0.37952789664268494 0.6938496232032776
0.4711456596851349 -0.10221406072378159 -0.28426510095596313
0.36242616176605225 -0.03838365897536278 0.026332158595323563
0.08822912722826004 -0.2338707447052002 -0.28945162892341614
0.03747599944472313 -0.22738832235336304 -0.18080992996692657
-0.17597779631614685 0.034644607454538345 0.3691662847995758
-0.23045110702514648 -0.2234463393688202 -0.029993463307619095
-0.3008086085319519 -0.8128647804260254 -0.24828745424747467
0.273476243019104 -0.1909039467573166 0.026332158595323563
-0.09988334774971008 0.29261937737464905 0.8885403275489807
0.4711456596851349 0.028686881065368652 -0.3589784801006317
-0.4318245053291321 -0.3128143548965454 0.026332158595323563
-0.38252654671669006 0.034644607454538345 0.029629116877913475
0.1963108777999878 0.37952789664268494 -0.3906826674938202
-0.03509446978569031 0.37952789664268494 -0.33102482557296753
0.2362017035484314 0.20383833348751068 -0.40477195382118225
0.4711456596851349 0.10128111392259598 0.45811259746551514
-0.389341801404953 -0.703762948513031 0.026332158595323563
-0.4139637351036072 0.37952789664268494 0.3813226521015167
0.08055631816387177 0.2244528979063034 0.8885403275489807
-0.4772834777832031 0.32079628109931946 -0.48249876499176025
-0.45202839374542236 0.034644607454538345 0.8531384468078613
0.02608926221728325 0.12872499227523804 0.6753696799278259
-0.3479522466659546 -0.9266206622123718 -0.060318462550640106
-0.1571691334247589 0.32664400339126587 -0.5772430300712585
-0.19355538487434387 0.034644607454538345 0.5413283705711365
0.19922827184200287 0.32609131932258606 0.8885403275489807
0.1788540929555893 -0.18978656828403473 0.018578603863716125
-0.047512494027614594 0.034644607454538345 0.17803321778774261
-0.16927304863929749 0.2501966655254364 -0.4078809320926666
-0.4772834777832031 -0.2159925401210785 -0.35867276787757874
-0.19560594856739044 -0.007534709759056568 0.026332158595323563
0.07265886664390564 0.37952789664268494 -0.9139926433563232
0.40008190274238586 0.37952789664268494 -0.8134758472442627
0.12125091254711151 -0.14018262922763824 0.026332158595323563
-0.0017304584616795182 -0.16075654327869415 -0.08898824453353882
0.1569869965314865 -0.0121025200933218 -0.40477195382118225
0.3912714123725891 -0.48897674679756165 0.026332158595323563
0.3271789252758026 -0.9877594113349915 -0.11781811714172363
0.4711456596851349 0.26051685214042664 -0.7240628004074097
0.4711456596851349 -0.6696069836616516 -0.3439929485321045
0.16015535593032837 0.16205967962741852 0.28616365790367126
-0.09870611131191254 0.295777291059494 0.15575523674488068
-0.38490980863571167 -0.5662433505058289 -0.40477195382118225
0.4711456596851349 0.2933826744556427 0.21758469939231873
-0.29576992988586426 0.034644607454538345 0.6201494336128235
0.3094821274280548 0.37952789664268494 -0.751079797744751
-0.26409706473350525 -0.421570360660553 -0.08898824453353882
-0.18576785922050476 0.1331498622894287 -0.09854905307292938
-0.3479522466659546 -0.8525460362434387 0.008181381039321423
0.22228099405765533 0.2700125575065613 -0.0842849612236023
-0.4772834777832031 -0.4050118923187256 -0.2633870542049408
-0.1890815943479538 0.2721182107925415 -0.7505606412887573
0.032926566898822784 0.28180909156799316 0.7629401683807373
-0.12460542470216751 0.33439263701438904 0.8885403275489807
0.2724355161190033 0.19049790501594543 -0.40477195382118225
-0.3230597674846649 0.30137699842453003 -0.9220969080924988
0.05079424008727074 -0.1422051191329956 -0.06168153136968613
-0.26173141598701477 -0.9515231847763062 -0.1416284739971161
-0.4513585865497589 -0.4934835135936737 0.026332158595323563
0.4374396800994873 0.29507699608802795 0.7132771611213684
-0.19596675038337708 0.2501966655254364 -0.444920152425766
-0.353753000497818 0.17602099478244781 0.8885403275489807
-0.06460887938737869 0.37952789664268494 0.7796295285224915
0.4533384442329407 -0.8138931393623352 -0.24880251288414001
-0.46360886096954346 0.37952789664268494 0.7769626379013062
0.1439807265996933 0.37952789664268494 0.4165501892566681
-0.34206250309944153 0.05281962454319 0.8885403275489807
-0.1096157655119896 0.37952789664268494 -0.12474126368761063
-0.33043962717056274 0.37952789664268494 0.2297905832529068
0.0478493757545948 0.15604136884212494 -0.40477195382118225
0.17298927903175354 0.2611570656299591 -0.9220969080924988
-0.3842794597148895 -0.5513085126876831 -0.40477195382118225
-0.3479522466659546 -0.8246777057647705 -0.3921685218811035
0.4711456596851349 -0.07712771743535995 -0.1340690553188324
-0.16796399652957916 0.37952789664268494 -0.8138755559921265
-0.4772834777832031 0.34963515400886536 0.3820126950740814
-0.4772834777832031 -0.3486068546772003 0.0034186525736004114
0.45981064438819885 0.37952789664268494 -0.2570941746234894
0.4711456596851349 -0.27644413709640503 -0.35417991876602173
-0.38417962193489075 0.13774842023849487 -0.2004152089357376
0.4221975803375244 0.034644607454538345 0.2530866861343384
0.20503897964954376 -0.20790544152259827 -0.06271717697381973
0.4711456596851349 0.21902473270893097 0.8100637793540955
0.28922954201698303 0.26612555980682373 -0.9220969080924988
-0.04246189072728157 0.27429649233818054 -0.202924445271492
-0.08869510143995285 0.1328752189874649 0.7633151412010193
0.42948004603385925 0.034644607454538345 0.6978838443756104
0.25545841455459595 0.3544277846813202 -0.6830704808235168
0.1629646271467209 0.37952789664268494 -0.060300618410110474
-0.23387320339679718 0.31675025820732117 0.13300783932209015
0.0020757277961820364 -0.13797250390052795 -0.348197340965271
0.4711456596851349 -0.006708373781293631 -0.024228638038039207
-0.26173141598701477 -0.8935627937316895 -0.2007332593202591
0.3651062548160553 -0.9236339330673218 -0.35373926162719727
0.23109106719493866 0.2501966655254364 -0.8736199140548706
-0.4772834777832031 0.34367823600769043 -0.3393250107765198
0.20941779017448425 0.37952789664268494 -0.4807202219963074
0.2570018172264099 0.32264286279678345 -0.656166136264801
0.4711456596851349 0.3215784728527069 0.08802726119756699
0.1445169299840927 -0.17106874287128448 0.010313927195966244
0.3583753705024719 -0.5307497382164001 0.026332158595323563
0.3781380355358124 -0.6944525837898254 0.026332158595323563
-0.056733302772045135 0.023594055324792862 0.026332158595323563
-0.4772834777832031 0.26857954263687134 -0.5672436952590942
-0.1054147258400917 0.36150750517845154 -0.9220969080924988
-0.4396797716617584 0.37952789664268494 -0.45592668652534485
0.4711456596851349 0.1632642298936844 0.26754969358444214
-0.41711220145225525 0.009291686117649078 -0.40477195382118225
-0.15313361585140228 0.08376309275627136 0.8885403275489807
-0.1118171364068985 0.28629907965660095 0.6772518754005432
-0.4049086272716522 -0.5283867716789246 0.026332158595323563
0.4320610761642456 0.11898191273212433 -0.13958317041397095
0.4711456596851349 0.14289413392543793 0.2109651267528534
-0.14750142395496368 0.37952789664268494 -0.39617353677749634
0.4711456596851349 -0.716062068939209 -0.35767701268196106
0.09974101185798645 0.37952789664268494 0.8790479302406311
-0.11470846831798553 -0.24942657351493835 -0.09755436331033707
-0.4772834777832031 -0.5567401647567749 -0.32397618889808655
0.3923180103302002 0.0970359817147255 -0.40477195382118225
0.24400237202644348 0.04458512365818024 0.24580979347229004
0.2578282058238983 0.1376333385705948 -0.40477195382118225
0.40830203890800476 -0.17921094596385956 -0.40477195382118225
-0.26173141598701477 -0.6414536833763123 -0.23340418934822083
-0.3278276026248932 0.37952789664268494 -0.15591509640216827
0.36741888523101807 -0.9956756830215454 -0.1464596837759018
-0.2727043926715851 0.37952789664268494 0.8507029414176941
-0.4772834777832031 -0.1292211264371872 0.01911028102040291
-0.18453018367290497 0.00540808355435729 0.026332158595323563
-0.30394309759140015 0.22755171358585358 -0.06019429862499237
-0.36398574709892273 0.28588438034057617 -0.10699594765901566
0.42695653438568115 -0.36482900381088257 -0.40477195382118225
-0.0413457453250885 0.37952789664268494 0.6489229798316956
0.2392500936985016 -0.23731793463230133 -0.29475879669189453
-0.3719322979450226 -0.7750190496444702 0.026332158595323563
0.27993062138557434 -0.7130987048149109 -0.08898824453353882
-0.0889904648065567 0.29978108406066895 -0.6799201965332031
0.3227211833000183 0.37952789664268494 -0.38516947627067566
-0.3022194504737854 0.37952789664268494 -0.653475821018219
-0.46253055334091187 0.29269805550575256 -0.1671019345521927
0.2941744923591614 0.034644607454538345 0.3354121148586273
0.08414065837860107 0.37952789664268494 0.009034974500536919
0.41879889369010925 0.22776439785957336 0.8885403275489807
-0.2517377436161041 -0.04073755815625191 0.026332158595323563
-0.40683814883232117 0.23759429156780243 -0.06348385661840439
0.4711456596851349 0.36744001507759094 0.5670167803764343
0.10973960161209106 0.034644607454538345 0.29413124918937683
0.1850738674402237 0.13010618090629578 0.7591071128845215
0.16173361241817474 -0.1798548698425293 -0.30497559905052185
0.4407333433628082 0.034644607454538345 0.11676511913537979
-0.4772834777832031 0.36247366666793823 0.4628238379955292
0.06742316484451294 0.034644607454538345 0.6346675157546997
-0.19172599911689758 0.034644607454538345 0.48422545194625854
0.2853909730911255 0.37952789664268494 -0.2613450288772583
-0.2917977273464203 0.034644607454538345 0.33156800270080566
0.4571372866630554 -0.1619807332754135 -0.40477195382118225
-0.3113408386707306 0.034644607454538345 0.18689264357089996
0.15160542726516724 -0.2754893898963928 -0.12362873554229736
-0.2893409729003906 -0.9806104898452759 -0.09992486983537674
-0.1383514106273651 0.20689374208450317 0.11888319253921509
0.06624716520309448 0.33139118552207947 -0.9220969080924988
-0.10869277268648148 0.13519221544265747 0.1413472592830658
0.46338126063346863 0.37952789664268494 0.7976832389831543
-0.34642907977104187 -0.5102249383926392 -0.08898824453353882
-0.4772834777832031 -0.23787324130535126 -0.2797052264213562
-0.12053702026605606 0.05165219306945801 -0.40477195382118225
0.1002630665898323 -0.1537090390920639 -0.01753481850028038
-0.4221712648868561 0.2501966655254364 -0.5231272578239441
-0.45651155710220337 0.28724566102027893 0.8885403275489807
0.10442636162042618 0.37952789664268494 -0.5706624388694763
0.10911229252815247 0.26930099725723267 0.2627711594104767
0.30030694603919983 0.25997310876846313 0.7865903377532959
0.3361283838748932 0.37952789664268494 0.6684146523475647
-0.3888617753982544 0.37952789664268494 -0.722117006778717
-0.24938789010047913 0.35154223442077637 -0.7109363079071045
-0.47351306676864624 -0.0991978645324707 0.026332158595323563
0.4068906903266907 0.37952789664268494 -0.23311598598957062
0.06283097714185715 -0.1442299485206604 -0.3903452157974243
-0.003764826338738203 -0.1810750663280487 -0.08898824453353882
-0.09658482670783997 0.37170112133026123 -0.6242943406105042
0.13002654910087585 0.1592942178249359 0.2776380777359009
-0.24976366758346558 -0.40515175461769104 -0.2567652463912964
-0.16941167414188385 -0.1820484697818756 -0.28945162892341614
0.3980693519115448 -0.6068575978279114 0.026332158595323563
0.04491627216339111 0.37952789664268494 0.5582348108291626
0.17055298388004303 0.04467066004872322 -0.40477195382118225
0.32888856530189514 -0.9650052189826965 -0.28945162892341614
0.39082255959510803 -0.9139115810394287 -0.3614639639854431
0.030401306226849556 0.2950788140296936 0.7106738686561584
-0.026410110294818878 0.37952789664268494 0.5175551772117615
0.0945870503783226 0.37952789664268494 0.626495361328125
-0.4277891516685486 0.37952789664268494 -0.17127485573291779
-0.1478785127401352 -0.16975094377994537 -0.3571621775627136
0.08264873921871185 0.37952789664268494 -0.2252405732870102
-0.4772834777832031 -0.10645724087953568 -0.07614707946777344
-0.34869030117988586 -0.5342307090759277 0.026332158595323563
0.19019600749015808 0.37952789664268494 0.5514904260635376
0.0006573193240910769 -0.10891749709844589 0.026332158595323563
-0.231556236743927 -0.22214502096176147 0.026332158595323563
0.1448797881603241 0.291824609041214 -0.12134859710931778
0.4082648456096649 -0.8575979471206665 -0.21970203518867493
0.1878490149974823 -0.1955907791852951 -0.3091579079627991
0.22823666036128998 0.33799484372138977 -0.597774088382721
-0.3812924921512604 0.37952789664268494 0.08091564476490021
0.1669071465730667 0.37952789664268494 0.8592663407325745
-0.1557258814573288 -0.08766648918390274 -0.40477195382118225
-0.4772834777832031 0.05714336410164833 0.7926677465438843
0.2105015367269516 -0.1260325163602829 -0.40477195382118225
0.17889897525310516 0.28526660799980164 0.6754325032234192
-0.47108885645866394 0.034644607454538345 0.49841955304145813
-0.04135331138968468 0.13360674679279327 0.764969527721405
-0.18276889622211456 0.21944965422153473 0.2862827181816101
0.417724609375 0.37952789664268494 0.6652676463127136
0.4711456596851349 -0.86507248878479 -0.29133009910583496
0.11419710516929626 0.11249546706676483 0.26747024059295654
0.09224984049797058 0.2863001823425293 0.15670858323574066
-0.3479522466659546 -0.5183550119400024 -0.00297092879191041
-0.4772834777832031 0.17229774594306946 0.04829981178045273
-0.20870135724544525 0.1903345286846161 0.8885403275489807
0.30799010396003723 -0.8339440226554871 -0.28945162892341614
0.4711456596851349 0.30990341305732727 -0.031266577541828156
0.05284472182393074 0.034644607454538345 0.5867093801498413
0.4610796570777893 -0.8326216340065002 -0.24280697107315063
0.34181442856788635 -0.49829721450805664 -0.2922130525112152
0.37388840317726135 -0.5127567648887634 0.026332158595323563
-0.4772834777832031 0.3250194489955902 -0.3061199486255646
0.43381941318511963 0.15326504409313202 -0.40477195382118225
0.37595441937446594 0.2501966655254364 -0.9190495014190674
0.46621808409690857 0.37952789664268494 0.8593354225158691
-0.09089013934135437 0.16333815455436707 0.6399047374725342
0.34181442856788635 -0.49058330059051514 -0.35857170820236206
0.19375354051589966 0.3507240116596222 0.114166758954525
-0.17766031622886658 -0.18541477620601654 -0.3368911147117615
-0.4772834777832031 0.3430289626121521 0.21992963552474976
-0.15024778246879578 0.17111124098300934 0.2829933166503906
0.4711456596851349 -0.7770701050758362 -0.07676485180854797
0.23513875901699066 0.33249905705451965 0.8885403275489807
0.45904529094696045 -0.2559560537338257 -0.40477195382118225
-0.4772834777832031 0.2553674876689911 0.2556528151035309
0.27899736166000366 -0.7951446175575256 -0.28945162892341614
0.04665388539433479 0.1666111797094345 0.7944263815879822
-0.1846112608909607 -0.02245871163904667 0.026332158595323563
-0.45515942573547363 0.37952789664268494 0.29954585433006287
-0.3853982090950012 -0.1970565915107727 0.026332158595323563
-0.33380943536758423 -0.4091917872428894 -0.28945162892341614
0.31676533818244934 -0.6358227133750916 -0.28945162892341614
-0.4772834777832031 0.27829509973526 -0.7981063723564148
-0.41115784645080566 -0.7109388709068298 0.026332158595323563
-0.4772834777832031 -0.18271055817604065 -0.23151256144046783
-0.4772834777832031 -0.16708903014659882 -0.2447814643383026
-0.03110220655798912 0.18009978532791138 -0.2299017459154129
0.20859840512275696 0.37952789664268494 -0.3000246584415436
0.1754545122385025 0.37952789664268494 -0.49211400747299194
-0.005312166176736355 0.016918735578656197 0.026332158595323563
-0.2637504041194916 0.26619887351989746 0.19877536594867706
-0.4755588471889496 -0.9241403937339783 -0.3530528247356415
0.1978754848241806 0.37952789664268494 -0.21902909874916077
-0.3479522466659546 -0.9446663856506348 -0.05675492808222771
0.4711456596851349 -0.22271616756916046 -0.1770036667585373
0.15041528642177582 0.13879941403865814 0.8885403275489807
0.3022322952747345 0.034644607454538345 0.697839617729187
-0.15985465049743652 0.37952789664268494 -0.5216870307922363
-0.4772834777832031 0.3753514587879181 0.7262781262397766
0.45548921823501587 0.37952789664268494 -0.7907633781433105
-0.18508554995059967 0.2501966655254364 -0.4763008654117584
0.16804005205631256 0.37952789664268494 0.6882118582725525
0.24369549751281738 0.2725760340690613 -0.2051956206560135
0.4154680669307709 -0.025880981236696243 -0.40477195382118225
0.2735585570335388 -0.843580961227417 -0.14253723621368408
-0.3854031562805176 0.11924879252910614 -0.1525106579065323
0.4711456596851349 0.18362504243850708 -0.02227863483130932
-0.4625062048435211 -0.002445130841806531 -0.40477195382118225
-0.21390300989151 0.37952789664268494 -0.3810933232307434
0.021140947937965393 -0.12976457178592682 0.026332158595323563
0.34181442856788635 -0.9526901245117188 -0.3230454623699188
0.2120305448770523 0.034644607454538345 0.05121433362364769
-0.16606292128562927 0.37952789664268494 0.7874488234519958
0.3447417914867401 -0.7863149642944336 -0.40471553802490234
-0.15094095468521118 0.2501966655254364 -0.46084490418434143
-0.32893091440200806 -0.16069336235523224 0.026332158595323563
-0.20598672330379486 0.1506330966949463 -0.07869750261306763
0.34873536229133606 0.37952789664268494 -0.19756720960140228
0.25559359788894653 -0.8841016292572021 -0.21365664899349213
0.4711456596851349 0.20546182990074158 -0.018605820834636688
0.173294335603714 0.37257975339889526 -0.5754415392875671
0.01337473001331091 0.034644607454538345 0.30411815643310547
0.4711456596851349 0.2422316074371338 0.34733694791793823
-0.43931418657302856 -0.9821933507919312 -0.2749458849430084
0.20733581483364105 0.15352416038513184 -0.21631675958633423
-0.19555628299713135 0.12094581127166748 -0.12707994878292084
-0.2632822096347809 -0.7654687166213989 -0.1450360119342804
-0.4772834777832031 0.09695947170257568 0.6555968523025513
-0.2599780261516571 0.034644607454538345 0.49354732036590576
-0.4772834777832031 -0.2660675346851349 -0.15229053795337677
-0.4772834777832031 0.29563310742378235 0.3811514675617218
-0.4772834777832031 0.29032179713249207 -0.7943686842918396
-0.40453052520751953 0.37952789664268494 0.12417858839035034
0.2451758235692978 0.27146288752555847 -0.20633602142333984
0.15984436869621277 0.37952789664268494 -0.011632266454398632
-0.4144391715526581 -0.5130884647369385 -0.40477195382118225
-0.4613795280456543 -0.974187433719635 -0.2913437485694885
-0.2959248423576355 -0.9994559288024902 -0.203335240483284
0.30353671312332153 -0.4756604731082916 -0.08898824453353882
-0.07038965821266174 0.37952789664268494 -0.05186203494668007
0.14466550946235657 -0.2245309203863144 -0.28945162892341614
0.30862390995025635 -0.5890116095542908 -0.08898824453353882
0.017601750791072845 -0.1384839117527008 -0.08225454390048981
-0.2947726845741272 0.2501966655254364 -0.6864383220672607
-0.42590615153312683 0.034644607454538345 0.7393662929534912
0.2604563236236572 0.37952789664268494 -0.046385087072849274
0.4711456596851349 0.31324055790901184 0.7634878158569336
-0.23558911681175232 0.034644607454538345 0.7167618870735168
0.22244413197040558 0.11899054050445557 0.26925966143608093
-0.41612696647644043 0.37952789664268494 0.6063363552093506
-0.4482884109020233 0.37952789664268494 0.30313190817832947
-0.21629546582698822 0.13807202875614166 -0.20086926221847534
-0.404508501291275 0.2501966655254364 -0.4579158127307892
0.17673584818840027 -0.2968370318412781 -0.1366889476776123
-0.4772834777832031 0.3415357172489166 -0.6329821944236755
0.30740490555763245 -0.8993953466415405 -0.28945162892341614
-0.39643993973731995 -0.77848881483078 -0.1359030306339264
0.4711456596851349 -0.868235170841217 -0.07013705372810364
-0.3618943989276886 0.3235350251197815 0.8885403275489807
0.45517653226852417 0.37952789664268494 0.7851941585540771
0.18934446573257446 0.254495769739151 -0.0716770812869072
-0.14346013963222504 0.2671012580394745 -0.08146705478429794
-0.3756116032600403 0.37952789664268494 0.8570713996887207
0.4711456596851349 -0.38354137539863586 -0.040437307208776474
0.3907756805419922 0.36758318543434143 0.8885403275489807
-0.4772834777832031 0.1607998162508011 0.590347409248352
0.16706131398677826 0.37952789664268494 -0.888216495513916
-0.19328534603118896 0.1273932307958603 0.6785173416137695
-0.2649907171726227 -0.06918187439441681 0.026332158595323563
-0.4772834777832031 0.3207481801509857 0.5901186466217041
-0.4772834777832031 -0.25012341141700745 -0.29437100887298584
0.08396008610725403 0.37952789664268494 -0.8777636885643005
0.24505627155303955 0.1348070353269577 -0.19671888649463654
-0.10083215683698654 0.14011895656585693 0.2449212521314621
0.4479219913482666 0.2501966655254364 -0.4792134165763855
0.25559359788894653 -0.8894503712654114 -0.10136441141366959
0.0009409188060089946 0.37952789664268494 0.8293736577033997
0.4711456596851349 0.33933523297309875 0.4297557771205902
-0.044221293181180954 0.034644607454538345 0.026736468076705933
0.2721012532711029 0.034644607454538345 0.11777519434690475
-0.4772834777832031 0.09449654072523117 -0.33010348677635193
-0.15024366974830627 0.2501966655254364 -0.8734522461891174
0.4711456596851349 -0.027620607987046242 -0.033749572932720184
-0.4092557728290558 -0.8639761805534363 -0.20358768105506897
0.18012350797653198 0.21388427913188934 -0.23391884565353394
-0.23815935850143433 0.30789005756378174 0.8885403275489807
-0.4772834777832031 0.19701717793941498 0.013374400325119495
0.10311345010995865 0.10090367496013641 0.8885403275489807
0.3737403154373169 0.11944182217121124 0.7061497569084167
