0.04939282685518265 -0.452471524477005 0.03255727142095566
0.15889722108840942 -0.9727378487586975 0.052993666380643845
0.1292685568332672 -0.9628616571426392 0.05754384025931358
0.24083015322685242 0.4070565700531006 -0.07422468811273575
0.18661002814769745 -0.9630181193351746 -0.07316144555807114
0.03656620904803276 -0.2821970283985138 -0.07422468811273575
-0.17111241817474365 0.12252139300107956 -0.07422468811273575
0.06934522837400436 -0.021301530301570892 -0.07422468811273575
-0.20371828973293304 -0.3288626968860626 -0.058497749269008636
-0.173060804605484 -0.34078845381736755 0.07398669421672821
-0.04589511826634407 -0.027762996032834053 -0.07422468811273575
0.04895864054560661 -0.4535536766052246 0.03572038933634758
-0.04917101189494133 -0.7412258386611938 -0.07422468811273575
-0.04218430072069168 0.20204894244670868 0.07398669421672821
0.09394416213035583 -0.019555792212486267 0.07398669421672821
-0.20371828973293304 0.7012348175048828 -0.07093634456396103
0.09247744083404541 0.13487252593040466 0.07398669421672821
-0.20371828973293304 -0.12272314727306366 -0.045443642884492874
-0.17128877341747284 0.028444213792681694 -0.07422468811273575
0.20412719249725342 -0.16770410537719727 -0.07422468811273575
0.0631183311343193 0.05084490031003952 -0.07422468811273575
0.044848114252090454 -0.46463578939437866 0.008483411744236946
0.15510393679141998 0.39766332507133484 -0.07422468811273575
0.02301899902522564 -0.677463710308075 -0.0529826357960701
-0.20371828973293304 0.3377612829208374 -0.07129162549972534
0.06909779459238052 0.25948068499565125 -0.07422468811273575
-0.14283785223960876 -0.8356226682662964 -0.07422468811273575
0.003999829757958651 -0.3446827530860901 0.07398669421672821
-0.03499233350157738 0.6319258213043213 0.007194091100245714
-0.023782407864928246 -0.3816586136817932 -0.07422468811273575
-0.1785886436700821 -0.2038571834564209 0.07398669421672821
-0.10730448365211487 -0.2832411229610443 0.07398669421672821
0.1595199704170227 0.078656867146492 0.07398669421672821
-0.009339525364339352 0.6922797560691833 0.07398669421672821
0.23031072318553925 -0.17621473968029022 0.07398669421672821
0.22664032876491547 0.3585508465766907 0.07398669421672821
-0.10741477459669113 -0.22550524771213531 -0.07422468811273575
-0.20371828973293304 0.05993044748902321 -0.044135529547929764
0.24091584980487823 0.2977408766746521 0.030282020568847656
0.1496848613023758 0.7741683721542358 -0.07422468811273575
0.14176036417484283 0.7566383481025696 -0.07422468811273575
0.24091584980487823 0.2594859302043915 -0.0031323363073170185
0.04858214780688286 0.7784591913223267 -0.0701240599155426
0.19359345734119415 0.6302056312561035 0.07398669421672821
-0.014581012539565563 0.04722975194454193 -0.07422468811273575
-0.1914484202861786 -0.6749699115753174 0.07398669421672821
0.09021025896072388 -0.045095011591911316 0.07398669421672821
0.1110910028219223 -0.921737551689148 -0.07422468811273575
0.1559283286333084 -0.9655213356018066 -0.07422468811273575
-0.08986330777406693 0.30153635144233704 -0.07422468811273575
0.24091584980487823 0.06529141962528229 -0.01580587588250637
0.2126750499010086 0.1130930557847023 -0.07422468811273575
0.011810376308858395 0.7784591913223267 0.037273965775966644
0.24091584980487823 0.6726215481758118 -0.06600551307201385
0.062150683254003525 -0.41011175513267517 -0.07422468811273575
-0.013619909062981606 0.3768516480922699 -0.019631845876574516
-0.04520014300942421 -0.5989896059036255 0.07398669421672821
-0.09413652122020721 -0.888393223285675 -0.033136624842882156
-0.05176953226327896 -0.5301201343536377 0.07398669421672821
-0.20371828973293304 0.09796798229217529 -0.03628645837306976
-0.20371828973293304 0.6873428225517273 0.061928488314151764
-0.15405796468257904 0.6529583930969238 -0.07422468811273575
0.09474226087331772 -0.3661990761756897 -0.06239371746778488
-0.20371828973293304 0.7672931551933289 -0.02926686964929104
0.1303541362285614 0.6202250123023987 0.07398669421672821
-0.10843052715063095 -0.1714341938495636 -0.07422468811273575
0.05809932202100754 -0.17390139400959015 -0.07422468811273575
-0.012584726326167583 -0.9155771732330322 -0.030951859429478645
0.24091584980487823 0.6906867027282715 -0.009576033800840378
-0.06607233732938766 -0.13140839338302612 0.07398669421672821
0.24091584980487823 -0.21626335382461548 -0.05562523379921913
-0.20371828973293304 0.45731890201568604 0.016142388805747032
-0.18207567930221558 0.7784591913223267 -0.02359784208238125
0.11313732713460922 -0.9306480884552002 -0.07422468811273575
-0.10042364150285721 0.10845585912466049 -0.07422468811273575
0.0032189800404012203 0.5186806917190552 -0.07422468811273575
-0.08436411619186401 -0.3706604242324829 0.07398669421672821
-0.1772523671388626 0.6314696073532104 0.07398669421672821
-0.1637057662010193 -0.7587108016014099 -0.07422468811273575
0.18512365221977234 0.6762209534645081 -0.07422468811273575
0.20277173817157745 -0.08546780049800873 0.07398669421672821
-0.11180214583873749 0.42219027876853943 0.07398669421672821
0.1872122585773468 0.3770095109939575 0.07398669421672821
0.00710876053199172 0.7784591913223267 0.052555106580257416
0.23893216252326965 0.01964936964213848 0.07398669421672821
0.24091584980487823 0.12210541218519211 0.014661084860563278
-0.043180882930755615 -0.4308875501155853 0.07398669421672821
-0.13351276516914368 -0.1773521900177002 -0.07422468811273575
-0.13576661050319672 0.7784591913223267 0.04099869355559349
0.06652386486530304 0.35771986842155457 -0.015152392908930779
-0.11976639181375504 -0.4499906301498413 0.07398669421672821
0.10346058011054993 -0.3202693462371826 -0.07422468811273575
-0.015890493988990784 -0.6266351938247681 0.07398669421672821
-0.17729009687900543 0.4094868302345276 0.07398669421672821
0.1938057690858841 -0.17014789581298828 -0.07422468811273575
0.13786208629608154 -0.31200742721557617 0.026950331404805183
0.14057397842407227 -0.30915817618370056 0.015239899046719074
-0.11799490451812744 -0.46290457248687744 0.07398669421672821
-0.08391039818525314 -0.1299912929534912 -0.07422468811273575
-0.01302405446767807 -0.8849176168441772 -0.07422468811273575
-0.12716661393642426 -0.4023053050041199 0.07398669421672821
0.13652662932872772 -0.9337958097457886 -0.07422468811273575
-0.04022355005145073 0.7784591913223267 0.04342472925782204
-0.20371828973293304 0.4370023012161255 -0.03285432234406471
-0.17531895637512207 0.30530908703804016 0.07398669421672821
-0.03900279104709625 0.7784591913223267 -0.050846166908741
-0.13482189178466797 0.18157589435577393 -0.07422468811273575
-0.10746701806783676 0.04990004375576973 0.07398669421672821
0.0059748366475105286 0.40616655349731445 0.07398669421672821
-0.20371828973293304 -0.504973292350769 0.07353435456752777
0.17477920651435852 -0.03434724360704422 -0.07422468811273575
-0.06391523033380508 -0.05284759774804115 0.07398669421672821
0.041618671268224716 -0.7560588717460632 0.0253212321549654
-0.20371828973293304 0.16667814552783966 0.011552481912076473
-0.07318822294473648 -0.7664180994033813 0.07398669421672821
-0.20371828973293304 0.17460505664348602 0.03693760931491852
0.24091584980487823 0.03135997802019119 -0.007474828511476517
0.21199917793273926 0.4729565680027008 0.07398669421672821
0.044514983892440796 0.1643514335155487 0.07398669421672821
0.01633629947900772 -0.18330249190330505 0.07398669421672821
-0.03624546527862549 0.5675374865531921 0.07398669421672821
-0.018841464072465897 0.1253352165222168 0.07398669421672821
-0.161491259932518 0.468227744102478 0.07398669421672821
0.24091584980487823 -0.11450454592704773 0.031538769602775574
0.00897618941962719 -0.5629708170890808 0.07398669421672821
0.16521266102790833 0.7784591913223267 0.00692024827003479
-0.09611905366182327 -0.7969191074371338 -0.07422468811273575
-0.021137146279215813 0.08541348576545715 -0.07422468811273575
-0.18508164584636688 0.3070044219493866 0.07398669421672821
-0.12565456330776215 0.305835098028183 -0.07422468811273575
-0.1860179752111435 0.47683417797088623 0.07398669421672821
-0.02065461315214634 0.2971189618110657 -0.01894601434469223
-0.01904057152569294 -0.2796316146850586 0.07398669421672821
0.2387065440416336 0.7784591913223267 0.04220951348543167
-0.14328323304653168 0.369454950094223 0.07398669421672821
0.24091584980487823 0.3131161630153656 -0.0390419065952301
0.08506441861391068 -0.9481269121170044 0.022758282721042633
-0.09854122251272202 -0.07040905952453613 0.07398669421672821
-0.01758001744747162 -0.6072577834129333 0.07398669421672821
-0.17791332304477692 0.22776232659816742 -0.07422468811273575
-0.02633843384683132 0.48550474643707275 0.07398669421672821
-0.04066089540719986 -0.7208706736564636 0.07398669421672821
-0.03800388053059578 0.2321719378232956 0.07398669421672821
-0.20371828973293304 0.5054641366004944 -0.06191841512918472
-0.20371828973293304 -0.6905882954597473 0.019741183146834373
0.03859501704573631 -0.08235980570316315 0.07398669421672821
0.2226463258266449 0.09948401153087616 -0.07422468811273575
0.06202376261353493 0.243319571018219 -0.07422468811273575
0.042119100689888 0.2856557071208954 -0.03420349210500717
0.05445096641778946 0.10938049852848053 0.07398669421672821
-0.007768698967993259 0.2870956063270569 0.04501637816429138
0.21373966336250305 0.7784591913223267 0.022719062864780426
-0.20371828973293304 -0.5783690810203552 0.03623758256435394
0.14922352135181427 -0.9297290444374084 0.05135689675807953
0.07471241801977158 0.26635900139808655 -0.07422468811273575
0.18371300399303436 0.6039007306098938 0.07398669421672821
-0.19165748357772827 0.3881171941757202 -0.07422468811273575
-0.10503043234348297 -0.16062989830970764 0.07398669421672821
0.14722202718257904 0.36567988991737366 -0.07422468811273575
0.06801646947860718 -0.8187063336372375 -0.06534125655889511
-0.16806992888450623 -0.3353530466556549 0.07398669421672821
0.00241912086494267 -0.5430272817611694 -0.07422468811273575
0.21921192109584808 -0.24340291321277618 -0.06968460977077484
0.036856021732091904 0.1343957483768463 0.07398669421672821
0.06459569185972214 0.30599698424339294 0.006216604262590408
-0.19387152791023254 -0.8276597857475281 -0.07422468811273575
-0.05453047528862953 -0.1508997231721878 0.07398669421672821
0.15354043245315552 -0.296016663312912 0.029100118204951286
-0.20371828973293304 0.5289544463157654 0.03778286650776863
0.16394805908203125 0.7784591913223267 -0.06388626247644424
-0.20371828973293304 0.3167516887187958 -0.02217203937470913
-0.19517309963703156 -0.7298458218574524 -0.07422468811273575
0.1818803995847702 -0.9592663645744324 0.05538886785507202
-0.20371828973293304 -0.7647358179092407 0.03282899782061577
0.16942249238491058 0.6034963130950928 -0.07422468811273575
0.24091584980487823 0.545285701751709 0.004074709489941597
0.17409737408161163 0.26382797956466675 -0.07422468811273575
0.019063686951994896 -0.7821348309516907 0.07398669421672821
0.24091584980487823 0.7349652647972107 0.058397188782691956
0.14263497292995453 0.39227813482284546 -0.07422468811273575
0.15482798218727112 -0.1478126496076584 0.07398669421672821
0.024954095482826233 0.7784591913223267 -0.018249843269586563
-0.1776871532201767 0.7784591913223267 0.005441669840365648
-0.19740502536296844 0.6739993095397949 -0.07422468811273575
0.016736630350351334 -0.28141164779663086 0.07398669421672821
0.24091584980487823 0.6750061511993408 0.0564182884991169
-0.016508452594280243 0.2220439612865448 0.07398669421672821
0.05852818861603737 -0.21280552446842194 -0.07422468811273575
0.21292006969451904 0.2841448485851288 0.07398669421672821
0.007956454530358315 -0.043718330562114716 0.07398669421672821
0.24091584980487823 0.03497058525681496 -0.03338007256388664
0.19284769892692566 0.039583031088113785 -0.07422468811273575
0.011172340251505375 0.7373131513595581 -0.07422468811273575
0.0651714876294136 -0.3889113962650299 0.07398669421672821
-0.14397980272769928 -0.2104666382074356 -0.07422468811273575
0.21062448620796204 0.7628628611564636 -0.07422468811273575
-0.0916091799736023 -0.791963517665863 0.07398669421672821
-0.021716084331274033 0.5954517126083374 -0.05504151061177254
-0.10082560777664185 -0.5594183802604675 -0.07422468811273575
0.14074449241161346 0.2705930471420288 -0.07422468811273575
-0.11048681288957596 -0.271548330783844 -0.07422468811273575
-0.012445428408682346 0.2772049009799957 0.07398669421672821
-0.1408245712518692 0.022089146077632904 -0.07422468811273575
-0.058840252459049225 0.5862433314323425 -0.07422468811273575
-0.20371828973293304 -0.6818875670433044 -0.01837371103465557
0.03975914791226387 -0.4795982837677002 0.011172730475664139
0.0776294469833374 -0.023308055475354195 0.07398669421672821
-0.14576368033885956 0.6401221752166748 -0.07422468811273575
-0.010798654519021511 0.7005382180213928 -0.07422468811273575
0.07498181611299515 -0.8863274455070496 0.07398669421672821
0.13713249564170837 0.09968274086713791 -0.07422468811273575
0.09368922561407089 -0.33434680104255676 -0.07422468811273575
0.01937112957239151 -0.5891417264938354 0.021040458232164383
-0.20371828973293304 -0.5983830094337463 0.04866344481706619
0.005342522170394659 0.5783107280731201 -0.043965574353933334
0.2035490721464157 -0.9876217842102051 0.043804533779621124
0.10240455716848373 0.41033801436424255 0.07398669421672821
0.0379800871014595 -0.12295802682638168 0.07398669421672821
0.18720148503780365 0.37796175479888916 0.07398669421672821
-0.09246139228343964 0.12331470847129822 0.07398669421672821
0.2039775252342224 -0.9877645969390869 -0.06202073395252228
-0.06172094866633415 0.7269591093063354 -0.07422468811273575
0.24091584980487823 0.7630541324615479 0.013288437388837337
0.02726866491138935 -0.5277950763702393 0.06019642576575279
0.10206738114356995 0.7784591913223267 -0.05046829581260681
0.20286011695861816 0.7784591913223267 0.017967676743865013
-0.20371828973293304 -0.7653393149375916 0.016545746475458145
-0.039275966584682465 0.614711344242096 0.07398669421672821
0.24091584980487823 0.5385947823524475 -0.01950347237288952
-0.1842459738254547 -0.6487843990325928 -0.07422468811273575
0.09127001464366913 0.1183452233672142 0.07398669421672821
-0.03240074962377548 0.026086261495947838 -0.07422468811273575
-0.20371828973293304 0.44709324836730957 0.03994045406579971
-0.04040883481502533 -0.8261768817901611 -0.07422468811273575
0.18843959271907806 0.024346577003598213 -0.07422468811273575
-0.008505810052156448 -0.19649992883205414 -0.07422468811273575
-0.09901788830757141 -0.26722338795661926 -0.07422468811273575
0.1813393235206604 -0.27119243144989014 -0.046778008341789246
-0.0271111149340868 -0.7375291585922241 -0.07422468811273575
-0.08751976490020752 -0.5868677496910095 0.07398669421672821
0.23539456725120544 -0.17544369399547577 -0.07422468811273575
0.10963821411132812 0.08707641810178757 -0.07422468811273575
-0.20371828973293304 0.5915151834487915 0.04507466405630112
0.1534978747367859 0.6918858289718628 0.07398669421672821
0.24005594849586487 0.2978653609752655 0.07398669421672821
0.2005922645330429 0.7784591913223267 -0.029291851446032524
0.21790094673633575 0.2221936285495758 0.07398669421672821
-0.07232451438903809 0.2476292997598648 0.07398669421672821
0.04478843882679939 0.2867516577243805 -0.07422468811273575
0.05632872134447098 0.02751137875020504 -0.07422468811273575
0.12212789803743362 0.6160494089126587 0.07398669421672821
0.08121290057897568 0.1372441053390503 0.07398669421672821
0.0687800720334053 0.6493176817893982 0.004271830432116985
0.10146622359752655 -0.1859731376171112 -0.07422468811273575
-0.20371828973293304 -0.7306500673294067 -0.07314907759428024
0.033772822469472885 -0.7298839092254639 0.002163797616958618
-0.19685553014278412 -0.32502415776252747 0.07398669421672821
-0.13616979122161865 -0.7808533906936646 0.07398669421672821
-0.0007107335841283202 -0.2256689816713333 0.07398669421672821
0.030308369547128677 0.682324230670929 0.05317191779613495
0.18782639503479004 0.535696268081665 0.07398669421672821
0.011511147022247314 -0.24838504195213318 -0.07422468811273575
-0.014347203075885773 -0.745705246925354 -0.07422468811273575
-0.03706997632980347 -0.02735137939453125 0.07398669421672821
0.007462591864168644 0.5251160860061646 -0.07422468811273575
0.24091584980487823 0.18995004892349243 -0.020436624065041542
0.07286593317985535 0.7784591913223267 0.055819038301706314
-0.05275261774659157 -0.36478865146636963 0.07398669421672821
0.054208118468523026 0.2575046122074127 0.07398669421672821
-0.12139283120632172 0.7080672979354858 0.07398669421672821
0.08782801777124405 0.3380856215953827 -0.07422468811273575
-0.10520395636558533 0.22188155353069305 0.07398669421672821
-0.20371828973293304 -0.27641457319259644 0.05504210665822029
-0.20371828973293304 -0.7381302714347839 0.03361774981021881
-0.015751196071505547 -0.2917841374874115 -0.07422468811273575
-0.19205717742443085 0.36956143379211426 0.07398669421672821
-0.04100160673260689 -0.33588945865631104 0.07398669421672821
0.24091584980487823 0.6122129559516907 0.025127310305833817
0.07581277191638947 -0.9292842149734497 0.07398669421672821
-0.20371828973293304 0.4134734272956848 -0.03950231149792671
-0.12472575902938843 -0.19018509984016418 -0.07422468811273575
-0.09112406522035599 -0.3699019253253937 -0.07422468811273575
-0.14905177056789398 0.7784591913223267 -0.02861870639026165
-0.15644940733909607 -0.8676222562789917 -0.061195679008960724
-0.20371828973293304 0.677992582321167 -0.056843020021915436
0.03778433799743652 -0.7440596222877502 -0.011523617431521416
-0.08787714689970016 -0.1953323930501938 -0.07422468811273575
-0.015629861503839493 0.7035688757896423 0.07398669421672821
-0.13085268437862396 0.757688045501709 0.07398669421672821
0.16795586049556732 0.293988972902298 -0.07422468811273575
-0.20371828973293304 0.748394787311554 -0.0665014311671257
-0.019104409962892532 -0.9134039282798767 -0.013602785766124725
0.11795362085103989 -0.959089994430542 0.018910249695181847
0.08700483292341232 0.7784591913223267 -0.042317476123571396
0.10915949195623398 -0.8839067220687866 0.007730285171419382
-0.20371828973293304 0.47624894976615906 -0.05231031775474548
0.03858698159456253 0.38363322615623474 -0.027364997193217278
-0.20371828973293304 0.30956146121025085 -0.006845897063612938
0.18338917195796967 -0.22839510440826416 -0.07422468811273575
0.028257081285119057 0.17201773822307587 0.07398669421672821
0.049369119107723236 -0.8996464014053345 0.07398669421672821
0.1547139286994934 -0.9713433384895325 0.03353137522935867
-0.20371828973293304 0.4471099078655243 -0.052128858864307404
-0.19884659349918365 -0.8343202471733093 -0.07422468811273575
-0.06356411427259445 0.697230875492096 -0.07422468811273575
0.013591795228421688 0.2803400456905365 -0.03466975688934326
-0.00380047713406384 -0.895747184753418 -0.07422468811273575
-0.20371828973293304 -0.10164287686347961 0.042861294001340866
-0.0828939750790596 -0.43657386302948 0.07398669421672821
0.18671998381614685 0.7784591913223267 0.03874770924448967
0.028383133932948112 -0.707619309425354 0.029324233531951904
0.01730499416589737 -0.0741700530052185 -0.07422468811273575
-0.20371828973293304 -0.44225963950157166 -0.015094608999788761
-0.20371828973293304 0.20604775846004486 -0.06504332274198532
0.06718473881483078 0.4491218626499176 -0.07422468811273575
-0.05059673264622688 0.7784591913223267 0.059024762362241745
-0.04269396513700485 -0.32674163579940796 0.07398669421672821
0.17989489436149597 0.3878731429576874 0.07398669421672821
0.24091584980487823 0.3471609354019165 -0.008562454022467136
-0.1934865266084671 0.029127836227416992 0.07398669421672821
-0.20371828973293304 -0.07139896601438522 -0.027884630486369133
0.01059765461832285 -0.4272160828113556 -0.07422468811273575
-0.20371828973293304 -0.20822389423847198 0.06351678818464279
0.15341995656490326 -0.9549656510353088 -0.07422468811273575
-0.18083533644676208 -0.42625224590301514 0.07398669421672821
0.06572458148002625 0.6950721144676208 -0.07422468811273575
0.06961659342050552 0.3508935272693634 0.006143577396869659
-0.06895218789577484 0.6163362860679626 -0.07422468811273575
0.14353787899017334 0.7784591913223267 -0.040414959192276
0.07354163378477097 -0.8393825888633728 0.07398669421672821
-0.09734731167554855 -0.5778975486755371 -0.07422468811273575
-0.04656276851892471 0.2833971083164215 -0.07422468811273575
-0.051969751715660095 -0.47712966799736023 -0.07422468811273575
-0.06828348338603973 -0.7452333569526672 -0.07422468811273575
-0.18507061898708344 -0.8580818176269531 0.06099729984998703
-0.18213041126728058 0.3388805389404297 -0.07422468811273575
0.17535313963890076 -0.9538001418113708 -0.06536223739385605
-0.07283104211091995 0.10663862526416779 -0.07422468811273575
-0.075652115046978 -0.8945547342300415 -0.032270658761262894
-0.20371828973293304 -0.8242376446723938 -0.044933900237083435
-0.15562455356121063 -0.8502603769302368 0.07398669421672821
-0.12020261585712433 -0.38238048553466797 0.07398669421672821
-0.19995078444480896 0.10738332569599152 -0.07422468811273575
0.06416239589452744 -0.38495486974716187 -0.07422468811273575
0.17873385548591614 0.7511941194534302 -0.07422468811273575
-0.20371828973293304 0.2170032411813736 0.01902133971452713
-0.20371828973293304 0.5324092507362366 0.051595550030469894
0.0716952383518219 0.6381220817565918 0.016112428158521652
0.06480012089014053 0.7384294867515564 0.07398669421672821
0.1979745477437973 -0.01881607621908188 -0.07422468811273575
-0.06253550946712494 -0.8048357367515564 0.07398669421672821
0.15718382596969604 0.13644802570343018 -0.07422468811273575
-0.15533480048179626 -0.492658406496048 0.07398669421672821
0.05880943313241005 -0.4303745925426483 0.04387056827545166
0.24091584980487823 -0.1843159943819046 0.05904754623770714
0.23319558799266815 -0.9954567551612854 0.028214816004037857
0.04469933360815048 0.38586002588272095 0.07398669421672821
0.22905659675598145 0.5495022535324097 0.07398669421672821
0.02170580066740513 -0.6668898463249207 0.05702689662575722
0.24091584980487823 0.1973644644021988 0.014051630161702633
-0.14214587211608887 0.10983689874410629 -0.07422468811273575
0.21851356327533722 0.6307562589645386 -0.07422468811273575
-0.09651625901460648 -0.4277409315109253 0.07398669421672821
0.20044544339179993 0.7562835812568665 -0.07422468811273575
-0.05094001069664955 -0.6483359336853027 -0.07422468811273575
0.0004227006284054369 0.5797281861305237 0.03415321558713913
0.033914145082235336 -0.8813354969024658 -0.07422468811273575
0.01685257814824581 0.68378084897995 0.03579864278435707
0.19062592089176178 -0.2637613117694855 -0.03581004589796066
-0.20371828973293304 0.08985649794340134 0.02743719518184662
-0.07308067381381989 -0.23005233705043793 -0.07422468811273575
0.22006160020828247 0.5497995018959045 0.07398669421672821
0.12922745943069458 0.1155242845416069 0.07398669421672821
-0.20371828973293304 -0.011145852506160736 0.017169786617159843
-0.13210341334342957 -0.6060914397239685 0.07398669421672821
0.021626824513077736 -0.09771707653999329 0.07398669421672821
0.16440655291080475 0.661460816860199 0.07398669421672821
0.15769146382808685 -0.9379652738571167 -0.05876133218407631
0.15254177153110504 0.03502596914768219 -0.07422468811273575
-0.14538687467575073 0.6105143427848816 0.07398669421672821
-0.04592347517609596 -0.6796546578407288 0.07398669421672821
0.1555410623550415 0.3534240424633026 0.07398669421672821
-0.20371828973293304 -0.4107820391654968 0.05932048708200455
0.008681456558406353 0.7784591913223267 -0.0017519816756248474
0.1659947633743286 -0.17095349729061127 0.07398669421672821
0.24091584980487823 0.4140026569366455 0.01830512471497059
-0.18976397812366486 -0.6645879745483398 0.07398669421672821
0.05479063838720322 0.024344706907868385 -0.07422468811273575
0.2207729071378708 -0.12309158593416214 -0.07422468811273575
-0.11945144087076187 -0.231720969080925 0.07398669421672821
-0.010644755326211452 -0.2076563686132431 -0.07422468811273575
-0.16019825637340546 0.344165563583374 0.07398669421672821
0.07294707000255585 0.10925914347171783 0.07398669421672821
0.21910102665424347 -0.9928057789802551 -0.04455612599849701
0.07515668869018555 0.05975326523184776 -0.07422468811273575
-0.16600434482097626 0.13981254398822784 -0.07422468811273575
0.2182610183954239 0.7489988207817078 0.07398669421672821
0.24091584980487823 0.3762277066707611 -0.028402525931596756
-0.09148551523685455 -0.7907212376594543 -0.07422468811273575
-0.02762928418815136 0.6031408905982971 -0.02217758260667324
-0.20371828973293304 -0.4120565354824066 -0.03649013862013817
-0.1935095191001892 -0.5745027661323547 0.07398669421672821
0.20638848841190338 0.7784591913223267 -0.057006724178791046
0.021037781611084938 0.7784591913223267 0.03575954586267471
0.03128852695226669 0.7784591913223267 0.037757568061351776
0.04381856322288513 0.38089776039123535 0.047403622418642044
0.15160265564918518 -0.2167225182056427 -0.07422468811273575
0.094358891248703 0.4334716498851776 -0.07422468811273575
0.08980432152748108 0.19737640023231506 -0.07422468811273575
0.07572818547487259 -0.1513640433549881 0.07398669421672821
-0.1049186959862709 0.5092004537582397 -0.07422468811273575
-0.11244676262140274 0.43626728653907776 0.07398669421672821
-0.08282125741243362 -0.296957403421402 0.07398669421672821
-0.20371828973293304 -0.2970602512359619 -0.06529465317726135
0.09027774631977081 -0.37309500575065613 -0.01936381869018078
-0.20371828973293304 0.7686926126480103 -0.002420567674562335
-0.15327653288841248 -0.19506394863128662 -0.07422468811273575
-0.20371828973293304 -0.3329322934150696 0.06808708608150482
-0.14608174562454224 -0.8710781335830688 0.053657565265893936
-0.20371828973293304 0.48848167061805725 -0.04193397983908653
0.03643234446644783 -0.384988397359848 -0.07422468811273575
0.2308688461780548 0.44299373030662537 0.07398669421672821
-0.1372223198413849 -0.6868925094604492 -0.07422468811273575
0.026459435001015663 -0.04984234645962715 0.07398669421672821
0.06984949111938477 -0.253977507352829 0.07398669421672821
0.24091584980487823 0.10771400481462479 -0.011723309755325317
-0.17614153027534485 -0.48100897669792175 -0.07422468811273575
-0.16791893541812897 -0.43745189905166626 0.07398669421672821
0.03826295584440231 -0.484363317489624 -0.048921022564172745
-0.08525119721889496 0.12838925421237946 0.07398669421672821
0.12398728728294373 0.13063377141952515 -0.07422468811273575
-0.007739873602986336 0.709263801574707 -0.07422468811273575
0.11551351100206375 0.7605721354484558 -0.07422468811273575
-0.20371828973293304 -0.7548062801361084 -0.020158924162387848
0.02689014934003353 -0.011465493589639664 -0.07422468811273575
-0.20371828973293304 0.2066296935081482 0.06051028147339821
0.05245160683989525 -0.4449489712715149 0.04715853929519653
-0.07849344611167908 -0.881737232208252 0.07398669421672821
-0.20371828973293304 -0.8222729563713074 0.057062000036239624
-0.12198349833488464 0.730816662311554 0.07398669421672821
-0.20371828973293304 -0.0122695816680789 -0.013911569491028786
-0.20371828973293304 0.6531825661659241 0.0424644909799099
0.08023496717214584 0.5022076964378357 0.07398669421672821
0.15831777453422546 0.12398853898048401 0.07398669421672821
-0.1821090131998062 0.21540780365467072 0.07398669421672821
-0.08000213652849197 0.5447502136230469 0.07398669421672821
-0.1924048513174057 0.602864682674408 0.07398669421672821
0.03554162383079529 -0.4936155676841736 -0.042560894042253494
0.24091584980487823 0.6982572674751282 -0.03258752450346947
-0.1768147349357605 -0.17016944289207458 0.07398669421672821
0.041376180946826935 -0.11469642072916031 0.07398669421672821
-0.08339197933673859 -0.5741207003593445 0.07398669421672821
0.0004669072513934225 0.7051463723182678 -0.07422468811273575
0.014577673748135567 0.5705952048301697 -0.07422468811273575
-0.20371828973293304 0.034469399601221085 -0.01257519330829382
0.22059942781925201 0.2616632282733917 0.07398669421672821
-0.10760463774204254 0.6621243357658386 -0.07422468811273575
0.05764643847942352 0.4661277234554291 -0.07422468811273575
0.04941203445196152 -0.77781081199646 0.07398669421672821
0.03786022216081619 0.5137602090835571 -0.07422468811273575
-0.05859291926026344 0.17936645448207855 0.07398669421672821
0.13756772875785828 -0.9423537850379944 -0.07422468811273575
0.13086168467998505 0.1716262549161911 0.07398669421672821
-0.10413219779729843 -0.4867020547389984 0.07398669421672821
0.07515628635883331 0.2619263231754303 0.07398669421672821
0.13247112929821014 -0.1831292361021042 -0.07422468811273575
-0.1578393429517746 0.5880887508392334 0.07398669421672821
0.06501387059688568 -0.4173329472541809 0.0500737801194191
-0.12026788294315338 0.4937613606452942 -0.07422468811273575
0.06573555618524551 0.15917369723320007 0.07398669421672821
0.17932279407978058 0.17444674670696259 0.07398669421672821
-0.134247824549675 -0.19314084947109222 0.07398669421672821
-0.09034774452447891 0.30920717120170593 -0.07422468811273575
0.1871841698884964 0.337691992521286 0.07398669421672821
0.04536283388733864 -0.3580678701400757 0.07398669421672821
0.15380296111106873 0.49927252531051636 0.07398669421672821
0.08157026767730713 0.39679378271102905 -0.07422468811273575
0.10075798630714417 -0.15543729066848755 0.07398669421672821
0.21858693659305573 -0.9926343560218811 -0.05452169477939606
-0.20371828973293304 0.28731614351272583 -0.008202389813959599
-0.04410804435610771 0.4635109603404999 0.07398669421672821
-0.034438882023096085 -0.5338000059127808 -0.07422468811273575
0.21218428015708923 0.0877985954284668 0.07398669421672821
-0.013567266054451466 -0.6134726405143738 -0.07422468811273575
-0.19059810042381287 0.745781421661377 -0.07422468811273575
0.14214305579662323 0.4807218611240387 -0.07422468811273575
0.12639503180980682 0.14553937315940857 0.07398669421672821
0.22237516939640045 -0.0462426021695137 -0.07422468811273575
-0.1753261238336563 -0.6975306272506714 0.07398669421672821
0.1127546951174736 -0.05229939892888069 0.07398669421672821
-0.19410517811775208 0.12438341230154037 0.07398669421672821
0.2153448462486267 0.04101927950978279 -0.07422468811273575
-0.16674576699733734 0.040130071341991425 -0.07422468811273575
-0.05537864565849304 -0.3316556513309479 -0.07422468811273575
-0.08201085776090622 -0.8924351334571838 0.01818532682955265
-0.06253517419099808 -0.6622141003608704 0.07398669421672821
0.23417387902736664 0.52726811170578 0.07398669421672821
-0.0984167829155922 0.3436702489852905 -0.07422468811273575
0.020087139680981636 0.6841195225715637 -0.0328906886279583
0.02663746289908886 -0.28054946660995483 0.07398669421672821
0.09273063391447067 0.3606439232826233 0.07398669421672821
0.24091584980487823 0.16349223256111145 0.0502735897898674
0.1361682116985321 0.7227776050567627 0.07398669421672821
-0.14343790709972382 -0.17311690747737885 0.07398669421672821
0.24091584980487823 0.5395982265472412 0.05272651091217995
-0.11140376329421997 0.2517668306827545 0.07398669421672821
0.017738334834575653 0.7265607118606567 -0.07422468811273575
-0.10821045190095901 -0.5285893082618713 0.07398669421672821
0.16582588851451874 0.45279577374458313 -0.07422468811273575
-0.12827461957931519 -0.7613575458526611 0.07398669421672821
-0.02743741124868393 0.3609297275543213 0.005513694602996111
0.0512460321187973 -0.9368541240692139 0.06814618408679962
0.11203143000602722 0.24945658445358276 -0.07422468811273575
0.10952692478895187 -0.12349304556846619 -0.07422468811273575
0.24091584980487823 -0.19750505685806274 0.02030969224870205
-0.20371828973293304 0.3269456624984741 0.06683387607336044
0.174533873796463 0.47168272733688354 0.07398669421672821
-0.05880138650536537 0.5835950374603271 0.07398669421672821
0.01029183715581894 -0.5395134091377258 -0.07422468811273575
-0.20371828973293304 0.511935293674469 -0.017187660560011864
0.2041434347629547 0.7784591913223267 -0.06058388575911522
-0.1844605654478073 -0.28888386487960815 -0.07422468811273575
-0.057089582085609436 0.1577555239200592 -0.07422468811273575
0.24091584980487823 -0.21037393808364868 0.0686785951256752
0.24091584980487823 0.2980295419692993 -0.04418816789984703
-0.20371828973293304 -0.5111627578735352 0.07125712931156158
0.044318415224552155 -0.3384043276309967 -0.07422468811273575
0.14466482400894165 0.2275620847940445 0.07398669421672821
-0.10534396767616272 0.09230276942253113 -0.07422468811273575
0.1653650552034378 0.5384159684181213 -0.07422468811273575
0.030292589217424393 -0.7160072326660156 0.032875075936317444
-0.12235604971647263 0.43935179710388184 0.07398669421672821
-0.09380978345870972 -0.5242278575897217 -0.07422468811273575
0.1188422292470932 0.46585509181022644 0.07398669421672821
0.10281742364168167 0.7230232954025269 -0.07422468811273575
-0.16880200803279877 0.1777835637331009 -0.07422468811273575
-0.20371828973293304 0.7258402705192566 -0.06953645497560501
0.06412208080291748 -0.269688218832016 -0.07422468811273575
-0.20371828973293304 0.22977793216705322 -0.012421817518770695
0.14792481064796448 0.3934241235256195 0.07398669421672821
-0.017616255208849907 0.4977877736091614 0.07398669421672821
0.20909017324447632 0.3084472715854645 -0.07422468811273575
0.08600715547800064 -0.9484411478042603 -0.061664942651987076
-0.06974758952856064 -0.8965228796005249 0.05499279126524925
-0.09334812313318253 0.7784591913223267 -0.07299444079399109
-0.05477580428123474 -0.030096285045146942 -0.07422468811273575
0.24091584980487823 0.2944329082965851 0.06897732615470886
-0.11936665326356888 -0.24683544039726257 0.07398669421672821
0.03484290838241577 0.12288021296262741 0.07398669421672821
0.2335948348045349 0.10090235620737076 -0.07422468811273575
0.12526562809944153 -0.16794094443321228 0.07398669421672821
0.020814010873436928 -0.7742143273353577 -0.07422468811273575
0.10961319506168365 -0.9563097953796387 -0.061246566474437714
-0.20371828973293304 0.3206542432308197 -0.015142153948545456
-0.05963006988167763 -0.41337037086486816 -0.07422468811273575
-0.028944052755832672 -0.6465147137641907 0.07398669421672821
-0.13681021332740784 0.022304080426692963 -0.07422468811273575
0.01870531588792801 -0.770453929901123 -0.07422468811273575
-0.18490254878997803 -0.3815741539001465 0.07398669421672821
-0.045874014496803284 -0.5068503022193909 -0.07422468811273575
0.21166367828845978 0.6158350110054016 -0.07422468811273575
-0.1852266937494278 -0.047538530081510544 0.07398669421672821
0.24091584980487823 0.7578396201133728 0.015640458092093468
-0.15135769546031952 -0.49669164419174194 -0.07422468811273575
0.10861550271511078 0.5505568385124207 -0.07422468811273575
-0.19973976910114288 0.6481620073318481 -0.07422468811273575
-0.07053254544734955 -0.38703206181526184 0.07398669421672821
-0.20371828973293304 0.17710644006729126 0.059376880526542664
0.027524935081601143 -0.270134299993515 0.07398669421672821
0.21835952997207642 0.04469292238354683 -0.07422468811273575
-0.09723220765590668 -0.7926234602928162 -0.07422468811273575
0.1281493455171585 0.1612008810043335 -0.07422468811273575
-0.017053566873073578 -0.7375857830047607 0.07398669421672821
0.03719950467348099 0.6805062890052795 -0.03047103062272072
0.19453008472919464 0.06260492652654648 -0.07422468811273575
-0.11866707354784012 -0.30383166670799255 0.07398669421672821
-0.08785039186477661 0.38255223631858826 0.07398669421672821
0.07149592787027359 0.6400840878486633 0.021445363759994507
-0.17943452298641205 0.2088460773229599 0.07398669421672821
-0.12309664487838745 0.375545859336853 0.07398669421672821
-0.0308003518730402 -0.43279433250427246 0.07398669421672821
-0.006781307049095631 -0.33068153262138367 0.07398669421672821
-0.023401444777846336 -0.4080711901187897 0.07398669421672821
-0.08493155241012573 0.02072831243276596 -0.07422468811273575
0.17769667506217957 0.12040811032056808 -0.07422468811273575
0.10784903168678284 0.17090924084186554 -0.07422468811273575
-0.157957524061203 -0.11012110859155655 -0.07422468811273575
-0.009070812724530697 0.584399938583374 0.01803438737988472
-0.1740449219942093 0.22647413611412048 0.07398669421672821
0.15062934160232544 0.4962901771068573 0.07398669421672821
0.1922024041414261 -0.04436865448951721 -0.07422468811273575
0.004070880822837353 0.5785388350486755 0.06738101691007614
-0.20371828973293304 -0.7905530333518982 -0.02525118738412857
0.2076423019170761 0.7498104572296143 -0.07422468811273575
0.01873200386762619 -0.6224275827407837 -0.04107796400785446
-0.14316768944263458 -0.4489201009273529 0.07398669421672821
0.2296074628829956 -0.9932897686958313 -0.04292265325784683
0.025505520403385162 0.5768086910247803 0.019444579258561134
0.07197639346122742 0.6253326535224915 0.002384040504693985
0.16721674799919128 0.3751428723335266 0.07398669421672821
0.0980895385146141 -0.36137285828590393 0.04131803661584854
-0.002338720951229334 0.2841417193412781 -0.059295348823070526
-0.20371828973293304 -0.20184379816055298 -0.028849799185991287
0.18742741644382477 -0.9637553095817566 -0.06124841049313545
0.24055872857570648 -0.11488927900791168 0.07398669421672821
0.16843542456626892 -0.08380059152841568 -0.07422468811273575
-0.06306079030036926 -0.18990205228328705 0.07398669421672821
0.06449784338474274 0.020599031820893288 -0.07422468811273575
0.1763385534286499 0.6828675270080566 0.07398669421672821
-0.20371828973293304 0.3176800608634949 -0.04856911674141884
-0.16508473455905914 -0.2149796187877655 0.07398669421672821
-0.14729465544223785 -0.6783832907676697 -0.07422468811273575
0.1747337132692337 -0.14934861660003662 0.07398669421672821
0.039176736027002335 -0.20493167638778687 0.07398669421672821
0.14088739454746246 -0.9667345881462097 -0.02837103046476841
-0.20371828973293304 0.04898964613676071 0.006747784558683634
0.01861850544810295 -0.616909921169281 0.06348814815282822
0.12025846540927887 0.7071951031684875 0.07398669421672821
0.1846609264612198 -0.08586587756872177 -0.07422468811273575
0.05855574458837509 -0.2560853958129883 -0.07422468811273575
-0.20371828973293304 -0.5983377695083618 -0.028443995863199234
0.24091584980487823 0.25328168272972107 0.04004638269543648
0.18852844834327698 -0.9645909070968628 -0.053675681352615356
0.11029849201440811 -0.8853592276573181 0.04843335226178169
0.005777331534773111 0.7738118767738342 0.07398669421672821
0.008964235894382 -0.5736396908760071 0.07398669421672821
-0.0997500792145729 0.2205166220664978 0.07398669421672821
0.11575894057750702 -0.8924113512039185 -0.053025174885988235
0.08292476087808609 -0.24429629743099213 -0.07422468811273575
-0.20031863451004028 0.11269167810678482 -0.07422468811273575
-0.18774642050266266 0.3339126706123352 0.07398669421672821
0.24091584980487823 0.6718864440917969 0.035650841891765594
-0.19386662542819977 -0.45009782910346985 0.07398669421672821
-0.031183309853076935 0.353150337934494 0.07215925306081772
-0.04216660186648369 -0.4174494445323944 0.07398669421672821
0.02168879471719265 0.28027665615081787 0.044773295521736145
0.0079867048189044 -0.16009549796581268 0.07398669421672821
-0.1244862973690033 0.09278365969657898 -0.07422468811273575
-0.0814274325966835 -0.42290496826171875 0.07398669421672821
-0.05254737660288811 0.5523767471313477 0.07398669421672821
0.07000939548015594 -0.15443411469459534 0.07398669421672821
-0.02494814060628414 -0.29645881056785583 -0.07422468811273575
0.13741864264011383 -0.312511682510376 -0.04756525531411171
-0.12536761164665222 -0.5801040530204773 0.07398669421672821
-0.20371828973293304 0.270250529050827 -0.07115812599658966
0.13746227324008942 0.026641491800546646 0.07398669421672821
0.11440712213516235 -0.33940091729164124 -0.03926350921392441
-0.08688807487487793 0.7143338918685913 0.07398669421672821
-0.20371828973293304 -0.6925444602966309 -0.01780509576201439
0.09251736849546432 0.7198673486709595 0.07398669421672821
-0.03582294285297394 0.7784591913223267 0.046028945595026016
0.24091584980487823 0.23865540325641632 -0.02073114551603794
0.04775466397404671 -0.7733200192451477 0.06590279936790466
-0.08931441605091095 -0.6935058832168579 -0.07422468811273575
-0.20371828973293304 -0.2963974177837372 -0.02369903214275837
0.10719563812017441 0.6854745149612427 -0.07422468811273575
-0.023334866389632225 -0.8964037895202637 0.07398669421672821
-0.06083288788795471 0.34899696707725525 -0.07422468811273575
0.24091584980487823 -0.1495177000761032 0.0234406478703022
-0.06513775885105133 0.7239693999290466 -0.07422468811273575
-0.17775818705558777 0.7038159966468811 -0.07422468811273575
-0.03745169937610626 0.5366683602333069 0.07398669421672821
-0.20371828973293304 -0.18895533680915833 0.048383958637714386
0.12856300175189972 -0.31025585532188416 -0.07422468811273575
0.16792179644107819 -0.9664365649223328 -0.07422468811273575
-0.12056022882461548 -0.03167855367064476 0.07398669421672821
0.05565812066197395 -0.8460784554481506 0.07398669421672821
-0.1941925287246704 -0.6782700419425964 -0.07422468811273575
0.01945251040160656 0.38752633333206177 -0.023675892502069473
0.13710400462150574 -0.965473473072052 -0.05320582166314125
-0.15153588354587555 0.08995310217142105 -0.07422468811273575
0.21124587953090668 -0.24802763760089874 0.07398669421672821
0.0852266177535057 -0.8490043878555298 0.005189368035644293
-0.058984290808439255 -0.559214174747467 0.07398669421672821
0.10480155795812607 -0.34556010365486145 -0.07422468811273575
-0.15336236357688904 -0.4676961600780487 -0.07422468811273575
0.03827081248164177 0.6896812915802002 -0.07422468811273575
-0.03478617966175079 0.5579922795295715 0.07398669421672821
0.01625875011086464 0.17885316908359528 0.07398669421672821
-0.025059202685952187 0.7230800986289978 -0.07422468811273575
-0.20371828973293304 -0.27871090173721313 -0.018282108008861542
-0.07027076184749603 0.012547108344733715 -0.07422468811273575
-0.20371828973293304 -0.5392152070999146 0.02656993456184864
-0.1649014949798584 -0.3059380352497101 -0.07422468811273575
0.069163016974926 0.7784591913223267 0.022629760205745697
0.08874930441379547 0.2747156023979187 -0.07422468811273575
0.06344122439622879 0.6591235995292664 0.021033914759755135
0.10850297659635544 0.029508288949728012 0.07398669421672821
0.22870859503746033 0.288319855928421 -0.07422468811273575
-0.15158821642398834 -0.8446400165557861 0.07398669421672821
-0.05538666993379593 0.5794343948364258 0.07398669421672821
0.24091584980487823 0.3560701012611389 -0.03531639277935028
-0.09778089821338654 -0.40390828251838684 0.07398669421672821
-0.17545439302921295 0.2184135764837265 0.07398669421672821
0.08921992778778076 0.4488295316696167 -0.07422468811273575
0.07187388837337494 0.3388032615184784 -0.01375927310436964
-0.07891476899385452 0.7784591913223267 0.03219751641154289
-0.09350308030843735 0.6430748105049133 0.07398669421672821
-0.03011249005794525 0.5990161895751953 -0.07422468811273575
-0.08504284918308258 -0.1752529740333557 -0.07422468811273575
-0.0004240361740812659 -0.026026161387562752 -0.07422468811273575
0.24091584980487823 -0.03842965513467789 0.03731856122612953
0.24091584980487823 0.09166143834590912 -0.018553903326392174
-0.06786300987005234 0.4171879291534424 0.07398669421672821
-0.164094939827919 -0.10497114807367325 -0.07422468811273575
-0.05604555085301399 0.5165616273880005 0.07398669421672821
0.10685420036315918 -0.8808371424674988 0.026524392887949944
0.12207069247961044 -0.9604622721672058 -0.017057811841368675
-0.005606938153505325 -0.034565649926662445 0.07398669421672821
-0.0055785574950277805 -0.6663027405738831 0.07398669421672821
-0.18443648517131805 0.6262511610984802 0.07398669421672821
0.16685952246189117 -0.28359857201576233 -0.025147248059511185
-0.1102573424577713 -0.0002771705330815166 0.07398669421672821
0.24091584980487823 0.438849538564682 0.022013859823346138
0.10776332765817642 -0.9310305714607239 0.07398669421672821
-0.1836688071489334 0.25833210349082947 0.07398669421672821
0.09116324037313461 0.412269651889801 -0.07422468811273575
0.1254512220621109 0.18137547373771667 0.07398669421672821
0.1051693856716156 0.2732568383216858 0.07398669421672821
-0.03964895382523537 -0.39298951625823975 -0.07422468811273575
-0.06754746288061142 -0.3842187225818634 0.07398669421672821
0.24091584980487823 0.7396419644355774 -0.035694390535354614
0.2235330045223236 0.6644065380096436 0.07398669421672821
-0.14721892774105072 0.7660169005393982 -0.07422468811273575
0.06413274258375168 0.6588817834854126 -0.03351053223013878
-0.11030838638544083 0.1311715543270111 -0.07422468811273575
0.16239270567893982 -0.28763455152511597 -0.060760289430618286
-0.20371828973293304 0.6470903158187866 0.044241003692150116
-0.20371828973293304 -0.6000785827636719 -0.056600961834192276
0.24091584980487823 0.28533053398132324 -0.04208477586507797
-0.08950702846050262 -0.2518846094608307 -0.07422468811273575
0.19051320850849152 -0.21015794575214386 0.07398669421672821
-0.1766214221715927 -0.3128799498081207 -0.07422468811273575
-0.1880384385585785 -0.7517219185829163 0.07398669421672821
-0.005711578298360109 -0.7544838190078735 0.07398669421672821
-0.1128046065568924 -0.08648290485143661 0.07398669421672821
-0.20371828973293304 -0.829787015914917 0.015033407136797905
0.0637715682387352 -0.3942578434944153 -0.07422468811273575
0.23578085005283356 -0.07566719502210617 0.07398669421672821
-0.09371867775917053 0.7784591913223267 0.018381956964731216
0.24091584980487823 0.12985345721244812 -0.05652870237827301
0.15900355577468872 0.1314711570739746 -0.07422468811273575
0.012960972264409065 -0.6962321996688843 0.07398669421672821
-0.07098480314016342 -0.7729556560516357 -0.07422468811273575
0.05215812101960182 0.4341142177581787 0.07398669421672821
0.1451699137687683 0.16624203324317932 -0.07422468811273575
0.03702412545681 -0.7414625287055969 0.07097439467906952
0.24091584980487823 -0.10594449192285538 -0.06651991605758667
0.021346470341086388 -0.47075170278549194 0.07398669421672821
0.07226762920618057 0.6323210000991821 0.044133078306913376
0.04412692040205002 0.43371114134788513 0.07398669421672821
0.06319726258516312 0.05003555864095688 0.07398669421672821
0.061409853398799896 0.3664477467536926 0.05100170895457268
-0.13648582994937897 0.21103966236114502 -0.07422468811273575
0.181072399020195 0.1252734214067459 0.07398669421672821
0.06467493623495102 -0.8119656443595886 -0.05313653126358986
-0.09238100051879883 0.4251497685909271 -0.07422468811273575
0.06461047381162643 0.5745507478713989 0.07398669421672821
-0.09410079568624496 0.21380549669265747 -0.07422468811273575
-0.09864041209220886 -0.25387921929359436 -0.07422468811273575
-0.07135895639657974 -0.2740350067615509 0.07398669421672821
0.01901482790708542 -0.6336151361465454 0.042256612330675125
-0.04359675198793411 0.06799626350402832 -0.07422468811273575
0.12228123843669891 0.22888240218162537 0.07398669421672821
-0.046950675547122955 0.32382768392562866 0.07398669421672821
-0.20371828973293304 -0.6763591170310974 0.04710052162408829
0.24091584980487823 0.48179200291633606 -0.04927802458405495
-0.12560124695301056 0.7624075412750244 0.07398669421672821
-0.05891234800219536 0.24235326051712036 0.07398669421672821
-0.14725828170776367 -0.5468178987503052 -0.07422468811273575
0.014306758530437946 -0.44454675912857056 -0.07422468811273575
-0.14354892075061798 -0.4044669568538666 0.07398669421672821
0.029046189039945602 0.7533606886863708 -0.07422468811273575
0.1595609188079834 0.7784591913223267 -0.037728600203990936
-0.20371828973293304 0.6407968997955322 -0.029931820929050446
0.24027501046657562 0.12361360341310501 0.07398669421672821
0.21889451146125793 0.338891863822937 0.07398669421672821
-0.20371828973293304 0.5276276469230652 -0.015592199750244617
0.1963346302509308 0.5225918889045715 -0.07422468811273575
0.2183939516544342 -0.07809913903474808 0.07398669421672821
0.23917274177074432 0.7290854454040527 -0.07422468811273575
0.0385548397898674 0.4599056839942932 -0.07422468811273575
-0.20371828973293304 -0.6822429895401001 0.07077213376760483
-0.20371828973293304 -0.7385938167572021 0.07231391221284866
0.018148213624954224 0.739900529384613 -0.07422468811273575
-0.20371828973293304 -0.3476696014404297 -0.06605495512485504
-0.1712079644203186 0.22975432872772217 -0.07422468811273575
-0.18017785251140594 -0.42795151472091675 0.07398669421672821
