-6.297330379486084 0.5666753053665161 0.32483533024787903
-13.475914001464844 -1.0009596347808838 4.505147933959961
-5.891416549682617 -4.011171817779541 0.09379875659942627
-19.580245971679688 7.016141891479492 7.8851423263549805
-13.423066139221191 0.5874719619750977 5.9335103034973145
-8.870468139648438 4.1813130378723145 1.7894036769866943
-6.134592056274414 1.3794533014297485 0.23220980167388916
-3.3141469955444336 -1.6275290250778198 -1.373119831085205
-7.299028396606445 -2.403327465057373 0.8949755430221558
-11.624815940856934 4.689415454864502 3.357109785079956
-4.922115802764893 0.9404579401016235 -0.4579024910926819
-3.669466257095337 2.040051221847534 -1.1708792448043823
-8.167299270629883 2.625535726547241 1.3891769647598267
-12.749584197998047 -3.581345796585083 3.9972968101501465
-11.105199813842773 -3.248019218444824 4.441938400268555
-9.828892707824707 -4.491928577423096 2.3349111080169678
-14.514702796936035 1.7888672351837158 5.001960754394531
-8.808857917785645 -1.816691517829895 1.7543330192565918
-7.2896857261657715 -2.9121241569519043 0.8896579742431641
-10.989830017089844 -3.4269492626190186 4.442245960235596
-12.348533630371094 1.5094283819198608 3.7690305709838867
-12.998114585876465 2.3246798515319824 4.138756275177002
-4.189867973327637 0.10766661167144775 -0.8746809363365173
-12.093367576599121 -2.5436220169067383 3.6237947940826416
-12.704605102539062 -1.232042670249939 3.971696376800537
-3.32637357711792 1.7159887552261353 -1.3661562204360962
-7.631868839263916 -2.5377485752105713 1.0844193696975708
-7.2344183921813965 2.5418243408203125 0.8582037687301636
-4.789350509643555 2.219080686569214 -0.5334671139717102
-13.018670082092285 -2.6901140213012695 4.150453567504883
-9.717808723449707 -4.7752251625061035 2.2716848850250244
-8.7994384765625 2.934009313583374 1.748975396156311
-8.606602668762207 4.714907169342041 1.6392173767089844
-9.658756256103516 -0.12374269962310791 2.2380754947662354
-7.393838882446289 -1.5264800786972046 0.9489395022392273
-13.53201675415039 -0.8060832619667053 5.968742847442627
-10.763943672180176 -3.123955249786377 2.8671185970306396
-5.017243385314941 0.6229754686355591 -0.40375930070877075
-15.409468650817871 -0.6205242276191711 5.511238098144531
-7.327910423278809 1.0638028383255005 0.9114169478416443
-19.352415084838867 3.1621413230895996 7.755465984344482
-4.972803115844727 0.41836416721343994 -0.42905309796333313
-12.825891494750977 7.712670803070068 4.040732383728027
-6.5457329750061035 -1.4256447553634644 0.46622055768966675
-9.264479637145996 -5.078250408172607 2.0136616230010986
-14.908079147338867 3.8230292797088623 5.225859642028809
-13.704694747924805 -3.4431443214416504 4.540921211242676
-12.072267532348633 -0.7358331680297852 3.611785411834717
-12.363851547241211 -2.940239906311035 3.7777466773986816
-11.638046264648438 6.839200496673584 3.3646414279937744
-10.145133018493652 -5.069458484649658 2.514906883239746
-10.116887092590332 -3.543280839920044 2.498831033706665
-14.931633949279785 1.3628252744674683 5.2392659187316895
-8.044280052185059 -2.7142350673675537 1.3191543817520142
-6.465422630310059 -3.548225164413452 0.5769327282905579
-4.93441915512085 1.125783085823059 -0.45089998841285706
-12.97011947631836 2.406212329864502 4.122821807861328
-11.391322135925293 -2.0055224895477295 3.2242071628570557
-12.346991539001465 1.003175139427185 3.7681527137756348
-6.608543395996094 -4.63681173324585 0.5019686818122864
-12.705207824707031 -1.9900368452072144 4.046142578125
-10.768397331237793 -0.8565682172775269 2.8696558475494385
-9.942232131958008 -3.760822057723999 2.3994204998016357
-17.058286666870117 5.2113356590271 6.449706077575684
-9.92329216003418 6.188005447387695 2.388645648956299
-12.62209701538086 -2.075317144393921 4.036605358123779
-10.105538368225098 -4.2197794914245605 4.620782852172852
-10.470464706420898 1.625780701637268 2.700080394744873
-8.56031322479248 -0.12640559673309326 1.6128692626953125
-9.280885696411133 -2.4701457023620605 2.0229997634887695
-9.64803695678711 -5.211886882781982 3.620006561279297
-7.751526832580566 2.4026124477386475 1.1525284051895142
-11.58019733428955 -1.3597455024719238 3.331711530685425
-9.658625602722168 -0.008260912261903286 2.4036929607391357
-11.514973640441895 0.33853793144226074 3.2945878505706787
-11.8623685836792 6.875545978546143 3.4923200607299805
-21.32260513305664 7.188693046569824 8.876851081848145
-10.05217170715332 -1.5466386079788208 2.46199631690979
-3.1770687103271484 -1.673730731010437 -1.4511405229568481
-8.724533081054688 -0.7356866598129272 1.7063380479812622
-8.494911193847656 -2.6833250522613525 1.5756440162658691
-11.178033828735352 0.4808105230331421 3.1028106212615967
-3.5322866439819336 2.0780208110809326 -1.2489571571350098
-7.961184978485107 -4.728507995605469 1.2718584537506104
-12.236679077148438 -0.5272036790847778 3.705364227294922
-9.148962020874023 -2.6282615661621094 1.9479118585586548
-8.958579063415527 0.6979766488075256 1.9965335130691528
-10.406840324401855 3.8955135345458984 2.663867235183716
-10.482020378112793 -4.733473300933838 3.1261093616485596
-10.869169235229492 -2.457247495651245 6.332430839538574
-5.257090091705322 0.14565050601959229 -0.26724255084991455
-10.10400104522705 2.2283496856689453 2.4914987087249756
-11.449007034301758 -2.46406888961792 3.257039785385132
-8.986869812011719 0.44299018383026123 1.8556545972824097
-13.091826438903809 -1.0434547662734985 5.075901508331299
-4.605110168457031 2.029367685317993 -0.6383324861526489
-12.54565143585205 -2.5405852794647217 3.881223201751709
-10.708117485046387 -2.9873416423797607 2.835344076156616
-8.93514633178711 0.24802076816558838 1.8262141942977905
-6.6995086669921875 1.2912126779556274 0.5537447929382324
-11.038253784179688 6.286919593811035 3.0232536792755127
-6.70144510269165 3.3556861877441406 0.554847776889801
-10.669898986816406 3.393097162246704 2.813593864440918
-9.985634803771973 -4.206806182861328 4.803035736083984
-18.8721981048584 6.380913257598877 7.482140064239502
-11.43763256072998 0.39781224727630615 3.2505674362182617
-9.939827919006348 -4.7102131843566895 2.398052930831909
-17.16399574279785 10.217185020446777 6.509875774383545
-4.850850582122803 -2.3818676471710205 -0.4984653890132904
-15.190390586853027 9.118288040161133 5.386547565460205
-12.284037590026855 3.901447296142578 3.732320785522461
-16.285165786743164 4.660161018371582 6.009665012359619
-17.28187370300293 3.754157066345215 6.576966285705566
-5.127702236175537 -3.478505849838257 -0.3408897817134857
-11.255024909973145 -2.3599088191986084 3.1466310024261475
-11.994511604309082 -2.4793591499328613 4.294980049133301
-16.409616470336914 -0.37697282433509827 6.080495834350586
-13.545601844787598 5.139269828796387 4.450373649597168
-10.061859130859375 -4.510797023773193 4.180948257446289
-6.702315807342529 0.17585766315460205 0.555343747138977
-3.8284833431243896 1.792577862739563 -1.0803701877593994
-8.335901260375977 -3.365046262741089 1.4851369857788086
-6.341352462768555 -3.8557543754577637 0.5155832171440125
-10.16528606414795 -1.3213220834732056 2.5263783931732178
-8.796283721923828 -2.8963236808776855 1.7471762895584106
-8.966679573059082 2.0282955169677734 1.8441630601882935
-5.845383644104004 1.1550861597061157 0.06759892404079437
-5.530411720275879 2.445892572402954 -0.11167600750923157
-7.8051629066467285 2.4963507652282715 1.1830569505691528
-9.820817947387695 6.528392314910889 2.330319881439209
-14.264848709106445 7.546471118927002 4.859752178192139
-4.718883037567139 -2.4877731800079346 -0.5735772252082825
-9.893407821655273 -1.4452317953109741 2.371633291244507
-13.02917766571045 -1.3092120885849 4.742312908172607
-13.351737976074219 1.4306598901748657 4.340028762817383
-6.4285807609558105 1.410239815711975 0.39954039454460144
-13.498685836791992 -0.7551669478416443 4.9365715980529785
-6.087899208068848 -3.6860904693603516 0.2056303769350052
-10.926620483398438 -2.384986639022827 2.9597115516662598
-2.9763619899749756 -1.2897132635116577 -1.5653797388076782
-3.120513916015625 -0.4481152296066284 -1.4833298921585083
-10.287155151367188 5.609901428222656 2.5957467555999756
-10.754887580871582 6.776909351348877 2.861968755722046
-3.432403802871704 1.5918127298355103 -1.3058099746704102
-14.255167007446289 8.805201530456543 4.854242324829102
-9.974068641662598 -3.59875226020813 5.802332878112793
-2.116544008255005 0.18547195196151733 -0.4170708656311035
-12.996137619018555 -4.107145309448242 6.19761848449707
-13.60777473449707 0.7805670499801636 5.254793167114258
-8.6915283203125 -1.6392961740493774 1.6875518560409546
-8.834736824035645 -4.435103893280029 1.769061803817749
-13.879814147949219 2.9565768241882324 4.640598773956299
-8.787992477416992 -2.3976948261260986 1.7424572706222534
-14.070221900939941 -4.042013645172119 4.748970031738281
-10.9646635055542 3.7756505012512207 2.9813663959503174
-10.562594413757324 -4.092931270599365 3.7654213905334473
-6.89064359664917 -1.9884904623031616 0.66253262758255
-4.374100685119629 1.3811637163162231 -0.7698196172714233
-3.308364152908325 0.761121392250061 -1.3764103651046753
-14.65705680847168 0.5605058670043945 6.189574241638184
-10.598363876342773 -5.8245720863342285 2.772874116897583
-5.40377950668335 -0.6416829824447632 -0.1837521344423294
-9.564496040344238 3.635502815246582 2.1844258308410645
-5.562503814697266 -2.5088789463043213 -0.09340932220220566
-14.952332496643066 6.340423107147217 5.251049995422363
-14.169245719909668 2.413339853286743 4.805334091186523
-15.662054061889648 -0.4867274761199951 5.655003070831299
-5.490246772766113 0.9547454118728638 -0.1345369517803192
-7.372766494750977 -3.5817711353302 0.9369452595710754
-9.14456558227539 -2.0323245525360107 1.9454091787338257
-6.231049060821533 -3.343579053878784 0.2871091067790985
-10.234023094177246 -3.1934235095977783 2.5655019283294678
-13.262626647949219 0.85137939453125 5.758779048919678
-4.714316368103027 1.1204134225845337 -0.5761759281158447
-12.491708755493164 -2.6381094455718994 3.8505210876464844
-6.601319789886475 2.0077741146087646 0.49785977602005005
-7.738883972167969 3.256147861480713 1.145334005355835
-11.023201942443848 -2.440354108810425 6.093333721160889
-5.156646728515625 0.41969549655914307 -0.324413001537323
-11.75826358795166 6.947726249694824 3.4330661296844482
-15.993867874145508 8.04582405090332 6.070833683013916
-9.323861122131348 0.05435311794281006 2.0474627017974854
-4.82807731628418 1.6720606088638306 -0.5114278793334961
-7.0117878913879395 -3.704719305038452 0.7314856648445129
-9.88061809539795 -3.6232244968414307 2.364351749420166
-12.0316801071167 1.8282136917114258 3.5886855125427246
-5.301474571228027 2.59842848777771 -0.24198006093502045
-15.069499015808105 3.9017269611358643 5.317737102508545
-7.389482498168945 3.4791173934936523 0.9464625120162964
-16.790864944458008 -0.594565212726593 6.297494411468506
-13.991641998291016 7.229357719421387 4.704248428344727
-6.6238837242126465 2.2309844493865967 0.5107024908065796
-11.58255386352539 -0.3975914716720581 3.3330531120300293
-11.49202823638916 -2.840372323989868 4.492752552032471
-11.878058433532715 7.055479526519775 3.5012505054473877
-6.447647571563721 -3.0193369388580322 0.4103911221027374
-8.620100975036621 -2.289121389389038 1.646897554397583
-9.084110260009766 -1.8848670721054077 1.9110008478164673
-8.27669906616211 -4.795517921447754 1.451441764831543
-10.176039695739746 -0.35624372959136963 2.5324997901916504
-10.628212928771973 2.871492862701416 2.7898671627044678
-9.703254699707031 -4.22916841506958 2.2634003162384033
-8.106022834777832 -3.263038396835327 1.3542969226837158
-13.924448013305664 3.785536766052246 4.66600227355957
-7.6509623527526855 -0.3182634115219116 1.0952893495559692
-5.060102939605713 -1.2281874418258667 -0.37936362624168396
-4.97951602935791 3.487860679626465 -0.42522943019866943
-19.572355270385742 3.383898973464966 7.880650043487549
-10.945755004882812 -3.6119112968444824 2.9706013202667236
-13.106707572937012 -1.134932041168213 4.200563907623291
-10.870071411132812 -2.7003424167633057 2.9275245666503906
-13.089890480041504 -1.2754031419754028 4.679037094116211
-8.101619720458984 0.9461318254470825 1.351792573928833
-6.335336685180664 1.6791926622390747 0.3464687764644623
-9.001426696777344 1.4758151769638062 1.8639395236968994
-7.131479740142822 0.15635645389556885 0.799612283706665
-5.703375816345215 1.2087537050247192 -0.013228615745902061
-13.73863697052002 4.844605922698975 4.560243606567383
-10.910693168640137 -1.0294431447982788 2.9506471157073975
-7.297181129455566 1.24221932888031 0.8939250707626343
-12.489354133605957 -1.7283744812011719 4.883636474609375
-8.628531455993652 -5.443986892700195 1.6516938209533691
-7.156432151794434 2.643126964569092 0.8138149976730347
-9.739957809448242 3.431699514389038 2.284295082092285
-9.581961631774902 -1.7449651956558228 2.1943657398223877
-11.008068084716797 3.858637571334839 3.006071090698242
-14.585939407348633 -1.9469560384750366 6.568607807159424
-11.359319686889648 -0.5559607744216919 3.20599365234375
-17.926313400268555 4.543710708618164 6.9437665939331055
-6.586174964904785 -3.104696273803711 0.48923784494400024
-11.090385437011719 2.1527397632598877 3.052924871444702
-11.214604377746582 -1.8949967622756958 3.1236233711242676
-10.096403121948242 5.646618843078613 2.4871745109558105
-11.54633903503418 -7.438541889190674 3.3124377727508545
-9.437353134155273 3.1095986366271973 2.1120591163635254
-12.200249671936035 -2.244007110595703 3.6846296787261963
-19.665925979614258 2.394120216369629 7.933908462524414
-12.255393028259277 7.497173309326172 3.7160191535949707
-16.167110443115234 -5.348013877868652 9.740986824035645
-9.472935676574707 3.2434959411621094 2.132312536239624
-5.185370922088623 2.5141913890838623 -0.30806389451026917
-10.686442375183105 -6.11646842956543 2.8230066299438477
-6.330656051635742 -2.076273202896118 0.34380191564559937
-12.783656120300293 3.473240613937378 4.016690731048584
-5.7458271980285645 0.06448519229888916 0.010932656936347485
-7.671730995178223 -3.3884353637695312 1.1071093082427979
-8.00745964050293 -3.677602529525757 1.2981964349746704
-10.737289428710938 2.201119899749756 2.8519515991210938
-7.256065845489502 1.5746513605117798 0.8705241084098816
-16.009748458862305 7.478741645812988 6.01859712600708
-6.554479598999023 3.8672034740448 0.4711994230747223
-11.100666999816895 -2.822510242462158 3.058773994445801
-7.990776538848877 -1.1848198175430298 1.2887026071548462
-16.016075134277344 3.1570374965667725 5.856504917144775
-6.564396858215332 2.9628357887268066 0.47684457898139954
-3.019994020462036 -1.1569684743881226 -1.540544033050537
-13.277482986450195 0.09895256906747818 7.9092230796813965
-7.915536403656006 -2.946749210357666 1.2458765506744385
-6.448658466339111 4.125041961669922 0.4109690487384796
-3.128661870956421 1.0904957056045532 -1.4786934852600098
-9.028635025024414 3.987751007080078 1.8794283866882324
-4.4626312255859375 -2.083139657974243 -0.7194292545318604
-6.245835304260254 2.6436126232147217 0.29552698135375977
-13.339338302612305 -0.3096999228000641 8.324642181396484
-10.476255416870117 4.042869567871094 2.7033772468566895
-5.027652740478516 -1.9688977003097534 -0.39783409237861633
-13.252965927124023 6.7346696853637695 4.2838134765625
-9.921175003051758 2.020469903945923 2.3874378204345703
-10.174842834472656 -6.69837760925293 2.531816244125366
-13.227692604064941 2.1850860118865967 4.269425392150879
-10.071342468261719 2.31404709815979 2.4729104042053223
-13.657584190368652 0.12943941354751587 4.5141096115112305
-8.37405776977539 -2.775292158126831 1.506856083869934
-4.722293853759766 -1.6246322393417358 -0.5716358423233032
-14.747841835021973 3.745473623275757 5.134657382965088
-9.304831504821777 -4.292540073394775 2.036628246307373
-11.105326652526855 -3.73865008354187 3.4798598289489746
-17.776220321655273 9.86203384399414 6.858336448669434
-5.099697113037109 -0.6444224119186401 -0.3568275570869446
-6.901835918426514 -3.2103164196014404 0.668903648853302
-12.51572322845459 2.194024085998535 3.8641905784606934
-14.778312683105469 -0.19294261932373047 5.1519999504089355
-10.798772811889648 3.480417013168335 2.8869447708129883
-6.709056854248047 -4.248011589050293 0.5591788291931152
-16.34817123413086 6.438726902008057 6.04552698135376
-13.55141544342041 1.8488423824310303 4.453680992126465
-7.5168776512146 1.2155836820602417 1.0189728736877441
-3.892319917678833 0.18423855304718018 -1.0440374612808228
-7.680755615234375 0.711980938911438 1.1122472286224365
-4.861251354217529 -1.7518833875656128 -0.49254751205444336
-11.108328819274902 7.207217693328857 3.0631392002105713
-10.609522819519043 -1.1379510164260864 2.7792272567749023
-5.817462921142578 1.9838258028030396 0.05170844867825508
-9.69035530090332 -4.413493633270264 5.111313819885254
-11.937366485595703 7.1087565422058105 3.5350053310394287
-9.368692398071289 1.3408714532852173 2.1762752532958984
-11.126914024353027 0.30030715465545654 3.0737147331237793
-8.283379554748535 3.9900834560394287 1.4552475214004517
-11.167222023010254 2.428927183151245 3.096656560897827
-4.454822540283203 0.4574533700942993 -0.723874032497406
-10.62717342376709 5.9001970291137695 2.7892768383026123
-1.7064127922058105 0.2471756488084793 -0.7010802030563354
-3.7967259883880615 1.5979467630386353 -1.0984455347061157
-16.70792579650879 9.173874855041504 6.25029182434082
-4.405594348907471 2.7691996097564697 -0.7518926858901978
-7.931854724884033 4.736594200134277 1.2551681995391846
-10.743319511413574 6.010144233703613 2.85538387298584
-14.134393692016602 -0.20896367728710175 7.014369964599609
-15.637263298034668 4.195257186889648 5.640893936157227
-8.522443771362305 1.1475845575332642 1.5913150310516357
-8.971467018127441 1.560771107673645 1.846889615058899
-12.47217082977295 -2.077280044555664 4.255169868469238
-6.042043209075928 1.2072092294692993 0.17953231930732727
-10.065760612487793 1.509546160697937 2.4697322845458984
-3.3388986587524414 0.22364294528961182 -1.3590275049209595
-10.44058895111084 -4.162626266479492 3.868201732635498
-13.466659545898438 2.3471598625183105 4.405440330505371
-5.382934093475342 -0.8960627317428589 -0.19561731815338135
-9.820923805236816 1.896368145942688 2.3303773403167725
-9.688545227050781 0.5201340317726135 2.4207229614257812
-15.710728645324707 0.796420693397522 5.6827073097229
-14.77930736541748 6.0352349281311035 5.152567386627197
-9.353399276733398 -4.511142253875732 2.06427264213562
-10.160733222961426 5.790175437927246 2.5237905979156494
-8.321894645690918 5.627147674560547 1.4771689176559448
-2.646446943283081 -0.6361364126205444 -1.7531569004058838
-7.220983982086182 1.9121812582015991 0.8505564332008362
-9.887948989868164 1.6234663724899292 2.3685262203216553
-9.078296661376953 0.6763869524002075 1.9330081939697266
-19.18549346923828 1.6660276651382446 7.66045618057251
-6.037322998046875 0.4084082841873169 0.17684613168239594
-2.7725207805633545 -0.7300466299057007 -1.681401252746582
-12.53632640838623 2.8431222438812256 3.8759164810180664
-12.455739974975586 -2.1962835788726807 4.103449821472168
-12.40549087524414 -1.4103562831878662 3.801447629928589
-10.84721565246582 -3.7661538124084473 4.3610734939575195
-8.019506454467773 -0.015536189079284668 1.305055022239685
-9.692331314086914 -5.636768817901611 3.484714984893799
-19.765283584594727 10.469598770141602 7.990463733673096
-11.04874324798584 -3.7095136642456055 3.6336519718170166
-11.105562210083008 6.784985542297363 3.0615646839141846
-9.351781845092773 0.2483154535293579 2.0633533000946045
-11.968417167663574 -4.1533284187316895 4.999233722686768
-7.70067834854126 -4.567056655883789 1.1235835552215576
-12.447503089904785 5.891617298126221 3.82536244392395
-5.346497535705566 -0.4813002347946167 -0.2163558304309845
-3.7295870780944824 -0.05272853374481201 -1.1366616487503052
-6.56459903717041 0.4235936403274536 0.4769589304924011
-4.847378253936768 2.8669612407684326 -0.5004403591156006
-5.15038537979126 3.473977565765381 -0.3279750645160675
-14.162962913513184 8.567262649536133 4.801760673522949
-3.852283477783203 -1.40013587474823 -1.06682550907135
-13.41348648071289 6.5781660079956055 4.37517786026001
-13.203418731689453 0.5150712728500366 4.255609035491943
-13.679007530212402 1.5740070343017578 4.526302337646484
-4.82036828994751 -2.0497992038726807 -0.5158141851425171
-8.147875785827637 -1.134524941444397 1.378118872642517
-4.510495662689209 -2.830744504928589 -0.6921887993812561
-13.597407341003418 0.005221376195549965 7.129114151000977
-11.886576652526855 6.348171710968018 3.5060970783233643
-10.040718078613281 -3.4924216270446777 2.455476999282837
-8.602559089660645 1.2394942045211792 1.6369165182113647
-9.338736534118652 -2.65580415725708 2.055926561355591
-16.15570640563965 3.333042860031128 5.935978412628174
-4.5700883865356445 2.5229294300079346 -0.6582661867141724
-13.15576171875 -0.5005642771720886 5.96677303314209
-3.1709494590759277 -1.2294200658798218 -1.4546236991882324
-13.566878318786621 -3.062156915664673 4.462479114532471
-10.89246940612793 3.6093013286590576 2.940275192260742
-4.4307427406311035 -0.03735148906707764 -0.7375821471214294
-10.711379051208496 -5.581694602966309 2.8371996879577637
-3.2314071655273438 0.08089315891265869 -1.4202110767364502
-7.538952350616455 -5.215937614440918 1.0315337181091309
-9.918676376342773 5.935971736907959 2.386017322540283
-10.202298164367676 -4.785837173461914 3.147007465362549
-8.332054138183594 -2.4723377227783203 1.4829473495483398
-10.718306541442871 -6.919132232666016 2.841141939163208
-12.162111282348633 4.761626243591309 3.6629250049591064
-11.859885215759277 -0.7573829889297485 3.4909021854400635
-10.068403244018555 5.225430965423584 2.471238136291504
-3.4329898357391357 1.840675950050354 -1.3054720163345337
-6.021637439727783 0.5786505937576294 0.16791754961013794
-9.067378044128418 2.2893478870391846 1.901478886604309
-4.436187744140625 -2.5519511699676514 -0.7344821095466614
-9.85016918182373 -1.8918513059616089 2.3470218181610107
-1.9227643013000488 -0.10581593960523605 -0.5521407127380371
-9.277961730957031 -1.1048520803451538 2.0213356018066406
-9.806272506713867 2.6999924182891846 2.3220393657684326
-7.273755073547363 3.6519577503204346 0.8805928230285645
-14.09450626373291 -0.6249927282333374 4.762792110443115
-12.810779571533203 1.8305455446243286 4.032129287719727
-15.150405883789062 0.21313990652561188 5.363785266876221
-9.627947807312012 3.6840648651123047 2.22054123878479
-7.658841133117676 0.15040075778961182 1.0997743606567383
-12.341109275817871 5.770233631134033 3.7648067474365234
-9.398134231567383 -5.720897197723389 3.310310125350952
-8.64900016784668 -5.7937188148498535 1.6633458137512207
-8.844066619873047 5.984960079193115 1.7743767499923706
-10.487619400024414 -3.6328940391540527 4.974829196929932
-7.422358989715576 1.3479348421096802 0.9651744961738586
-9.574042320251465 -1.5321420431137085 2.1898562908172607
-11.02216625213623 -3.9048848152160645 3.368058919906616
-8.514034271240234 -4.894204616546631 1.5865269899368286
-5.9461283683776855 -0.8705195188522339 0.12493912130594254
-11.417166709899902 0.895142674446106 3.2389190196990967
-14.065265655517578 -3.577608823776245 4.746150016784668
-12.478036880493164 7.285441875457764 3.842743158340454
-14.632644653320312 -2.334865093231201 6.515646457672119
-7.104893684387207 0.82520592212677 0.7844811677932739
-7.714715957641602 -4.437412261962891 1.1315749883651733
-12.199372291564941 -3.0341835021972656 5.203752517700195
-13.863924026489258 0.26523318886756897 6.461028099060059
-20.606979370117188 11.324095726013184 8.469535827636719
-8.497002601623535 -5.192497730255127 1.5768318176269531
-6.306649208068848 -1.4451097249984741 0.33013859391212463
-5.630344867706299 -3.9632408618927 -0.05479787662625313
-17.142250061035156 2.1400394439697266 6.497495651245117
-19.500261306762695 11.066439628601074 7.839620590209961
-9.947835922241211 -4.998672962188721 3.155390977859497
-7.713900566101074 -1.430801272392273 1.1311107873916626
-4.330867290496826 1.228533387184143 -0.7944263815879822
-9.767814636230469 -2.0726490020751953 2.3001482486724854
-22.437854766845703 1.6363152265548706 9.51162052154541
-5.199526786804199 -0.5022138357162476 -0.3000089228153229
-12.688776969909668 1.2495118379592896 3.962688684463501
-3.388731002807617 -0.9524010419845581 -1.3306677341461182
-6.767965793609619 1.3908644914627075 0.5927103757858276
-8.253798484802246 0.514656662940979 1.4384099245071411
-8.659184455871582 5.051506519317627 1.6691465377807617
-9.422423362731934 4.6066203117370605 2.103563070297241
-12.260283470153809 3.1686697006225586 3.7188005447387695
-6.469715118408203 -3.9381353855133057 0.588642954826355
-6.259914875030518 1.089715600013733 0.3035396635532379
-14.286314010620117 -0.4055410921573639 7.000067234039307
-8.059664726257324 -2.5447604656219482 1.327911138534546
-17.643884658813477 4.155231475830078 6.783012866973877
-12.12773609161377 -0.03429079055786133 3.643357753753662
-8.718669891357422 0.9933675527572632 1.703001618385315
-13.725703239440918 -0.46204420924186707 5.999438285827637
-11.537755966186523 -2.676006317138672 4.749504089355469
-6.7522735595703125 1.7962628602981567 0.5837780237197876
-9.473909378051758 1.7150412797927856 2.132866859436035
-6.754950046539307 2.7001476287841797 0.585303008556366
-13.153868675231934 -0.742324709892273 5.67396354675293
-12.955324172973633 5.40684700012207 4.114400863647461
-14.977790832519531 0.41208693385124207 5.965671062469482
-4.94260311126709 3.3526875972747803 -0.4462391436100006
-15.89362907409668 8.288158416748047 5.786813259124756
-5.48260498046875 1.282098412513733 -0.1388840526342392
-9.14391803741455 -0.9125229120254517 1.945041298866272
-7.819708347320557 0.5420068502426147 1.1913354396820068
-10.416332244873047 5.553163051605225 2.6692709922790527
-4.052085876464844 2.6038906574249268 -0.9530994892120361
-13.386995315551758 6.15817928314209 4.360097885131836
-17.542959213256836 3.5223076343536377 6.7255682945251465
-14.546164512634277 3.6016974449157715 5.019867897033691
-8.578516006469727 -1.4917908906936646 1.6232287883758545
-8.512554168701172 -2.218939781188965 1.5856845378875732
-16.21232032775879 3.853351354598999 5.968202114105225
-5.953881740570068 -1.0411518812179565 0.1293528825044632
-13.21825122833252 -0.04175698757171631 4.264050483703613
-14.700265884399414 0.6803905367851257 5.865729808807373
-3.500993013381958 -1.7786906957626343 -1.2667702436447144
-3.473684072494507 1.4388471841812134 -1.2823128700256348
-5.32669734954834 -3.626818895339966 -0.22762683033943176
-13.036748886108398 -3.193206787109375 4.16074275970459
-11.585339546203613 -3.285748243331909 3.3346376419067383
-9.796159744262695 -4.79887580871582 3.822002410888672
-7.777277946472168 1.204126000404358 1.167185664176941
-12.024093627929688 -0.8629529476165771 3.5843660831451416
-3.9769678115844727 -2.5223023891448975 -0.9958572387695312
-15.693927764892578 2.728868007659912 5.673145294189453
-10.569766998291016 5.845661163330078 2.7566027641296387
-10.11752700805664 1.731237530708313 2.4991965293884277
-12.4005126953125 4.793166637420654 3.7986178398132324
-8.283623695373535 -2.8781797885894775 1.4553825855255127
-5.092970848083496 -2.083277463912964 -0.3606575131416321
-10.201044082641602 -5.084051609039307 3.1700940132141113
-20.054567337036133 2.3668718338012695 8.155113220214844
-6.411296844482422 -3.82356858253479 0.555393397808075
-4.9557785987854 -0.6916378736495972 -0.43874359130859375
-13.661890983581543 0.2871300280094147 6.183441638946533
-9.490776062011719 -6.3446478843688965 2.142463207244873
-15.765341758728027 0.36464762687683105 5.713790416717529
-12.922402381896973 2.870980978012085 4.095661640167236
-6.276730060577393 -3.6748805046081543 0.4757043719291687
-13.799530982971191 4.554141044616699 4.594902992248535
-7.624100208282471 4.30227518081665 1.0800005197525024
-6.837462902069092 -4.40272855758667 0.7979567050933838
-5.991830825805664 -0.6780222654342651 0.15095184743404388
-7.406349182128906 3.669456958770752 0.956061840057373
-7.267098426818848 -3.0181567668914795 0.8768014907836914
-7.455102443695068 3.9175026416778564 0.98381108045578
-6.640529155731201 -3.801527976989746 0.6605534553527832
-12.118704795837402 -2.9421238899230957 5.143887042999268
-5.848784446716309 -1.2952507734298706 0.06953293085098267
-15.067447662353516 0.8336951732635498 5.316568374633789
-4.472177505493164 -0.5987023115158081 -0.7139965891838074
-8.115745544433594 -4.1378560066223145 1.3598315715789795
-3.071863889694214 1.4371353387832642 -1.5110193490982056
-12.499128341674805 -1.6970579624176025 3.854743719100952
-9.96965503692627 2.1460464000701904 2.415032386779785
-15.797669410705566 7.386724472045898 6.307440280914307
-17.050310134887695 -0.027081787586212158 6.445164203643799
-6.136213779449463 3.372436285018921 0.2331329584121704
-5.900167942047119 1.8552223443984985 0.09878227859735489
-8.397714614868164 -3.0917537212371826 1.5203198194503784
-7.6192827224731445 -1.3478721380233765 1.077257513999939
-12.944230079650879 -3.393923044204712 4.108084201812744
-7.425963878631592 -2.4398093223571777 0.9672238826751709
-12.019207000732422 2.889770984649658 3.5815865993499756
-12.056375503540039 7.214449405670166 3.602743148803711
-8.22832202911377 2.4888226985931396 1.4239099025726318
-15.933835983276367 2.479220151901245 5.809695243835449
-10.46200942993164 -2.66323184967041 2.695265769958496
-9.32262897491455 -3.111349582672119 2.046759605407715
-9.641054153442383 3.0627682209014893 2.2280008792877197
-4.527444839477539 -0.027262091636657715 -0.6825411319732666
-15.31910228729248 9.210832595825195 5.459807395935059
-13.134321212768555 -0.8537324666976929 5.398147106170654
-9.952338218688965 -2.9514174461364746 2.4051735401153564
-16.483932495117188 4.59557580947876 6.122797012329102
-7.780572891235352 -3.674703359603882 1.1690595149993896
-4.928783416748047 -2.1025068759918213 -0.45410802960395813
-8.180749893188477 2.182694435119629 1.3968321084976196
-6.35800838470459 1.8690940141677856 0.35937294363975525
-7.536182403564453 2.3806333541870117 1.0299607515335083
-11.709234237670898 2.9905219078063965 3.4051570892333984
-6.110684394836426 -0.8561900854110718 0.2186015099287033
-4.738400936126709 -3.1181132793426514 -0.5624714493751526
-15.553742408752441 3.2745680809020996 5.59335470199585
-7.862651824951172 -0.2892721891403198 1.215777039527893
-13.01012897491455 7.867115020751953 4.145596504211426
-6.819300174713135 -2.0176379680633545 0.6219274997711182
-11.261079788208008 -0.7955485582351685 3.1500768661499023
-9.381853103637695 0.13575422763824463 2.0804686546325684
-11.952945709228516 -1.466579556465149 3.543869972229004
-13.011277198791504 -0.1769140511751175 8.820382118225098
-12.60990047454834 -2.441981554031372 3.9177918434143066
-10.11164665222168 1.3547500371932983 2.4958486557006836
-9.838459014892578 2.0662951469421387 2.3403573036193848
-7.3481292724609375 -2.570974111557007 0.9229227304458618
-11.282320022583008 4.3460211753845215 3.1621694564819336
-9.076740264892578 -4.3771233558654785 1.9068048000335693
-7.128025054931641 -0.2192753553390503 0.7976459860801697
-16.99608612060547 0.4079546332359314 6.414300918579102
-3.8120274543762207 -1.5137532949447632 -1.0897372961044312
-12.07284164428711 5.468609809875488 3.612114906311035
-13.777663230895996 0.21306964755058289 6.136096954345703
-5.934621334075928 1.7139512300491333 0.11839114129543304
-9.967769622802734 -3.3492958545684814 2.4139564037323
-11.204545974731445 1.890078067779541 3.117901086807251
-5.75889253616333 -0.5201481580734253 0.018368765711784363
-9.016538619995117 -2.4583582878112793 1.8725396394729614
-9.401522636413574 2.6488475799560547 2.091665744781494
-13.817882537841797 0.6779828667640686 4.6053466796875
-9.312959671020508 1.2338470220565796 2.0412557125091553
-9.958096504211426 1.7974871397018433 2.408452272415161
-7.786746025085449 4.948676109313965 1.1725759506225586
-5.908607482910156 2.18542742729187 0.10358522832393646
-10.029239654541016 3.0963218212127686 2.4489457607269287
-16.126340866088867 2.8684730529785156 5.919264316558838
-10.394441604614258 2.878725528717041 2.6568102836608887
-12.073738098144531 0.5252504348754883 3.612621784210205
-3.9828572273254395 -1.268640398979187 -0.9925072193145752
-6.072230815887451 -1.5900739431381226 0.1967134177684784
-5.774266719818115 3.4507651329040527 0.027121810242533684
-15.214862823486328 1.5841131210327148 5.400472640991211
-12.942118644714355 0.598564624786377 4.106882572174072
-8.907529830932617 -2.5610921382904053 1.8104948997497559
-10.851855278015137 -0.5924643278121948 2.9171581268310547
-15.652169227600098 8.60378646850586 5.649380207061768
-14.014589309692383 6.408688068389893 4.71730899810791
-7.936873435974121 -2.2088489532470703 1.2580220699310303
-13.665138244628906 -3.6342246532440186 4.518407344818115
-12.90060043334961 -1.3946198225021362 5.307201385498047
-10.552041053771973 -3.539677143096924 4.869480609893799
-13.188745498657227 -1.4327561855316162 5.515722274780273
-4.580812454223633 1.1720629930496216 -0.6521639227867126
-14.543091773986816 1.0406759977340698 5.018118381500244
-8.50023078918457 0.04747474193572998 1.5786724090576172
-13.0387544631958 -0.9636833667755127 5.366700649261475
-8.519004821777344 3.3674094676971436 1.5893579721450806
-13.472738265991211 6.643726825714111 4.408902645111084
-8.654226303100586 0.8882213830947876 1.6663224697113037
-10.216104507446289 2.614879608154297 2.5553042888641357
-6.806947231292725 2.5079758167266846 0.6148973107337952
-9.242009162902832 -1.5527185201644897 2.0008726119995117
-9.768913269042969 -4.439394474029541 2.300771474838257
-9.776480674743652 -1.9391640424728394 2.3050808906555176
-5.667911529541016 -0.38192737102508545 -0.033413585275411606
-14.719529151916504 -0.552346408367157 5.118541240692139
-9.879746437072754 4.012751579284668 2.363858938217163
-3.7119762897491455 0.27031099796295166 -1.1466825008392334
-17.226640701293945 7.447849750518799 6.545529842376709
-9.908421516418457 -4.852799415588379 2.380176305770874
-14.371027946472168 7.6711578369140625 4.920186996459961
-11.81374740600586 7.549396991729736 3.4646453857421875
-6.4743266105651855 -2.1235172748565674 0.42557665705680847
-6.037137508392334 -3.555577516555786 0.17673872411251068
-8.102093696594238 3.163111448287964 1.352063775062561
-13.146230697631836 6.654178142547607 4.2230610847473145
-11.270401954650879 1.4257807731628418 3.155383825302124
-11.17021369934082 4.2349138259887695 3.098360538482666
-10.14536190032959 -5.608397006988525 2.5150365829467773
-8.31389331817627 -1.2442988157272339 1.4726125001907349
-3.1230075359344482 0.12237656116485596 -1.4819118976593018
-9.497819900512695 3.7114508152008057 2.1464762687683105
-13.39700698852539 -1.6696358919143677 4.3657941818237305
-6.492199420928955 0.9444485902786255 0.4357505142688751
-9.907710075378418 -5.558809757232666 3.2518038749694824
-10.011054039001465 -2.562020778656006 2.4385931491851807
-8.73123836517334 -5.568840026855469 1.71015202999115
-10.136667251586914 -4.389047622680664 4.102511882781982
-8.752340316772461 0.6806782484054565 1.722166657447815
-17.487796783447266 1.2716407775878906 6.6941704750061035
-20.308345794677734 10.917089462280273 8.299561500549316
-4.644033908843994 0.7064071893692017 -0.6161783337593079
-17.496784210205078 10.332324028015137 6.699289798736572
-5.2375078201293945 -2.134401559829712 -0.2783905863761902
-11.218340873718262 -3.231008768081665 4.572308540344238
-7.170468807220459 -4.890077590942383 0.8218019604682922
-12.680797576904297 3.7400994300842285 3.9581472873687744
-6.267278671264648 -0.02975308895111084 0.30773115158081055
-5.1561994552612305 -1.6909841299057007 -0.3246687650680542
-13.0255765914917 6.564007759094238 4.154389381408691
-9.971395492553711 -5.089890480041504 2.4160211086273193
-9.3469877243042 -1.7129634618759155 2.0606234073638916
-16.836740493774414 4.1199235916137695 6.323606491088867
-5.850044250488281 0.5483571290969849 0.07024982571601868
-13.836694717407227 8.521048545837402 4.616057872772217
-6.276705741882324 4.262763500213623 0.3130984902381897
-6.708047389984131 4.000068664550781 0.5586063265800476
-13.35348129272461 -3.2233922481536865 4.341020107269287
-6.575595855712891 4.035058498382568 0.4832199215888977
-3.1285650730133057 1.266182541847229 -1.4787442684173584
-7.897754192352295 -2.8158366680145264 1.2357548475265503
-7.10496187210083 2.4551775455474854 0.7845210433006287
-6.99553108215332 2.110077381134033 0.7222342491149902
-18.47011375427246 4.822810649871826 7.253282070159912
-10.540940284729004 4.64295768737793 2.74019455909729
-8.100383758544922 4.966256141662598 1.3510910272598267
-5.56984806060791 -1.3219941854476929 -0.08923029154539108
-8.866584777832031 -2.690999746322632 1.7871898412704468
-5.562826156616211 -0.09476792812347412 -0.09322649240493774
-11.926691055297852 -2.466641664505005 4.426568508148193
-6.6795654296875 3.72344970703125 0.5423951148986816
-7.418912887573242 1.1907075643539429 0.9632129073143005
-10.98755168914795 -4.180365085601807 4.190951824188232
-7.056637287139893 2.2950191497802734 0.7570146322250366
-10.398260116577148 -1.9333981275558472 2.658982515335083
-7.519562721252441 -1.269274115562439 1.0204988718032837
-13.515951156616211 -0.7561330795288086 4.4334940910339355
-6.465415000915527 -3.4645445346832275 0.4205033481121063
-8.705814361572266 2.656484842300415 1.6956851482391357
-5.113208770751953 -1.7830084562301636 -0.3491375148296356
-7.037520885467529 -4.117668628692627 0.8385711908340454
-6.875157833099365 -0.6586111783981323 0.6537196040153503
-8.793516159057617 -3.319459915161133 1.7456005811691284
-6.550582408905029 4.325550556182861 0.46898260712623596
-3.957059383392334 -1.4118469953536987 -1.0071897506713867
-11.605085372924805 0.6077899932861328 3.345877170562744
-13.92574405670166 5.3575873374938965 4.666740894317627
-11.766870498657227 -3.249091863632202 3.437960147857666
-12.252899169921875 1.3029683828353882 3.7145960330963135
-7.85001277923584 3.247248411178589 1.2085847854614258
-10.868905067443848 -0.15821921825408936 2.9268617630004883
-7.912615776062012 1.834337592124939 1.2442173957824707
-7.077296733856201 -0.3709052801132202 0.7687717080116272
-11.134064674377441 -3.307785749435425 4.249346733093262
-15.605841636657715 2.5516393184661865 5.6230082511901855
-9.017533302307129 -1.4689215421676636 1.8731062412261963
-4.236392974853516 -0.6686290502548218 -0.8481996655464172
-6.405611991882324 3.9831109046936035 0.38646888732910156
-10.769306182861328 0.8110710382461548 2.870173215866089
-8.363556861877441 0.09911954402923584 1.5008790493011475
-19.047771453857422 10.493690490722656 7.582074165344238
-7.970191955566406 0.627128005027771 1.2769856452941895
-9.089720726013184 0.9204145073890686 2.0798869132995605
-7.726957321166992 1.034291386604309 1.1385444402694702
-6.288391590118408 -3.7190914154052734 0.3197462856769562
-7.506271839141846 -2.1133108139038086 1.0129334926605225
-7.78751802444458 -2.931788921356201 1.1730109453201294
-5.489525318145752 0.09658730030059814 -0.1349479705095291
-4.474349498748779 1.3880387544631958 -0.7127602696418762
-10.402362823486328 -1.776987910270691 2.6613168716430664
-17.505115509033203 5.204200744628906 6.704030990600586
-3.258737564086914 -1.6880143880844116 -1.404659628868103
-15.886893272399902 5.812204837799072 5.782978534698486
-8.385998725891113 -0.8116158246994019 1.5136522054672241
-9.251691818237305 5.608983039855957 2.006387710571289
-8.422199249267578 2.1031687259674072 1.534259557723999
-18.85549545288086 10.990026473999023 7.472634792327881
-8.833722114562988 -0.6930562257766724 1.7684869766235352
-9.481749534606934 -0.008605360984802246 2.137327194213867
-20.438304901123047 6.2638325691223145 8.373527526855469
-12.577549934387207 -2.027881622314453 3.8993794918060303
-8.161808967590332 -0.6634224653244019 1.3860485553741455
-10.851492881774902 -3.5566699504852295 2.916950225830078
-9.361275672912598 -1.9993647336959839 2.0687549114227295
-13.218669891357422 -0.5635034441947937 5.8906755447387695
-11.10893726348877 -0.5207744836807251 3.0634822845458984
-10.665647506713867 -3.371872663497925 2.811170816421509
-13.516678810119629 0.0566178560256958 4.433908939361572
-11.846543312072754 -4.273193359375 3.4833076000213623
-5.742753028869629 1.4081112146377563 0.009184580296278
-6.878305912017822 1.9383281469345093 0.6555126309394836
-5.681612968444824 3.144705057144165 -0.025614790618419647
-7.5395050048828125 0.5024925470352173 1.031851053237915
-6.513628005981445 2.550696611404419 0.44794824719429016
-4.718531608581543 0.20032227039337158 -0.5737777352333069
-10.835403442382812 -3.6549391746520996 2.907792091369629
-5.85695219039917 -3.6253812313079834 0.07418113201856613
-13.327922821044922 5.755361080169678 4.326476097106934
-5.653118133544922 0.38777077198028564 -0.04183393344283104
-3.193791627883911 -1.1033891439437866 -1.4416216611862183
-6.003384590148926 0.766708493232727 0.1575298309326172
-12.116559028625488 -6.02077579498291 3.636992931365967
-4.904940128326416 2.5341217517852783 -0.4676777422428131
-13.232034683227539 -0.9347885847091675 4.886096000671387
-3.834940195083618 2.1810295581817627 -1.0766947269439697
-19.41327667236328 4.559421539306641 7.7901082038879395
-5.124179363250732 -0.13606107234954834 -0.34289348125457764
-6.521947383880615 -4.550111293792725 0.4526787996292114
-5.75649356842041 3.5551438331604004 0.01700529083609581
-18.660236358642578 -0.39218151569366455 7.361494541168213
-14.28976821899414 1.0972797870635986 4.873932838439941
-16.06635093688965 5.008111000061035 5.885121822357178
-12.49654769897461 -3.534517288208008 3.853273391723633
-7.116946220397949 2.2203612327575684 0.7913408875465393
-8.712392807006836 -1.0506118535995483 1.699427843093872
-8.480304718017578 1.7703927755355835 1.5673314332962036
-10.985477447509766 -1.8612085580825806 2.9932103157043457
-2.1221282482147217 -0.1582227349281311 -0.414145827293396
-16.54349136352539 9.853292465209961 6.156697750091553
-9.16344928741455 -5.137451648712158 1.956156611442566
-22.15351676940918 4.493897914886475 9.34978199005127
-3.365896701812744 1.3137298822402954 -1.3436613082885742
-5.796518802642822 -3.4470584392547607 0.039784789085388184
-10.03627872467041 6.612931728363037 2.452954053878784
-12.414948463439941 -1.6629034280776978 3.8068299293518066
-14.09518814086914 4.135076999664307 4.76318359375
-6.433244228363037 3.0358986854553223 0.40219447016716003
-15.938969612121582 7.5724711418151855 6.108519554138184
-6.296555042266846 2.4759645462036133 0.3243959844112396
-10.584376335144043 -3.902472972869873 4.135586738586426
-9.470826148986816 -5.654933929443359 3.4240450859069824
-6.382000923156738 -1.29959237575531 0.37302666902542114
-14.094657897949219 3.386429786682129 4.762880802154541
-7.958596229553223 -4.273801326751709 1.2703847885131836
-9.828266143798828 -0.040996670722961426 2.334557294845581
-12.348725318908691 2.827782392501831 3.769139528274536
-3.3578901290893555 -0.7691820859909058 -1.3482216596603394
-20.5988826751709 3.13551664352417 8.464924812316895
-4.468397617340088 -1.9699591398239136 -0.7161499857902527
-5.18663215637207 2.1793010234832764 -0.307345449924469
-9.736577033996582 -3.6099798679351807 2.282367706298828
-9.355737686157227 2.1152708530426025 2.0656049251556396
-9.344843864440918 0.29171496629714966 2.22509765625
-13.129789352416992 7.966099739074707 4.2137041091918945
-12.19949722290039 -2.1260812282562256 4.65065860748291
-9.2473783493042 -5.96432638168335 2.0039258003234863
-3.3545587062835693 1.1585394144058228 -1.3501161336898804
-12.181863784790039 -3.6503312587738037 5.120722770690918
-13.188355445861816 -3.9423983097076416 4.24703311920166
-5.976260185241699 -1.4022687673568726 0.14209045469760895
-6.710764408111572 -3.7141733169555664 0.7258437275886536
-8.1989164352417 -2.4446702003479004 1.4071696996688843
-5.120582580566406 1.5398541688919067 -0.3449391722679138
-6.004899024963379 0.8792315721511841 0.15839117765426636
-9.111191749572754 5.655564785003662 1.9264167547225952
-10.383988380432129 -1.1796175241470337 2.6508591175079346
-11.423660278320312 -2.569824695587158 3.2426135540008545
-17.145219802856445 1.58870267868042 6.499184608459473
-12.376670837402344 -1.6751514673233032 5.1434712409973145
-2.0475621223449707 0.26404231786727905 -0.4646526575088501
-3.564384937286377 -0.9805229902267456 -1.2306896448135376
-3.9708895683288574 0.6836796998977661 -0.9993190169334412
-6.015503883361816 2.6378676891326904 0.16442936658859253
-7.201343059539795 0.9474364519119263 0.839378833770752
-6.086548805236816 -0.3255866765975952 0.20486345887184143
-5.203510761260986 -0.28372514247894287 -0.29773852229118347
-15.798230171203613 6.363983154296875 5.732513904571533
-7.085683345794678 -0.14607274532318115 0.7735455632209778
-3.8511605262756348 1.4366728067398071 -1.0674630403518677
-11.33548355102539 5.779204845428467 3.1924290657043457
-9.525324821472168 -4.077248573303223 2.162128210067749
-13.014664649963379 -0.5975931882858276 9.049559593200684
-5.3799357414245605 1.906298279762268 -0.19732236862182617
-15.839394569396973 -0.43856140971183777 6.314648151397705
-11.52214527130127 -3.601768732070923 3.298668384552002
-12.287330627441406 5.1714277267456055 3.7341971397399902
-10.083667755126953 -4.837776184082031 3.295907497406006
-12.772160530090332 0.2445688247680664 4.010147571563721
-8.572102546691895 -0.038300395011901855 1.6195785999298096
-8.518428802490234 0.18884742259979248 1.5890307426452637
-6.954718589782715 -2.97347092628479 0.6990020871162415
-7.979820251464844 2.3023524284362793 1.2824676036834717
-8.8369140625 5.182928562164307 1.7703046798706055
-12.277935981750488 -2.829167604446411 3.7288451194763184
-10.364645004272461 -4.775534629821777 2.9184067249298096
-7.306673049926758 -3.839994430541992 0.8993260860443115
-8.072115898132324 2.432812452316284 1.334999442100525
-12.887375831604004 1.755956768989563 4.075726509094238
-10.465291976928711 -1.3562332391738892 2.6971352100372314
-7.647380828857422 3.1496822834014893 1.093253254890442
-7.2106757164001465 2.841378927230835 0.8446912169456482
-5.4080023765563965 -3.775620698928833 -0.18135011196136475
-4.942960262298584 -0.5908125638961792 -0.44603821635246277
-14.287202835083008 1.6690086126327515 4.872472763061523
-4.5181732177734375 -1.3189810514450073 -0.6878159642219543
-7.24049711227417 1.4078036546707153 0.861662745475769
-11.412012100219727 -1.4572556018829346 3.2359836101531982
-10.314911842346191 -2.786266326904297 2.6115405559539795
-14.610333442687988 2.7624990940093994 5.05639123916626
-7.734580993652344 -2.0679893493652344 1.1428828239440918
-10.427760124206543 -4.5049333572387695 3.173910617828369
-11.060495376586914 -1.6472793817520142 3.035909652709961
-12.727235794067383 -1.6154977083206177 4.67635440826416
-16.575044631958008 7.829322814941406 7.230439186096191
-9.11679458618164 5.86501932144165 1.92960524559021
-11.11606216430664 -1.362122654914856 3.0675365924835205
-10.563456535339355 2.1263206005096436 2.7530088424682617
-11.905618667602539 -0.9190133810043335 3.516932487487793
