-6.941250801086426 3.671637535095215 0.7071719765663147
-9.168038368225098 -4.6504058837890625 1.974600076675415
-13.243528366088867 0.9976456761360168 4.2942705154418945
-4.968197822570801 -0.6190859079360962 -0.41584187746047974
-9.403306007385254 3.8855600357055664 2.108513593673706
-8.204477310180664 -1.2594184875488281 2.357592821121216
-18.97711753845215 5.313503742218018 7.5576887130737305
-11.235652923583984 -6.168939590454102 3.151435375213623
-8.83232307434082 -0.838632345199585 5.317385196685791
-18.889307022094727 9.274632453918457 7.507711410522461
-14.514178276062012 -6.04286003112793 5.017490863800049
-4.562277793884277 -2.011824369430542 -0.6468819379806519
-8.714564323425293 0.5533133149147034 1.7164971828460693
-19.926048278808594 -6.262781620025635 8.097792625427246
-9.226722717285156 -1.3185800313949585 2.0080044269561768
-6.4788899421691895 4.386374473571777 0.4440092444419861
-8.582051277160645 -2.1475419998168945 1.6410715579986572
-5.630484104156494 0.3315543532371521 -0.038884054869413376
-6.430459976196289 -3.0535452365875244 0.41644033789634705
-10.04736042022705 5.619190692901611 2.475092649459839
-12.079839706420898 -2.7644336223602295 3.6319262981414795
-7.088403224945068 3.409437894821167 0.790928304195404
-16.57084846496582 1.8759982585906982 6.188098430633545
-7.636114597320557 -1.4720052480697632 3.5149073600769043
-12.832045555114746 5.070723056793213 4.060067653656006
-14.6602783203125 2.221606969833374 5.100650310516357
-6.306207656860352 -0.9772665500640869 0.34571993350982666
-9.789630889892578 -2.339804172515869 2.3283965587615967
-7.002237796783447 1.6056562662124634 0.741883397102356
-7.723630905151367 -1.6538286209106445 3.3692471981048584
-11.794759750366211 6.39363956451416 3.469669818878174
-4.539487838745117 -2.346115827560425 -0.6598531603813171
-8.717484474182129 0.5011207461357117 3.1328277587890625
-8.59174633026123 0.9189515709877014 1.6465928554534912
-14.402437210083008 7.75491189956665 4.953895568847656
-2.950223445892334 0.7429612874984741 -1.5644208192825317
-5.837813854217529 1.1036996841430664 0.07912272214889526
-6.620913028717041 -4.439011096954346 0.5248401165008545
-8.017431259155273 -1.7010868787765503 2.72546124458313
-4.9483866691589355 -1.6538828611373901 -0.4271189570426941
-7.47833251953125 3.6325745582580566 1.012866497039795
-13.25130558013916 2.1227519512176514 4.298697471618652
-8.215208053588867 -0.7743960618972778 1.4322744607925415
-9.043172836303711 3.1037538051605225 1.9035334587097168
-3.3845255374908447 -1.17954421043396 -1.3172298669815063
-7.283205509185791 -0.6133807301521301 3.954429864883423
-8.328574180603027 -0.8399651646614075 1.496800422668457
-7.038852691650391 -3.294842481613159 0.7627221941947937
-7.28429651260376 -0.7671527862548828 3.965510129928589
-6.309352874755859 3.6315560340881348 0.34751155972480774
-8.741087913513184 -1.3233699798583984 1.7315927743911743
-16.74664306640625 8.800758361816406 6.28816032409668
-4.9203572273254395 -1.2455899715423584 -0.44307222962379456
-6.502979278564453 -3.986747980117798 0.45771530270576477
-13.597301483154297 -7.184822082519531 4.495625972747803
-13.531049728393555 -4.820054531097412 4.457918167114258
-4.9918599128723145 -1.045309066772461 -0.4023747146129608
-8.286365509033203 -1.2134298086166382 2.1633620262145996
-18.067644119262695 -7.612754821777344 7.040032863616943
-9.537266731262207 1.9036574363708496 2.1847596168518066
-10.587477684020996 2.4316625595092773 2.78251314163208
-6.425265312194824 0.2165161371231079 0.4134848415851593
-12.149558067321777 -4.900849342346191 3.671607494354248
-5.786055564880371 1.6922903060913086 0.04966353997588158
-6.450808048248291 -2.2262308597564697 0.42802244424819946
-9.695812225341797 -3.1085054874420166 2.2749972343444824
-10.733431816101074 -3.285226583480835 2.865584135055542
-7.555116176605225 -3.576451539993286 1.0565664768218994
-9.487009048461914 5.622005462646484 2.156156301498413
-4.644466876983643 1.117867350578308 -0.6001012325286865
-10.441990852355957 -2.430119276046753 2.699704170227051
-3.167570114135742 0.02338549494743347 -1.4407141208648682
-5.701119422912598 1.1255429983139038 0.0013187729055061936
-11.720465660095215 2.2171478271484375 3.427381753921509
-11.694074630737305 -3.3819541931152344 3.4123592376708984
-12.39660358428955 -4.6716814041137695 3.8122200965881348
-5.167595863342285 3.1582765579223633 -0.3023483455181122
-11.782730102539062 2.5804691314697266 3.4628217220306396
-5.219877243041992 3.4070801734924316 -0.27259114384651184
-4.994357585906982 2.9823174476623535 -0.4009506106376648
-8.72327709197998 1.4697949886322021 1.721456527709961
-6.839909076690674 -1.9280229806900024 0.6494891047477722
-8.387887001037598 -0.8289425373077393 2.0741984844207764
-8.236778259277344 -0.8276574015617371 2.4307727813720703
-8.473710060119629 2.4517405033111572 1.579409122467041
-11.655322074890137 -5.203427791595459 3.390300750732422
-6.8987836837768555 -2.1066691875457764 0.6829981207847595
-9.50266170501709 1.6589926481246948 2.1650638580322266
-8.863767623901367 -4.43980598449707 1.8014180660247803
-10.030571937561035 -2.5090861320495605 2.4655356407165527
-3.345660448074341 -1.262618899345398 -1.3393522500991821
-7.086452484130859 0.5746440887451172 0.7898164987564087
-12.074721336364746 5.420264720916748 3.629016399383545
-9.035888671875 5.9791340827941895 1.8993889093399048
-13.839244842529297 -5.624037742614746 4.633335113525391
-9.068995475769043 -5.671560287475586 1.9182277917861938
-7.521702289581299 -0.8422317504882812 3.669945001602173
-12.86026668548584 1.6624972820281982 4.076128959655762
-7.28270959854126 3.6995251178741455 0.9015224575996399
-4.4636640548706055 1.4355329275131226 -0.7030084133148193
-7.270103454589844 -1.0532078742980957 4.1232218742370605
-9.508407592773438 1.741003394126892 2.1683342456817627
-7.52526330947876 1.557859182357788 1.0395768880844116
-7.655600070953369 -1.1232458353042603 1.1137601137161255
-10.530207633972168 -5.438537120819092 2.749913454055786
-15.185295104980469 2.661457061767578 5.399477481842041
-6.843231678009033 4.65537166595459 0.6513835191726685
-14.4049711227417 8.537753105163574 4.955338001251221
-16.79371452331543 3.270145893096924 6.314950466156006
-7.94105863571167 2.291168451309204 1.2762373685836792
-10.068853378295898 5.387111663818359 2.4873266220092773
-12.54408073425293 -4.290886402130127 3.89616060256958
-12.185103416442871 -4.638182163238525 3.691840171813965
-6.070850849151611 -4.271890640258789 0.21175971627235413
-8.518328666687012 -1.3371332883834839 1.6048049926757812
-19.18843650817871 -9.298785209655762 7.67795991897583
-16.367828369140625 -9.518277168273926 6.072540283203125
-21.326066970825195 1.5559831857681274 8.894651412963867
-5.366018772125244 0.5776299238204956 -0.189411923289299
-3.251981735229492 -1.5719996690750122 -1.3926693201065063
-18.629297256469727 -6.451699256896973 7.359713554382324
-10.307587623596191 -4.328889846801758 2.6232051849365234
-5.004568576812744 -0.12851467728614807 -0.39514052867889404
-5.815985679626465 -1.4312342405319214 0.06669756770133972
-10.854557037353516 -6.2969770431518555 2.9345247745513916
-2.9656362533569336 0.39875614643096924 -1.555647850036621
-15.389995574951172 -9.357630729675293 5.515981674194336
-8.564541816711426 1.5184839963912964 1.6311091184616089
-14.4114408493042 8.114133834838867 4.95902156829834
-9.8524169921875 5.041304588317871 2.364136219024658
-10.689292907714844 -6.139420509338379 2.840461254119873
-13.079818725585938 1.5189396142959595 4.201091289520264
-15.04002571105957 4.452487945556641 5.316792964935303
-6.422060012817383 -1.909374713897705 0.41165924072265625
-8.818069458007812 1.7852435111999512 1.7754102945327759
-4.445246696472168 -1.926210641860962 -0.7134924530982971
-9.88319206237793 3.2339541912078857 2.38165283203125
-4.97261905670166 -2.4917306900024414 -0.4133259952068329
-13.013310432434082 6.592891693115234 4.163239002227783
-18.944278717041016 -6.368828773498535 7.5389933586120605
-10.746989250183105 -2.4333741664886475 6.7226152420043945
-13.408790588378906 -7.336841106414795 4.388330459594727
-13.99338436126709 1.9855746030807495 4.721070766448975
-8.49573040008545 -5.099908351898193 1.5919400453567505
-10.811605453491211 2.065944194793701 2.9100821018218994
-8.384197235107422 -1.8822345733642578 1.528458595275879
-14.775936126708984 4.436367034912109 5.166481018066406
-9.072440147399902 4.7542524337768555 1.9201934337615967
-14.748641967773438 6.138965129852295 5.150947570800781
-5.507898807525635 -2.7250442504882812 -0.10865850001573563
-9.681201934814453 4.704280376434326 2.266684055328369
-7.444047927856445 -0.1919388622045517 3.8752574920654297
-7.84478235244751 3.268037796020508 1.2214404344558716
-2.959235668182373 1.3138872385025024 -1.559293508529663
-6.695192813873291 -1.0996193885803223 0.5671197175979614
-15.87259578704834 3.4120640754699707 5.790672779083252
-7.576523303985596 1.2886831760406494 1.0687520503997803
-11.756394386291504 -5.3185930252075195 3.4478278160095215
-13.26505184173584 7.277455806732178 4.306524753570557
-5.094123840332031 -0.6409183144569397 -0.34416863322257996
-3.5770554542541504 -1.7377738952636719 -1.2076467275619507
-5.584720134735107 -3.0421078205108643 -0.06493320316076279
-7.469799995422363 -0.7613894939422607 3.7994003295898438
-7.395998001098633 3.8652184009552 0.9660038352012634
-5.449031829833984 -2.1526951789855957 -0.14216390252113342
-12.430302619934082 3.1910970211029053 3.8314049243927
-8.490584373474121 -2.077946662902832 1.589012622833252
-12.256417274475098 -5.901777267456055 3.7324278354644775
-15.875044822692871 -8.764217376708984 5.792060375213623
-13.236464500427246 1.760008454322815 4.290251731872559
-3.974468946456909 0.2579226493835449 -0.981447160243988
-11.042033195495605 7.087225914001465 3.0412368774414062
-4.254482746124268 -2.1507718563079834 -0.8220712542533875
-12.345297813415527 7.483647346496582 3.783021926879883
-11.959640502929688 -2.794100761413574 3.563511371612549
-8.415279388427734 1.257821798324585 1.5461513996124268
-9.451688766479492 3.6934242248535156 2.1360504627227783
-5.387851715087891 0.2742566764354706 -0.17698587477207184
-3.7148361206054688 0.27984148263931274 -1.1292245388031006
-9.396268844604492 2.821697235107422 2.1045074462890625
-2.5531797409057617 0.17052191495895386 -1.7904090881347656
-7.375144958496094 -1.0476690530776978 0.9541324377059937
-12.05777359008789 -5.667533874511719 3.6193666458129883
-6.472178936004639 2.276674270629883 0.44018831849098206
-4.744447708129883 0.17463457584381104 -0.543194055557251
-13.618948936462402 7.197782516479492 4.5079545974731445
-7.858227729797363 -0.22238263487815857 1.2290910482406616
-6.772157192230225 -2.9809489250183105 0.6109251379966736
-11.050410270690918 4.327939510345459 3.046004295349121
-10.2457275390625 4.316168785095215 2.587998390197754
-7.425745487213135 3.4135775566101074 0.9829355478286743
-7.617971897125244 -1.7811698913574219 3.731754779815674
-15.774746894836426 -8.645370483398438 5.7349724769592285
-9.108272552490234 -3.875617265701294 1.9405840635299683
-10.615605354309082 2.1543679237365723 2.79852294921875
-7.7547607421875 0.5361460447311401 3.647886276245117
-5.396476745605469 -2.995380401611328 -0.17207729816436768
-6.585211753845215 1.2294150590896606 0.5045231580734253
-7.266971588134766 -0.6581502556800842 0.8925633430480957
-6.079207897186279 2.505668878555298 0.21651852130889893
-8.252633094787598 -3.536912679672241 1.4535762071609497
-9.013544082641602 -5.517448902130127 1.886666178703308
-9.781291961669922 -2.52451491355896 2.32365083694458
-7.893696308135986 -1.2687458992004395 2.9200611114501953
-18.700607299804688 -8.513291358947754 7.400299072265625
-16.021583557128906 -5.280025005340576 5.8754682540893555
-9.33810043334961 -3.7988364696502686 2.0713956356048584
-9.795397758483887 1.0914597511291504 2.3316807746887207
-9.484343528747559 4.359504222869873 2.154637575149536
-3.270559310913086 0.24040469527244568 -1.382096767425537
-8.22277545928955 -0.31991150975227356 2.4378538131713867
-11.31881332397461 2.933356523513794 3.1987719535827637
-7.096706390380859 4.8513970375061035 0.7956539988517761
-11.156060218811035 4.437507152557373 3.10613751411438
-6.977442741394043 -2.9197299480438232 0.7277690768241882
-10.555074691772461 -3.3055341243743896 2.764068365097046
-14.991264343261719 -6.258380889892578 5.289034366607666
-2.722459554672241 -0.7050394415855408 -1.6940611600875854
-10.918096542358398 -4.228274345397949 2.9706904888153076
-7.511597156524658 0.21769097447395325 1.0317977666854858
-7.759339809417725 -1.0688308477401733 3.157108783721924
-8.352951049804688 4.76888370513916 1.5106770992279053
-14.815770149230957 -7.675828456878662 5.18914794921875
-7.7337517738342285 -1.9806549549102783 1.1582428216934204
-3.801602363586426 -2.1749966144561768 -1.079839825630188
-12.239557266235352 5.601900100708008 3.7228379249572754
-7.119983196258545 3.1353893280029297 0.8089022040367126
-8.275229454040527 5.224512100219727 1.4664407968521118
-3.932319402694702 -0.7384005784988403 -1.0054386854171753
-9.484199523925781 -2.1029436588287354 2.1545536518096924
-8.5192232131958 1.6897886991500854 1.6053154468536377
-11.868707656860352 4.69651985168457 3.511759042739868
-10.20971393585205 -5.334558963775635 2.5674965381622314
-5.95780086517334 -3.6796131134033203 0.1474136859178543
-7.510627269744873 -0.1747678518295288 1.031245470046997
-8.039064407348633 -2.3916614055633545 1.3320181369781494
-11.240513801574707 -6.6608686447143555 3.154200553894043
-20.041215896606445 10.271947860717773 8.163350105285645
-12.65222454071045 -7.693279266357422 3.957712173461914
-16.822097778320312 7.558740615844727 6.331106662750244
-15.697606086730957 -9.434683799743652 5.691065788269043
-6.003197193145752 -0.4730941951274872 0.1732543408870697
-6.058935165405273 -3.928107738494873 0.2049764096736908
-13.415968894958496 -3.4671072959899902 4.39241886138916
-11.402353286743164 -2.705070734024048 4.503366947174072
-10.13133430480957 1.713586449623108 2.5228865146636963
-8.18616008758545 -0.4069584906101227 1.41574227809906
-6.1414289474487305 -4.1410441398620605 0.2519306242465973
-3.636903762817383 -1.3412200212478638 -1.173581600189209
-11.256060600280762 2.4085710048675537 3.1630547046661377
-4.8737993240356445 1.9125739336013794 -0.46957072615623474
-6.677988052368164 1.8910644054412842 0.557328999042511
-6.586830139160156 0.8266212344169617 0.5054449439048767
-7.2843804359436035 -1.3749501705169678 4.174458980560303
-11.60521411895752 -5.146358966827393 3.3617804050445557
-11.397356033325195 -2.822038412094116 4.825852394104004
-12.339703559875488 1.6497564315795898 3.779836654663086
-4.51295280456543 0.8802540898323059 -0.6749558448791504
-11.351091384887695 -6.763387203216553 3.2171387672424316
-3.690443754196167 -2.215865135192871 -1.1431092023849487
-9.925848007202148 -5.204117774963379 2.4059271812438965
-6.892004013061523 -1.3795355558395386 0.679140031337738
-5.926032543182373 0.3563273251056671 0.1293335258960724
-15.187355995178223 3.889561891555786 5.400650501251221
-6.874063491821289 -2.787355899810791 0.6689285635948181
-3.780431032180786 -2.32792067527771 -1.091890573501587
-9.960593223571777 5.282325744628906 2.4257078170776367
-12.431139945983887 -3.2786471843719482 3.8318774700164795
-8.03553295135498 -2.7833375930786133 1.3300079107284546
-17.251115798950195 -9.949100494384766 6.575284957885742
-6.4397735595703125 1.1678673028945923 0.42174312472343445
-9.919840812683105 2.428102970123291 2.402512550354004
-14.014630317687988 8.56632137298584 4.733166217803955
-7.767412185668945 -1.8073902130126953 3.4180564880371094
-7.222220420837402 -0.036933302879333496 0.8670907616615295
-12.182731628417969 -3.6119282245635986 3.690490245819092
-9.498602867126465 2.0637388229370117 2.162752866744995
-5.465320110321045 1.8823939561843872 -0.1328916698694229
-2.6129114627838135 -0.05646631121635437 -1.7564120292663574
-10.80236530303955 2.4736757278442383 2.9048218727111816
-3.647484540939331 0.4288037121295929 -1.1675591468811035
-6.000267028808594 0.5957328677177429 0.17158731818199158
-3.568211078643799 1.6866860389709473 -1.2126792669296265
-7.8110456466674805 -1.603234887123108 1.2022353410720825
-13.31390380859375 -6.744305610656738 4.334323883056641
-9.707174301147461 3.635157823562622 2.2814669609069824
-16.215187072753906 4.4801106452941895 5.985666751861572
-8.46993637084961 3.5602593421936035 1.577262282371521
-6.53904914855957 1.9449020624160767 0.4782499372959137
-7.820012092590332 0.3503186106681824 1.2073405981063843
-11.36328411102295 4.270272731781006 3.224083423614502
-9.620772361755371 5.887073993682861 2.2322890758514404
-12.962387084960938 2.17846417427063 4.134253025054932
-10.074325561523438 -4.849961280822754 2.4904367923736572
-6.91438627243042 0.8065044283866882 0.6918807625770569
-9.54965877532959 -2.4038467407226562 2.1918106079101562
-13.935412406921387 -4.292418479919434 4.6880717277526855
-13.490202903747559 4.52371072769165 4.434674263000488
-8.539087295532227 3.701742172241211 1.616621494293213
-6.706778049468994 -1.5840562582015991 0.5737133026123047
-16.13090705871582 6.309295177459717 5.937696933746338
-8.756953239440918 2.4926669597625732 1.740625023841858
-9.128403663635254 4.237459182739258 1.9520453214645386
-5.897588729858398 3.3025381565093994 0.11314533650875092
-17.329797744750977 4.021932125091553 6.620074272155762
-13.499588012695312 -7.065815448760986 4.440011024475098
-3.488508939743042 -0.476749986410141 -1.2580432891845703
-5.0635223388671875 -0.4980887770652771 -0.36158624291419983
-3.799903154373169 2.453378677368164 -1.0808048248291016
-14.92568588256836 1.5318882465362549 5.251712799072266
-5.5300421714782715 0.07239201664924622 -0.09605246037244797
-10.155950546264648 0.9709299206733704 2.5368988513946533
-9.532747268676758 2.5616044998168945 2.18218731880188
-8.09426212310791 -1.4803181886672974 2.537867546081543
-16.443632125854492 2.701885461807251 6.115691661834717
-8.429241180419922 -2.338585615158081 1.5540961027145386
-10.182703018188477 -3.952883243560791 2.5521228313446045
-7.222362995147705 -0.49085187911987305 0.8671727776527405
-9.366973876953125 3.7213242053985596 2.0878348350524902
-10.536149978637695 1.8437803983688354 2.753298759460449
-7.456201076507568 -0.3351931869983673 3.829416036605835
-4.387607574462891 -2.3705894947052 -0.7463009357452393
-5.4165730476379395 2.9056804180145264 -0.16063621640205383
-4.8991169929504395 -2.532630205154419 -0.4551621675491333
-8.640466690063477 -1.080209493637085 1.6743218898773193
-7.830672264099121 -1.2489444017410278 1.2134071588516235
-11.650181770324707 -2.7097971439361572 3.387375831604004
-14.472904205322266 -4.535811901092529 4.9939985275268555
-7.478912353515625 -0.9230655431747437 3.796143054962158
-7.694833755493164 -4.026183605194092 1.136090874671936
-3.8488152027130127 -2.3041985034942627 -1.0529677867889404
-6.07645320892334 -0.32738709449768066 0.21494977176189423
-10.75712776184082 -2.688833236694336 5.7465338706970215
-11.197285652160645 3.4691390991210938 3.1296021938323975
-9.765271186828613 -6.3389763832092285 2.314531087875366
-8.99467658996582 -0.9677643179893494 1.8759286403656006
-9.902640342712402 -2.5004210472106934 2.39271879196167
-3.5204031467437744 -1.42397940158844 -1.2398920059204102
-20.595319747924805 10.233016014099121 8.478732109069824
-14.639781951904297 8.475805282592773 5.088987350463867
-10.325901985168457 -2.4672164916992188 2.633629560470581
-4.5811767578125 -0.5964545607566833 -0.6361254453659058
-6.532713413238525 0.4215357303619385 0.47464248538017273
-9.533956527709961 0.49898669123649597 2.1828737258911133
-1.7475866079330444 0.24414552748203278 -0.5773597955703735
-12.041669845581055 6.144539833068848 3.610205888748169
-8.255880355834961 -3.0823135375976562 1.4554235935211182
-9.20145034790039 5.97914457321167 1.993621826171875
-14.199108123779297 -5.854480743408203 4.838160514831543
-4.430237770080566 -0.77646803855896 -0.7220363020896912
-7.819507122039795 -0.49675804376602173 2.9912145137786865
-14.146988868713379 -8.469817161560059 4.8084940910339355
-6.4762983322143555 -0.4645671844482422 0.4425313174724579
-8.801473617553711 -1.1937603950500488 5.394011497497559
-16.364234924316406 -5.573070049285889 6.07049560546875
-9.004316329956055 -1.585597038269043 1.8814152479171753
-6.508622646331787 -1.1804702281951904 0.4609284996986389
-13.311660766601562 6.9529571533203125 4.333053112030029
-20.98844337463379 -6.754415988922119 8.70248031616211
-8.886119842529297 -3.715139865875244 1.8141403198242188
-5.11064338684082 0.15462630987167358 -0.3347649574279785
-11.406166076660156 -6.8140177726745605 3.2484869956970215
-7.481990814208984 -0.3885793685913086 3.755352258682251
-4.904142379760742 -1.385421872138977 -0.4523021876811981
-13.562410354614258 -7.545020580291748 4.475766181945801
-3.5546655654907227 1.2808799743652344 -1.2203887701034546
-11.602869987487793 -3.227794885635376 4.637287616729736
-10.6318998336792 -3.694723129272461 2.807795286178589
-10.165201187133789 -5.728497505187988 2.542160987854004
-13.045135498046875 1.436970829963684 4.1813507080078125
-9.7431640625 4.937002658843994 2.3019521236419678
-10.108505249023438 -3.8991293907165527 2.509892225265503
-12.005488395690918 5.693437576293945 3.5896103382110596
-5.7930426597595215 1.22659432888031 0.05363931879401207
-4.233500957489014 -0.6145076751708984 -0.8340132236480713
-12.661471366882324 4.805344581604004 3.9629807472229004
-7.398494720458984 -0.7028814554214478 4.012666702270508
-12.569146156311035 7.947114944458008 3.9104321002960205
-8.267598152160645 3.1061038970947266 1.462096929550171
-16.75209617614746 6.7339606285095215 6.291262149810791
-11.365787506103516 1.9615778923034668 3.2255074977874756
-6.878157615661621 -4.705694675445557 0.6712585687637329
-5.5026631355285645 -3.0702953338623047 -0.11163897812366486
-7.8039140701293945 -1.9555752277374268 3.855654239654541
-12.712596893310547 1.6208539009094238 3.992077589035034
-5.563712120056152 -2.9605212211608887 -0.07689232379198074
-15.364486694335938 1.6175847053527832 5.58101749420166
-16.742874145507812 5.1552581787109375 6.286013126373291
-7.789958477020264 -0.5347543954849243 1.1902329921722412
-6.229939937591553 -2.3251895904541016 0.30230990052223206
-13.440281867980957 -3.097003936767578 4.406256198883057
-5.16273832321167 -0.18642202019691467 -0.3051140010356903
-10.487025260925293 -6.664514541625977 2.7253339290618896
-10.255733489990234 -5.719996929168701 2.593688726425171
-4.298577785491943 -2.819988250732422 -0.7969747185707092
-8.794309616088867 3.62672758102417 1.761887550354004
-14.275890350341797 8.663506507873535 4.881868839263916
-15.010984420776367 2.5205957889556885 5.30026388168335
-15.043084144592285 5.301639556884766 5.318535327911377
-10.900360107421875 -3.742445468902588 2.9605960845947266
-7.056811809539795 -1.274680256843567 0.7729455232620239
-8.379487037658691 0.7255949378013611 1.5257792472839355
-9.254273414611816 -0.3171831965446472 2.0236849784851074
-12.645122528076172 -7.999477863311768 3.953669548034668
-5.6584086418151855 1.7860435247421265 -0.022990018129348755
-14.104445457458496 -8.24527645111084 4.784280300140381
-6.900115966796875 2.1793065071105957 0.6837587356567383
-8.46049976348877 -0.845514714717865 1.9205199480056763
-12.72717571258545 0.8890789747238159 4.000375747680664
-11.50502872467041 -5.032881736755371 3.3047573566436768
-14.516229629516602 -8.793766975402832 5.018655776977539
-10.198687553405762 2.894207000732422 2.5612246990203857
-8.735008239746094 3.2644968032836914 1.728134036064148
-11.194337844848633 -4.4844441413879395 3.1279208660125732
-9.471746444702148 -1.7825144529342651 2.1474649906158447
-10.70253849029541 2.028651237487793 2.8480029106140137
-5.487608432769775 3.095517158508301 -0.12020505964756012
-7.592225074768066 0.16857975721359253 1.0776894092559814
-8.613953590393066 3.213942766189575 1.6592333316802979
-6.184211254119873 3.114121913909912 0.27628350257873535
-8.63076400756836 -4.078822135925293 1.6687967777252197
-6.465590476989746 3.9666213989257812 0.4364396035671234
-6.60770845413208 -0.8755534887313843 0.5173279047012329
-10.389382362365723 1.9212448596954346 2.66976261138916
-8.462964057922363 -3.8222415447235107 1.5732905864715576
-13.668010711669922 7.25762414932251 4.5358781814575195
-9.309868812561035 -3.6781466007232666 2.055328130722046
-5.487058162689209 -3.850935935974121 -0.12052174657583237
-7.08433198928833 -3.049530267715454 0.7886077761650085
-8.008907318115234 -5.163960933685303 1.3148523569107056
-4.828723907470703 3.3277552127838135 -0.4952249526977539
-11.588949203491211 -6.807084560394287 3.352522611618042
-19.259645462036133 -8.08889102935791 7.718491077423096
-12.181234359741211 -3.258028030395508 3.6896374225616455
-9.314562797546387 -0.01820772886276245 2.0580008029937744
-7.079012393951416 2.969494342803955 0.7855831384658813
-10.757594108581543 6.255289554595947 2.8793413639068604
-17.887176513671875 4.066493034362793 6.937320709228516
-8.40679931640625 -0.0010279514826834202 1.9509109258651733
-7.101672649383545 -3.3894548416137695 0.7984784245491028
-6.393791675567627 -2.3821494579315186 0.39556923508644104
-9.915103912353516 1.6506801843643188 2.399815082550049
-11.020234107971191 -6.453903675079346 3.0288245677948
-11.028712272644043 -5.003310680389404 3.03364896774292
-5.347030162811279 -0.7622328996658325 -0.20022037625312805
-5.792356967926025 3.782907724380493 0.05325091630220413
-6.682902812957764 -3.369631290435791 0.5601239800453186
-10.326277732849121 6.737524032592773 2.633847236633301
-12.101609230041504 5.808772087097168 3.6443207263946533
-11.830684661865234 6.212038993835449 3.490118980407715
-8.989219665527344 -4.60892915725708 1.8728224039077759
-8.981938362121582 -4.934392929077148 1.8686776161193848
-10.512144088745117 2.1159920692443848 2.739635944366455
-10.264514923095703 1.6218841075897217 2.59869122505188
-3.611607789993286 -1.0855953693389893 -1.1879810094833374
-4.288646221160889 1.0028140544891357 -0.8026257753372192
-15.093022346496582 2.1080260276794434 5.346957206726074
-5.36990213394165 3.2662343978881836 -0.1871994137763977
-17.86394500732422 5.746836185455322 6.924099445343018
-8.433334350585938 2.1264452934265137 1.5564285516738892
-17.052032470703125 -6.311120986938477 6.461973667144775
-12.696627616882324 -6.431896209716797 3.982985019683838
-5.189361572265625 -0.6003378033638 -0.28996145725250244
-6.47952938079834 -1.8165555000305176 0.44436898827552795
-13.272401809692383 2.2012789249420166 4.310705661773682
-10.534120559692383 0.66459721326828 2.7521438598632812
-5.5272955894470215 1.4656389951705933 -0.0976162999868393
-8.234835624694824 -1.6336784362792969 2.3661420345306396
-10.505083084106445 -4.922954082489014 2.7356128692626953
-16.062368392944336 -5.9614176750183105 5.898681640625
-7.255833148956299 0.9842512011528015 0.8862238526344299
-10.319966316223145 1.1851179599761963 2.630251884460449
-8.520002365112305 0.13339725136756897 1.6057565212249756
-5.416375160217285 1.7232751846313477 -0.16075019538402557
-13.99809455871582 6.824604511260986 4.723753452301025
-5.437708377838135 -0.6897389888763428 -0.14860773086547852
-8.180570602416992 -0.09638022631406784 2.324594020843506
-4.1575927734375 -2.3691420555114746 -0.8772177696228027
-6.60916805267334 -2.278170108795166 0.5181563496589661
-9.152368545532227 4.734614372253418 1.9656856060028076
-18.047697067260742 4.90548038482666 7.028687953948975
-5.673966407775879 -2.3363239765167236 -0.014136895537376404
-9.555355072021484 -4.844773769378662 2.1950533390045166
-4.5324859619140625 1.3252202272415161 -0.6638367176055908
-12.987632751464844 -6.062306880950928 4.148619651794434
-12.389692306518555 6.15730619430542 3.8082916736602783
-13.352370262145996 -3.165963888168335 4.356219291687012
-10.663249969482422 2.477296829223633 2.82564115524292
-11.255596160888672 -4.753392696380615 3.1627860069274902
-12.49555778503418 -5.897554874420166 3.868541717529297
-8.233367919921875 0.13034576177597046 1.4426114559173584
-8.623259544372559 5.053775787353516 1.6645305156707764
-11.515250205993652 -6.914412021636963 3.310575246810913
-17.79673957824707 -9.123518943786621 6.885838508605957
-10.238572120666504 -6.746737480163574 2.5839219093322754
-9.721540451049805 4.413775444030762 2.2896454334259033
-13.407761573791504 7.070904731750488 4.387751579284668
-9.981677055358887 2.593151092529297 2.43770694732666
-2.885770797729492 1.0922267436981201 -1.6011064052581787
-4.77315616607666 2.1251463890075684 -0.5268530249595642
-14.648869514465332 1.5052860975265503 5.094156265258789
-8.010984420776367 -1.5693702697753906 2.7957050800323486
-17.392383575439453 -10.225687980651855 6.655691623687744
-9.332141876220703 3.5983545780181885 2.0680088996887207
-15.672022819519043 8.677850723266602 5.676513671875
-10.823873519897461 3.076931953430176 2.9170641899108887
-12.434725761413574 1.0271273851394653 3.833921194076538
-10.975065231323242 1.7752140760421753 3.0031185150146484
-9.139078140258789 3.224116563796997 1.9581221342086792
-14.592791557312012 1.4303210973739624 5.0622382164001465
-6.694024562835693 -2.2594244480133057 0.5664543509483337
-16.131656646728516 7.05814266204834 5.938124179840088
-8.639677047729492 -3.5790252685546875 1.6738709211349487
-11.5482759475708 2.5644218921661377 3.329376697540283
-8.386975288391113 -0.6982306241989136 2.157884120941162
-7.863513946533203 -4.829156875610352 1.2320975065231323
-10.512346267700195 2.386802911758423 2.739750862121582
-3.3610432147979736 -0.4064927101135254 -1.330594778060913
-5.157242774963379 0.36307185888290405 -0.3082415759563446
-10.80156135559082 1.3982771635055542 2.9043643474578857
-6.135227680206299 -2.133631706237793 0.2484021782875061
-7.699625015258789 -2.1706488132476807 4.087162017822266
-11.733332633972168 2.6575655937194824 3.434706211090088
-6.126614570617676 -2.9259214401245117 0.24349859356880188
-9.268803596496582 5.015806674957275 2.0319578647613525
-3.6546900272369385 -2.110802412033081 -1.163458228111267
-10.57836627960205 4.854548454284668 2.777329444885254
-8.10206127166748 2.2555832862854004 1.3678768873214722
-6.095643997192383 -1.263235092163086 0.2258729785680771
-8.106225967407227 -1.1134421825408936 2.593076705932617
-20.699155807495117 1.9796116352081299 8.53782844543457
-13.654985427856445 -4.610804557800293 4.5284600257873535
-7.372755527496338 -3.335745334625244 0.9527702927589417
-7.960608959197998 -1.1460072994232178 1.2873634099960327
-9.918929100036621 2.344003915786743 2.4019932746887207
-8.365253448486328 2.4593310356140137 1.5176788568496704
-9.183828353881836 -0.16559480130672455 1.98358952999115
-9.735672950744629 2.220827102661133 2.2976880073547363
-7.36337947845459 -2.0622661113739014 0.9474350810050964
-15.576136589050293 8.561992645263672 5.621936798095703
-6.935878753662109 2.3080661296844482 0.7041140198707581
-10.656332015991211 -6.969590187072754 2.821699857711792
-6.017669200897217 -3.7248644828796387 0.1814907193183899
-7.294491291046143 -1.2112584114074707 3.977632999420166
-7.939510822296143 -1.201872706413269 2.8229153156280518
-6.552955150604248 -1.6365081071853638 0.48616278171539307
-7.639575481414795 -1.8606334924697876 1.1046395301818848
-3.2405083179473877 1.1289715766906738 -1.399198293685913
-15.777200698852539 6.62693977355957 5.7363762855529785
-10.203326225280762 5.186074733734131 2.5638654232025146
-6.484922409057617 -0.8053267598152161 0.44743964076042175
-5.985415458679199 1.523438811302185 0.1631338894367218
-9.8180513381958 -5.099851608276367 2.344571352005005
-8.968558311462402 -1.7020857334136963 1.8610631227493286
-5.6029953956604 -3.9439897537231445 -0.05453188344836235
-9.215625762939453 3.505289077758789 2.0016891956329346
-8.313010215759277 -1.7030901908874512 2.2485086917877197
-11.185388565063477 1.9696696996688843 3.122828960418701
-5.303943157196045 3.377293109893799 -0.22474344074726105
-13.569235801696777 -8.280745506286621 4.479651927947998
-4.311859130859375 2.679199695587158 -0.7894121408462524
-9.551793098449707 0.5892329812049866 2.71018648147583
-8.393445014953613 -2.4595046043395996 1.5337227582931519
-7.967457294464111 2.6428544521331787 1.2912638187408447
-4.690196514129639 -0.2551612854003906 -0.5740728974342346
-7.467379570007324 -0.24889211356639862 3.802828788757324
-15.394826889038086 -8.87961196899414 5.518731117248535
-4.876153469085693 -1.1268247365951538 -0.4682328999042511
-6.06129264831543 2.8175463676452637 0.20632177591323853
-8.932969093322754 1.052860140800476 1.840806484222412
-3.832091808319092 0.8844262957572937 -1.0624840259552002
-13.903972625732422 4.747111797332764 4.670181751251221
-6.831804275512695 4.201475143432617 0.6448786854743958
-7.510220527648926 -0.4960634112358093 1.0310142040252686
-12.245732307434082 5.464190483093262 3.7263529300689697
-19.661205291748047 -11.355063438415527 7.947048187255859
-8.204151153564453 0.8050026297569275 1.425982117652893
-12.598422050476074 6.106056213378906 3.9270951747894287
-8.296462059020996 -0.16364561021327972 2.1298108100891113
-9.417972564697266 2.3719236850738525 2.116861343383789
-7.492341041564941 0.04877627268433571 3.7739098072052
-8.106144905090332 2.8711729049682617 1.3702019453048706
-7.827023029327393 -2.2431800365448 1.2113302946090698
-12.458331108093262 7.580442428588867 3.8473591804504395
-4.902689456939697 1.6176137924194336 -0.4531257450580597
-11.565725326538086 5.1779584884643555 3.3393094539642334
-15.005417823791504 1.5615131855010986 5.297094821929932
-7.116489410400391 -2.629645824432373 0.8069103360176086
-10.829071998596191 -4.106226921081543 2.9200198650360107
-19.457685470581055 11.178725242614746 7.831218719482422
-5.66426420211792 3.13110089302063 -0.019656263291835785
-8.969825744628906 0.39194416999816895 1.861785888671875
-8.37553596496582 3.593912363052368 1.5235322713851929
-15.922834396362305 -8.37492561340332 5.819261074066162
-4.883737087249756 0.23714566230773926 -0.46391451358795166
-5.063031196594238 -0.39117884635925293 -0.36186498403549194
-12.651351928710938 6.167198181152344 3.957221031188965
-6.798572540283203 -2.009054660797119 0.6259596347808838
-15.992335319519043 6.889374256134033 5.85882568359375
-5.596194744110107 0.5538396835327148 -0.058400463312864304
-12.732893943786621 6.155871391296387 4.003632545471191
-19.614213943481445 4.571229934692383 7.920308589935303
-4.618200302124023 -1.4329290390014648 -0.6150534152984619
-5.017638206481934 -2.178920269012451 -0.38770243525505066
-8.031920433044434 -0.11341588199138641 2.6053409576416016
-10.867426872253418 0.7261946797370911 2.9418528079986572
-7.4346160888671875 -1.706169605255127 0.9879813194274902
-18.68495750427246 5.130207538604736 7.391399383544922
-9.176984786987305 3.695265769958496 1.9796969890594482
-3.6315503120422363 0.15042951703071594 -1.1766277551651
-9.224871635437012 -3.7042601108551025 2.006948709487915
-5.419351100921631 3.188802719116211 -0.15905457735061646
-10.044127464294434 2.4288177490234375 2.4732513427734375
-11.920427322387695 3.249210834503174 3.54119610786438
-11.0471830368042 -3.3660807609558105 3.044163942337036
-6.6704864501953125 2.230619430541992 0.55306077003479
-11.232158660888672 -3.1544668674468994 3.1494476795196533
-10.449311256408691 5.410624980926514 2.703873872756958
-7.9679341316223145 -1.9479726552963257 1.2915328741073608
-8.008074760437012 0.3735884726047516 1.314380168914795
-9.63668441772461 -5.903054714202881 2.2413415908813477
-17.331554412841797 10.058877944946289 6.621077537536621
-19.884471893310547 10.10717487335205 8.074135780334473
-12.493088722229004 5.984344005584717 3.8671414852142334
-5.971479892730713 2.0527656078338623 0.1552029550075531
-11.188294410705566 6.6637420654296875 3.1244852542877197
-8.950079917907715 1.8485850095748901 1.8505465984344482
-7.8529181480407715 3.054464340209961 1.2260706424713135
-7.787322998046875 4.771331310272217 1.1887363195419312
-11.134570121765137 6.127103328704834 3.0939064025878906
-13.692357063293457 8.370977401733398 4.549736499786377
-4.529313087463379 1.163941502571106 -0.6656438708305359
-11.171738624572754 4.269423007965088 3.115060567855835
-5.809948444366455 -3.2609245777130127 0.06326045840978622
-5.797046661376953 -2.936685800552368 0.05591763183474541
-7.6926751136779785 -1.4748324155807495 1.134861707687378
-12.19865608215332 5.924930095672607 3.699557304382324
-12.04921817779541 2.852534055709839 3.6145002841949463
-10.431159973144531 -5.686781406402588 2.693538188934326
-8.184971809387207 -0.7476277351379395 2.5084242820739746
-15.637720108032227 4.050596714019775 5.656986236572266
-4.905673980712891 0.9043431282043457 -0.45142754912376404
-8.70785903930664 -3.4129230976104736 1.7126777172088623
-12.575410842895508 -3.5798282623291016 3.9139935970306396
-12.154034614562988 3.0783774852752686 3.674159049987793
-8.486371994018555 -0.9611987471580505 1.5866146087646484
-3.521974563598633 -0.63871830701828 -1.2389975786209106
-3.0411360263824463 1.0515424013137817 -1.5126744508743286
-4.990882396697998 1.2112950086593628 -0.40293049812316895
-9.322176933288574 -4.065980434417725 2.06233286857605
-10.061716079711914 -6.6140899658203125 2.4832592010498047
-10.38271427154541 -6.253371715545654 2.665963649749756
-12.652127265930176 -3.491154909133911 3.9576587677001953
-16.150480270385742 8.602917671203613 5.94883918762207
-7.0397748947143555 4.626908302307129 0.7632508277893066
-7.882847309112549 -1.0652430057525635 2.910775899887085
-5.0540852546691895 -2.613861083984375 -0.366958349943161
-8.037540435791016 -0.7521291971206665 2.59930682182312
-3.778179883956909 0.34709957242012024 -1.0931713581085205
-7.74039888381958 -2.118985414505005 1.1620254516601562
-9.25140380859375 3.6268889904022217 2.0220537185668945
-17.030776977539062 1.4624476432800293 6.449878692626953
-10.0833740234375 2.802811622619629 2.4955906867980957
-9.636181831359863 4.834487438201904 2.2410616874694824
-8.137503623962402 -0.5155327916145325 1.3880470991134644
-10.224957466125488 5.737980842590332 2.5761778354644775
-11.1343355178833 6.613185882568359 3.093773365020752
-16.46659278869629 3.9122660160064697 6.12876033782959
-9.214988708496094 3.383883237838745 2.001328229904175
-6.786252975463867 4.353017330169678 0.6189516186714172
-6.649960517883301 -2.974950075149536 0.5413743257522583
-8.705864906311035 -2.959819793701172 1.7115447521209717
-7.277454376220703 -0.8016394376754761 4.202385425567627
-10.121015548706055 2.082516670227051 2.517015218734741
-12.938580513000488 2.857755422592163 4.120703220367432
-14.885526657104492 -6.173093795776367 5.228852272033691
-6.044981002807617 2.204376220703125 0.19703765213489532
-9.102071762084961 3.4143552780151367 1.937057614326477
-10.329384803771973 1.7775112390518188 2.635613441467285
-10.376667022705078 6.252692222595215 2.662527561187744
-13.656280517578125 -0.36380329728126526 8.91373062133789
-11.467735290527344 5.065288066864014 3.283536195755005
-8.109491348266602 -0.2732701003551483 1.3721050024032593
-6.373746395111084 2.491429567337036 0.3841617703437805
-8.01818561553955 0.4804411828517914 1.3201359510421753
-9.288459777832031 3.789227247238159 2.0431461334228516
-16.527299880981445 3.120476007461548 6.1633124351501465
-10.097311019897461 -2.9232230186462402 2.503520965576172
-10.524371147155762 -3.593449354171753 2.7465922832489014
-15.709907531738281 -4.7949066162109375 5.6980695724487305
-7.973703384399414 -0.08628731966018677 1.2948176860809326
-7.827873229980469 -1.596014380455017 3.135169744491577
-12.897124290466309 7.322714328765869 4.097109317779541
-8.288101196289062 2.613386869430542 1.4737656116485596
-10.56181812286377 6.831697463989258 2.767911195755005
-6.767002105712891 1.9361896514892578 0.6079943776130676
-7.6478681564331055 -0.04044480249285698 3.3714051246643066
-10.24944019317627 6.6698079109191895 2.590114116668701
-11.924386978149414 2.3053412437438965 3.543449640274048
-11.97323989868164 1.8193334341049194 3.5712544918060303
-7.366480827331543 0.07585778087377548 4.282458305358887
-12.294739723205566 6.041234016418457 3.7542455196380615
-13.838424682617188 -0.1896110326051712 8.773472785949707
-8.765785217285156 -5.67974328994751 1.7456488609313965
-7.970636367797852 -1.0841890573501587 2.7495415210723877
-12.307746887207031 1.576439380645752 3.761648178100586
-14.924072265625 6.705265522003174 5.250795841217041
-6.034038543701172 0.08994409441947937 0.19080905616283417
-5.304595470428467 -3.6199069023132324 -0.2243746817111969
-4.383247375488281 -1.1374216079711914 -0.7487814426422119
-15.67448902130127 3.4138662815093994 5.677913188934326
-4.03598690032959 -1.1055599451065063 -0.9464339017868042
-9.406002044677734 -1.6666591167449951 2.11004638671875
-5.498722553253174 0.3550082743167877 -0.11388088762760162
-7.3810224533081055 -0.44989076256752014 4.368524074554443
-4.591846942901611 -0.7720370888710022 -0.6300511956214905
-5.242946147918701 -1.7014126777648926 -0.2594628632068634
-4.91327428817749 3.3394346237182617 -0.4471007287502289
-13.86156177520752 6.382347583770752 4.646042346954346
-4.294042110443115 0.7244330048561096 -0.7995544075965881
-9.321656227111816 5.824818134307861 2.0620415210723877
-7.539165496826172 5.151936054229736 1.0474919080734253
-2.895235300064087 -0.30394378304481506 -1.59572172164917
-9.256011009216309 1.603450059890747 2.024676561355591
-10.477242469787598 3.3775956630706787 2.71977162361145
-7.595483303070068 -1.0000993013381958 3.5091168880462646
-8.358068466186523 -0.7855085134506226 1.990039348602295
-10.096949577331543 -5.564163684844971 2.5033137798309326
-11.397390365600586 6.4194793701171875 3.2434980869293213
-2.811302900314331 -0.9577025771141052 -1.6434940099716187
-7.54913854598999 -1.7997113466262817 4.039619445800781
-7.229152202606201 -2.865873098373413 0.8710356950759888
-3.3984193801879883 0.9641548991203308 -1.309321403503418
-7.282315254211426 -2.066042423248291 0.9012958407402039
-21.306848526000977 6.050120830535889 8.883716583251953
-13.861279487609863 -7.971877574920654 4.645875930786133
-8.828692436218262 -0.9195208549499512 5.328868865966797
-9.34732437133789 -1.7121824026107788 2.076646566390991
-8.05770206451416 -0.8503111600875854 2.538997173309326
-6.716214179992676 1.7702370882034302 0.5790866017341614
-16.288854598999023 8.33973217010498 6.0275983810424805
-2.912790298461914 -0.8856955170631409 -1.5857294797897339
-20.513469696044922 -11.302565574645996 8.432135581970215
-13.733320236206055 1.497009038925171 4.573047637939453
-12.822519302368164 2.1285035610198975 4.054643630981445
-7.631486892700195 -1.967527985572815 1.1000350713729858
-7.626659393310547 0.23967787623405457 3.471756935119629
-14.548515319824219 7.93243932723999 5.037041187286377
-7.7823991775512695 -0.6910004615783691 1.1859304904937744
-15.8046236038208 1.5468703508377075 5.751983165740967
-7.245384216308594 1.1593559980392456 0.8802764415740967
-7.717930793762207 -0.5796366333961487 3.201444625854492
-16.979982376098633 3.1571691036224365 6.420968532562256
-8.782124519348145 4.234484672546387 1.7549524307250977
-8.85062026977539 0.17102307081222534 1.7939364910125732
-8.812758445739746 1.8937971591949463 1.7723865509033203
-8.255677223205566 -1.7831319570541382 2.4084715843200684
-9.865394592285156 2.5069580078125 2.3715226650238037
-10.745292663574219 1.7105387449264526 2.8723387718200684
-9.716683387756348 -2.2607855796813965 2.2868783473968506
-5.599483489990234 -2.5899341106414795 -0.05653197690844536
-9.711811065673828 -4.996978759765625 2.2841029167175293
-8.375287055969238 -0.6081356406211853 2.1751396656036377
-6.35862398147583 -0.8258415460586548 0.3755539059638977
-7.063712120056152 -0.9894711971282959 0.7768720388412476
-7.331612586975098 -3.5229530334472656 0.9293540120124817
-7.785008430480957 -0.10177591443061829 3.036447763442993
-6.742825508117676 2.970006227493286 0.5942332744598389
-5.893716812133789 -1.2479113340377808 0.11093956977128983
-4.838067054748535 0.5297688841819763 -0.4899079203605652
-10.441225051879883 -3.333826780319214 2.6992685794830322
-3.80610990524292 1.6027559041976929 -1.0772736072540283
-9.747572898864746 5.075129508972168 2.3044633865356445
-5.22702693939209 0.6105206608772278 -0.2685224115848541
-15.257436752319336 1.9832189083099365 5.440536975860596
-9.964971542358398 4.626220226287842 2.4282000064849854
-8.753718376159668 1.7544091939926147 1.738783597946167
-5.702682018280029 -0.7386246919631958 0.002208123914897442
-6.7579216957092285 4.518399238586426 0.6028266549110413
-13.693995475769043 -7.303314685821533 4.550661563873291
-7.106871604919434 1.0383000373840332 0.8014383316040039
-3.2756428718566895 -0.38103291392326355 -1.3792002201080322
-5.042417526245117 -3.1956965923309326 -0.3735990524291992
-8.841591835021973 -3.638826370239258 1.7887955904006958
-5.669428825378418 2.355776786804199 -0.016716433688998222
-4.964841842651367 -3.2445733547210693 -0.4177531898021698
-14.840158462524414 1.1968787908554077 5.203032970428467
-5.412944316864014 -2.741868495941162 -0.16270554065704346
-7.04497766494751 -3.143702507019043 0.7662097215652466
-6.977081775665283 -2.660801649093628 0.7275635004043579
-6.058260917663574 0.9263949990272522 0.2045944780111313
-8.431346893310547 -1.028518557548523 2.107522487640381
-7.25878381729126 -0.29243069887161255 4.1758527755737305
-4.861146450042725 2.5616917610168457 -0.4767720103263855
-8.033365249633789 1.149755597114563 1.3287752866744995
-16.521854400634766 -6.852362632751465 6.1602091789245605
-14.220563888549805 3.9127233028411865 4.850376605987549
-6.924549579620361 -1.2169983386993408 0.6976643800735474
-6.8644890785217285 3.952519416809082 0.6634817123413086
-3.045626640319824 -0.03737086057662964 -1.5101221799850464
-5.784540176391602 1.992228388786316 0.04879990592598915
-7.6145243644714355 -2.2112157344818115 1.0903804302215576
-7.671503067016602 2.372232437133789 1.1228129863739014
-4.381880760192871 -0.4729299247264862 -0.7495595216751099
-6.025389194488525 3.382258653640747 0.1858862340450287
-3.657390594482422 -1.4275020360946655 -1.1619203090667725
-10.023504257202148 -6.164088726043701 2.4615097045898438
-8.247247695922852 -0.027780592441558838 1.4505118131637573
-11.511693954467773 5.945446014404297 3.308555841445923
-8.239697456359863 -1.3398534059524536 2.2591655254364014
-7.237084865570068 0.14868903160095215 4.097244739532471
-7.105112075805664 0.161361962556839 0.8004375100135803
-3.536933422088623 0.24211642146110535 -1.2304805517196655
-5.339622497558594 -3.089794874191284 -0.20443673431873322
-8.98574447631836 1.3719630241394043 1.870845079421997
-3.5840940475463867 -1.1936594247817993 -1.2036381959915161
-8.157408714294434 1.709670066833496 1.3993778228759766
-4.697645664215088 -1.5672531127929688 -0.569833517074585
-4.010631561279297 2.4827263355255127 -0.9608641862869263
-12.884955406188965 -6.664668560028076 4.090176105499268
-5.997330188751221 0.8712816834449768 0.1699150800704956
-6.934336185455322 -2.28364896774292 0.703234076499939
-12.294546127319336 5.662921905517578 3.754135847091675
-7.331121921539307 -2.9956576824188232 0.929074227809906
-11.388345718383789 -6.57771635055542 3.2383432388305664
