-10.299389839172363 -1.105050802230835 2.906960964202881
-4.26851224899292 1.4479681253433228 -1.3216489553451538
-6.347152233123779 0.06979334354400635 1.7054494619369507
-7.016242027282715 -4.2669477462768555 0.24228785932064056
-7.48828649520874 -2.88063383102417 0.5109655857086182
-11.49397087097168 -3.723309278488159 2.790900707244873
-16.22792625427246 -6.11067008972168 5.485348224639893
-9.850669860839844 0.8744692802429199 1.8555774688720703
-10.792442321777344 -0.7289423942565918 3.838165760040283
-7.9689106941223145 1.5168362855911255 0.7845261693000793
-6.3739776611328125 0.26324784755706787 -0.12327075749635696
-11.879122734069824 -0.6310831308364868 4.4566779136657715
-6.158735275268555 1.3810430765151978 -0.24578072130680084
-7.013472080230713 1.3945579528808594 0.24071519076824188
-11.183871269226074 -5.495632648468018 2.6143977642059326
-7.402932167053223 2.94179368019104 0.4623866379261017
-9.843567848205566 -0.04518428444862366 3.0755770206451416
-5.380153656005859 1.6432353258132935 -0.688929557800293
-9.854843139648438 0.8164499402046204 2.2566230297088623
-9.090450286865234 2.1445369720458984 1.4228800535202026
-9.91974925994873 -0.10769297927618027 3.341451644897461
-7.515989303588867 2.691706657409668 2.607849597930908
-5.442043781280518 -1.884050726890564 -0.6537052392959595
-4.95255708694458 -1.3401049375534058 -0.9323082566261292
-6.712220668792725 -1.2559155225753784 0.06924771517515182
-20.501487731933594 2.372464656829834 7.917757987976074
-5.726529598236084 0.8373500108718872 -0.4917815327644348
-5.659832000732422 -0.2940434217453003 -0.5297454595565796
-6.528904438018799 -1.300930380821228 -0.03509104624390602
-7.230393886566162 -2.9891622066497803 0.36417829990386963
-8.958495140075684 -0.7289667129516602 1.3477729558944702
-18.383420944213867 -9.172046661376953 6.7122015953063965
-7.4541239738464355 4.043723106384277 1.229739785194397
-4.117875576019287 2.232753038406372 -1.407387137413025
-4.79414176940918 -1.0102843046188354 -1.0224740505218506
-16.007360458374023 2.6715335845947266 6.252724647521973
-12.300536155700684 -5.120721817016602 3.2499773502349854
-11.670147895812988 -6.201993942260742 2.8911750316619873
-7.040360927581787 0.809368371963501 0.25601905584335327
-8.74441909790039 -2.254298210144043 1.2259241342544556
-7.0513153076171875 -0.6113296747207642 0.2622529864311218
-11.12777042388916 -0.38606247305870056 2.582469940185547
-11.716580390930176 -6.540394306182861 2.9176025390625
-17.122358322143555 -1.8138339519500732 11.155988693237305
-9.334162712097168 0.13490143418312073 3.008150815963745
-18.080604553222656 -5.948798179626465 6.539847373962402
-8.000713348388672 2.6510965824127197 1.762956142425537
-9.728055953979492 -0.06486019492149353 2.47247576713562
-8.539233207702637 -1.5492238998413086 1.1091384887695312
-14.280938148498535 -5.887635707855225 4.377171039581299
-7.251932144165039 3.407862663269043 2.385807991027832
-10.258599281311035 -5.658846378326416 2.087757110595703
-7.411592483520508 -3.92638897895813 0.4673120379447937
-13.333142280578613 -3.781447172164917 3.837711811065674
-7.381201267242432 -2.8582375049591064 0.4500153660774231
-16.691679000854492 -7.48858642578125 5.749305725097656
-10.181818962097168 -2.4685091972351074 3.7022063732147217
-10.069438934326172 -1.1031382083892822 3.1091411113739014
-10.500801086425781 -2.4090561866760254 2.2256133556365967
-8.733590126037598 2.169597625732422 2.666321277618408
-16.042558670043945 2.2503514289855957 9.012892723083496
-10.963361740112305 -0.3861062824726105 3.9354493618011475
-11.475717544555664 -5.8577704429626465 2.780510425567627
-9.665730476379395 2.698174476623535 3.196871519088745
-11.333459854125977 -2.470885992050171 2.69954252243042
-7.41846227645874 4.000779628753662 0.47122621536254883
-6.341595649719238 3.1281542778015137 -0.14170047640800476
-12.632633209228516 -6.69710636138916 3.438997268676758
-6.096193790435791 0.16517092287540436 1.8358834981918335
-9.547324180603027 2.6487834453582764 3.1294775009155273
-6.237944602966309 -0.2742089033126831 -0.20069724321365356
-7.650780200958252 2.893430471420288 2.338675022125244
-9.25362491607666 3.3662147521972656 4.391322612762451
-19.093751907348633 -5.480456352233887 7.1165056228637695
-14.861305236816406 -5.275509834289551 4.707502365112305
-7.899718284606934 -2.200291633605957 0.7451426982879639
-19.814706802368164 -11.019665718078613 7.526852607727051
-10.668665885925293 -1.936132788658142 2.3211591243743896
-8.3770751953125 -3.9689512252807617 1.0168401002883911
-13.872323989868164 -4.579776763916016 4.144599437713623
-7.013946533203125 -4.023918151855469 0.24098215997219086
-16.19333839416504 -5.864782333374023 5.465662479400635
-11.6448974609375 -0.10609560459852219 4.8582377433776855
-20.11396026611328 -11.825813293457031 7.697180271148682
-6.5462422370910645 2.0118863582611084 -0.02522086724638939
-7.601257801055908 3.436732292175293 1.7374322414398193
-11.58297061920166 -1.1975970268249512 4.28811502456665
-13.769562721252441 -6.351352691650391 4.086109638214111
-6.108433246612549 0.3050583600997925 -0.2744123041629791
-7.354152202606201 2.852339029312134 3.225428342819214
-16.95470428466797 5.332461357116699 5.899018287658691
-22.968427658081055 -0.06293594837188721 9.321878433227539
-16.908180236816406 -9.116683959960938 5.872531414031982
-6.5503387451171875 -1.5262395143508911 -0.02289150469005108
-6.660086154937744 -1.851136326789856 0.03957345709204674
-9.813076972961426 3.4105546474456787 3.5362510681152344
-4.5528244972229 -2.779491424560547 -1.1598273515701294
-9.993983268737793 -0.28160086274147034 3.05572509765625
-8.711904525756836 5.675105571746826 1.2074229717254639
-4.7238359451293945 1.4853419065475464 -1.0624892711639404
-11.050292015075684 -2.446958065032959 2.5383708477020264
-5.6998090744018555 -0.5914307832717896 -0.5069900751113892
-6.781402111053467 0.4113234281539917 0.10862499475479126
-4.6144514083862305 -2.1247522830963135 -1.1247501373291016
-10.665907859802246 -3.625364303588867 2.3195879459381104
-6.279018878936768 -0.15411366522312164 1.0930325984954834
-6.394793510437012 -0.13428734242916107 3.2186341285705566
-17.118974685668945 2.5541722774505615 7.9328436851501465
-8.337713241577148 -4.732053756713867 0.9944368004798889
-11.260358810424805 -1.2970929145812988 4.104491710662842
-10.1849946975708 -3.6435463428497314 2.0458648204803467
-5.747713565826416 2.2847371101379395 -0.4797228276729584
-7.785327434539795 -2.6769042015075684 0.6800333857536316
-7.664059162139893 -3.0573394298553467 0.6110106110572815
-16.29986000061035 -1.9087376594543457 10.647403717041016
-1.5388858318328857 0.10285990685224533 -0.5577329397201538
-18.243755340576172 -5.688934326171875 10.32894515991211
-11.90063190460205 -5.298752307891846 3.022362470626831
-9.342655181884766 0.8440007567405701 1.5664269924163818
-12.8629150390625 -2.325763463973999 3.5700700283050537
-17.721576690673828 -9.406070709228516 6.335497856140137
-5.243073463439941 2.6905264854431152 -0.7669515013694763
-12.599864959716797 -4.711397171020508 3.420346736907959
-11.7551908493042 -2.440589666366577 3.9359569549560547
-11.409712791442871 -7.571699619293213 2.7429416179656982
-7.458928108215332 2.0170435905456543 0.4942566454410553
-16.787734985351562 -10.169818878173828 5.803976535797119
-7.5708136558532715 3.4199440479278564 1.5823216438293457
-12.488763809204102 -7.221439361572266 3.3571105003356934
-8.055870056152344 2.5085060596466064 2.029688835144043
-8.911563873291016 6.147675037384033 1.3210636377334595
-8.0858793258667 -1.754581332206726 0.8511003255844116
-9.338773727416992 -3.260880708694458 1.564215898513794
-17.61130714416504 4.184237003326416 6.554815292358398
-16.51099967956543 3.5272939205169678 6.608102798461914
-15.48619270324707 1.330902338027954 10.249686241149902
-20.776315689086914 -6.981103897094727 8.074178695678711
-7.833097457885742 3.454643726348877 4.266714096069336
-8.44051456451416 -0.2810332775115967 1.0529520511627197
-6.864610195159912 -2.305263042449951 0.15598440170288086
-10.915643692016602 1.1528661251068115 3.908290147781372
-7.575719833374023 -2.7435696125030518 0.5607300400733948
-6.900032043457031 -3.9773149490356445 0.1761443018913269
-5.116395473480225 1.0216132402420044 -0.8390535712242126
-15.61015510559082 1.7402006387710571 9.420472145080566
-9.310029029846191 -0.7814570665359497 1.5478575229644775
-3.656287670135498 0.09216749668121338 -1.6701120138168335
-13.434794425964355 -4.8888044357299805 3.89556884765625
-10.971517562866211 -4.420534610748291 2.493533134460449
-9.253924369812012 -4.276697635650635 1.5159224271774292
-7.3517656326293945 3.0243263244628906 3.7672364711761475
-6.561506271362305 0.9100173711776733 -0.016533169895410538
-9.580068588256836 -0.6336201429367065 1.7015562057495117
-8.446060180664062 1.7689361572265625 2.3283679485321045
-8.907402038574219 -1.0506341457366943 1.3186907768249512
-6.987172603607178 0.967686653137207 0.22574523091316223
-13.063976287841797 -7.762681007385254 3.684506416320801
-11.937463760375977 -0.8450077176094055 4.4898834228515625
-21.51031494140625 -6.714548587799072 8.491954803466797
-10.424275398254395 -2.6029303073883057 2.1820573806762695
-7.0005927085876465 3.3661489486694336 2.939871072769165
-10.523164749145508 -1.2561150789260864 2.238344192504883
-7.808657646179199 2.7197213172912598 2.057029962539673
-9.980578422546387 -2.6300888061523438 3.5506889820098877
-9.570202827453613 0.7011127471923828 2.261643171310425
-4.262709140777588 -0.9522818326950073 -1.324952244758606
-11.675661087036133 -5.834251880645752 2.894313097000122
-5.942275524139404 3.8636772632598877 -0.3689831495285034
-11.462019920349121 -1.8726643323898315 5.338154315948486
-10.59479808807373 -1.5794336795806885 6.419058322906494
-7.303304195404053 2.0600192546844482 3.807382583618164
-21.946664810180664 6.144962787628174 8.74031925201416
-8.86379337310791 0.8158724904060364 2.7734575271606445
-9.574501037597656 4.6388068199157715 1.698390245437622
-8.132720947265625 5.0878119468688965 0.877764880657196
-9.15637493133545 1.7074506282806396 1.4604018926620483
-8.77904987335205 1.6066652536392212 2.6921944618225098
-8.701822280883789 1.5403181314468384 2.0031981468200684
-8.731657981872559 -5.15874719619751 1.218660593032837
-14.551475524902344 -8.635910034179688 4.531153678894043
-8.161613464355469 1.9178961515426636 0.8942079544067383
-5.519874095916748 1.3184818029403687 -0.6094040870666504
-10.57521915435791 -4.359007358551025 2.267969846725464
-9.714027404785156 3.4254226684570312 3.2243616580963135
-16.376989364624023 2.8376305103302 9.971517562866211
-5.277827739715576 -1.5709823369979858 -0.7471723556518555
-4.72438383102417 -2.689061164855957 -1.0621801614761353
-11.805058479309082 -3.008852005004883 2.967963933944702
-10.669188499450684 -0.3209410607814789 2.3214566707611084
-9.537535667419434 -0.1961192786693573 3.1239051818847656
-13.622233390808105 -8.387666702270508 4.002252578735352
-6.215020656585693 1.8610492944717407 -0.2137441784143448
-11.326274871826172 -2.7413697242736816 3.749319076538086
-11.068862915039062 0.5611116290092468 4.003704071044922
-15.65807819366455 2.9886367321014404 9.584224700927734
-9.499775886535645 1.6055737733840942 1.6558568477630615
-10.16640567779541 -0.7976136207580566 2.0352861881256104
-7.833096504211426 -3.474585771560669 0.7072221636772156
-6.119231700897217 0.465692400932312 -0.2682655155658722
-10.053549766540527 -2.493403196334839 1.9710490703582764
-9.742509841918945 -3.9271345138549805 1.7940127849578857
-7.401861667633057 3.112520456314087 3.954911231994629
-10.441147804260254 -0.5082831978797913 2.1916611194610596
-3.4421193599700928 0.008291125297546387 -1.7920109033584595
-9.075689315795898 -3.244384765625 1.4144747257232666
-10.004586219787598 -0.39063358306884766 2.7285165786743164
-19.105384826660156 -4.10874605178833 12.724336624145508
-11.851808547973633 -1.9019582271575928 2.9945740699768066
-9.241352081298828 1.980837345123291 2.9553256034851074
-11.674680709838867 -2.205320119857788 3.8480427265167236
-7.025333881378174 -2.6234500408172607 0.24746407568454742
-7.480106353759766 -4.5279717445373535 0.5063079595565796
-10.535795211791992 -0.22382104396820068 2.245532751083374
-9.745795249938965 -2.6097373962402344 1.7958836555480957
-7.077572822570801 2.4132626056671143 0.27719995379447937
-4.174048900604248 -2.2683987617492676 -1.375416874885559
-9.884925842285156 1.0932260751724243 3.321632146835327
-12.300901412963867 -2.3879342079162598 3.2501871585845947
-11.741683959960938 -1.9714157581329346 2.931894063949585
-4.488680362701416 -2.6229727268218994 -1.196335792541504
-14.758366584777832 3.136181592941284 9.802695274353027
-20.894878387451172 -8.80400276184082 8.141660690307617
-7.981773853302002 0.7488781213760376 0.7918484807014465
-6.962616920471191 3.9533870220184326 2.2079684734344482
-7.02121114730835 3.2867350578308105 0.2451203614473343
-5.970983028411865 -1.3745583295822144 -0.3526459336280823
-9.654014587402344 -2.498676061630249 1.7436447143554688
-6.954950332641602 2.7775583267211914 3.693037986755371
-10.734898567199707 0.659019410610199 3.8054137229919434
-9.810630798339844 -6.116800785064697 1.8327829837799072
-12.413006782531738 -3.7993004322052 3.313992738723755
-8.47430419921875 -3.3188257217407227 1.072181224822998
-10.835409164428711 -3.783470630645752 2.4160640239715576
-5.153986930847168 1.7017244100570679 -0.8176582455635071
-8.709976196289062 -5.033370018005371 1.206318974494934
-14.336433410644531 -5.402710437774658 4.408759117126465
-8.942505836486816 2.628700017929077 1.3386735916137695
-18.359182357788086 -10.135648727416992 6.698405742645264
-8.6764554977417 -1.2897390127182007 1.187241792678833
-11.484197616577148 -1.8154255151748657 2.785339593887329
-12.15637493133545 -6.937810897827148 3.167924404144287
-8.196765899658203 1.4236361980438232 0.9142167568206787
-5.548304557800293 -3.7364635467529297 -0.593224823474884
-7.273641586303711 3.449889898300171 0.3887978196144104
-13.018020629882812 -4.153579235076904 3.6583523750305176
-10.7069730758667 -3.919680118560791 2.342961311340332
-16.613670349121094 3.035691022872925 10.243902206420898
-7.448676109313965 -1.1063014268875122 0.4884200990200043
-7.941614627838135 -2.6650900840759277 0.7689880132675171
-10.15226936340332 0.7697675824165344 2.02724027633667
-13.479153633117676 -6.01766300201416 3.9208168983459473
-10.247118949890137 -2.3574461936950684 2.081223249435425
-10.936907768249512 0.4794282615184784 3.980206251144409
-15.494961738586426 1.242883563041687 9.81368637084961
-4.268975734710693 0.6417349576950073 -1.3213858604431152
-11.59030818939209 -2.998969316482544 2.845733880996704
-7.578604221343994 4.171025276184082 1.455062985420227
-7.0786309242248535 -4.819488048553467 0.27779772877693176
-10.178910255432129 2.053722381591797 3.4889602661132812
-16.004819869995117 -6.504090785980225 5.358362197875977
-7.079975128173828 0.09119880199432373 0.27856606245040894
-8.09354019165039 1.6419426202774048 0.8554629683494568
-11.131501197814941 -4.394020080566406 2.5845911502838135
-10.709630966186523 -4.061364650726318 2.344473123550415
-10.953516006469727 1.427862286567688 2.4832892417907715
-8.866201400756836 1.1030869483947754 2.286025285720825
-9.510714530944824 -5.971150875091553 1.662078857421875
-4.944611072540283 -3.2327046394348145 -0.9368326663970947
-8.154492378234863 0.5256127119064331 0.890155017375946
-10.865996360778809 -4.448938369750977 2.4334726333618164
-5.313571453094482 3.1569743156433105 -0.726826012134552
-9.82642650604248 -4.090747356414795 1.8417751789093018
-9.226333618164062 -2.853027820587158 1.5002191066741943
-8.710498809814453 1.312673807144165 2.47887921333313
-8.148737907409668 0.7570834159851074 0.8868795037269592
-9.064024925231934 -1.940841794013977 1.407837152481079
-10.756614685058594 1.657716155052185 2.371218681335449
-14.44088077545166 -5.018393039703369 4.468208312988281
-9.272698402404785 2.958759307861328 2.973167896270752
-14.091838836669922 -5.3639678955078125 4.2695417404174805
-6.41911506652832 -0.10420166701078415 1.1161916255950928
-9.63694953918457 2.0570120811462402 3.1804897785186768
-4.819992542266846 -2.6289279460906982 -1.0077611207962036
-19.008424758911133 -10.983368873596191 7.06793737411499
-12.230454444885254 -4.2153425216674805 3.210088014602661
-10.974381446838379 -2.329073667526245 2.495163917541504
-11.920527458190918 -5.006277561187744 3.0336861610412598
-7.0114240646362305 3.0795505046844482 3.305786609649658
-21.4926700592041 -7.387937068939209 8.48190975189209
-12.553086280822754 -7.282332897186279 3.393721103668213
-16.50006675720215 -1.858070969581604 11.095516204833984
-7.297379016876221 3.243662118911743 0.4023079574108124
-8.441385269165039 0.5785837173461914 1.0534470081329346
-10.104998588562012 -1.4737998247146606 3.505082130432129
-6.394458293914795 -0.027231764048337936 0.9902665615081787
-12.361961364746094 -7.100121021270752 3.284938097000122
-17.393497467041016 5.149216651916504 6.148768901824951
-7.736920356750488 0.8627761602401733 0.6524836421012878
-8.623010635375977 2.00457501411438 2.1353766918182373
-15.869437217712402 2.7967820167541504 5.695190906524658
-21.928966522216797 -7.273971080780029 8.73023796081543
-7.186633586883545 2.9706313610076904 3.1048271656036377
-10.043856620788574 0.7113193869590759 3.4120912551879883
-10.081101417541504 -1.2656745910644531 1.986731767654419
-15.588611602783203 -8.475555419921875 5.121465682983398
-17.007598876953125 5.1125569343566895 5.929125785827637
-10.006363868713379 -0.7539631128311157 1.9441934823989868
-7.125024795532227 3.8037710189819336 0.3042083978652954
-7.52404260635376 3.798853635787964 0.5313196778297424
-8.888264656066895 -5.293213367462158 1.3077962398529053
-6.366788864135742 -0.01022326946258545 -0.12736254930496216
-13.596041679382324 -6.150847911834717 3.9873459339141846
-8.542510032653809 1.9224748611450195 2.3832647800445557
-9.845231056213379 1.4331045150756836 3.3785834312438965
-6.537935256958008 0.3912874460220337 -0.02994990162551403
-7.923662185668945 2.688795566558838 1.8490409851074219
-8.197351455688477 -1.098565936088562 0.9145472645759583
-4.320649147033691 -0.6951497793197632 -1.291974663734436
-9.421218872070312 2.2083396911621094 3.057701587677002
-14.117362022399902 -6.757546424865723 4.2840681076049805
-18.30683135986328 -5.364739894866943 11.57830810546875
-6.374455451965332 1.6781355142593384 -0.12299802154302597
-6.75293493270874 -0.11905276775360107 0.09242214262485504
-13.885598182678223 -6.486176013946533 4.152154445648193
-11.400887489318848 -1.920128583908081 5.407663345336914
-7.502245903015137 -3.4763803482055664 0.51891028881073
-3.5638620853424072 -1.573114037513733 -1.7227197885513306
-9.90329647064209 1.9916396141052246 1.8855311870574951
-10.855010032653809 -2.030479669570923 3.862973928451538
-8.965230941772461 2.99955153465271 2.7981648445129395
-11.606098175048828 -6.140444278717041 2.854719638824463
-6.906113624572754 -4.308716773986816 0.1796054244041443
-13.944581985473633 -6.554393768310547 4.185726642608643
-14.566255569458008 -8.841110229492188 4.539566516876221
-11.369758605957031 -0.10993915796279907 5.329621315002441
-5.649416923522949 2.523557662963867 -0.5356716513633728
-15.804680824279785 2.3157949447631836 5.684115886688232
-7.876705169677734 -4.833851337432861 0.732042133808136
-6.163666248321533 2.6092143058776855 -0.2429724484682083
-12.067910194396973 -5.625820159912109 3.1175708770751953
-18.772220611572266 -6.901627540588379 11.14369010925293
-10.789344787597656 -6.9415364265441895 2.389843463897705
-4.950524806976318 2.2589023113250732 -0.9334638118743896
-8.066790580749512 -4.042893409729004 0.8402338027954102
-9.372085571289062 -0.9714869260787964 1.5831772089004517
-13.422605514526367 -7.9128313064575195 3.8886289596557617
-11.660301208496094 -2.8071415424346924 2.8855714797973633
-4.8506693840026855 2.2629354000091553 -0.9902980327606201
-8.246258735656738 0.3402864933013916 0.9423852562904358
-8.65603256225586 1.6305683851242065 1.9656542539596558
-5.273007869720459 -2.34295392036438 -0.7499167323112488
-8.07416820526123 2.879210948944092 0.844437301158905
-10.401653289794922 -0.6157867312431335 3.6157381534576416
-5.363712310791016 -3.3769242763519287 -0.6982906460762024
-12.585599899291992 -0.7900546193122864 5.091080188751221
-18.528648376464844 -6.106245517730713 6.794863700866699
-7.729018688201904 2.7216663360595703 2.1944079399108887
-10.066849708557129 -5.971080780029297 1.978617787361145
-9.168636322021484 3.132155656814575 1.4673808813095093
-3.490304708480835 -0.6940113306045532 -1.764586091041565
-7.708605766296387 -2.809969663619995 0.6363662481307983
-7.285282135009766 3.6733601093292236 1.7077672481536865
-12.206741333007812 -3.822787284851074 3.196591377258301
-7.64291524887085 -2.601562976837158 0.5989755392074585
-17.33710289001465 -7.23769474029541 6.116663932800293
-4.973706245422363 1.2962950468063354 -0.9202695488929749
-6.676681995391846 3.6983563899993896 0.04902223125100136
-4.639481544494629 0.007449746131896973 -1.1105026006698608
-5.0068535804748535 -2.6201906204223633 -0.901404619216919
-4.8251543045043945 1.108298897743225 -1.0048216581344604
-17.1341495513916 -8.876946449279785 6.001148223876953
-12.239580154418945 -0.9755281805992126 4.745471954345703
-13.464336395263672 -2.0819830894470215 3.912384271621704
-7.908428192138672 4.952296257019043 0.7501035332679749
-7.245875358581543 3.6506354808807373 2.0700809955596924
-8.234122276306152 3.626016616821289 0.935479998588562
-10.286993980407715 -0.5767527222633362 3.550477981567383
-7.461176872253418 -0.5074743032455444 0.49553540349006653
-7.988399028778076 2.5500388145446777 0.795619547367096
-11.173579216003418 -3.1251864433288574 2.608541965484619
-10.971467971801758 -5.001373767852783 2.4935052394866943
-4.9907755851745605 1.4869619607925415 -0.9105541706085205
-16.808719635009766 2.6144464015960693 8.772047996520996
-7.177099227905273 5.054262161254883 0.3338489532470703
-15.00596809387207 0.8376504182815552 9.760904312133789
-8.192228317260742 -1.2821372747421265 0.9116320013999939
-4.4554829597473145 2.8946406841278076 -1.2152297496795654
-6.940617084503174 3.6773502826690674 2.617605447769165
-8.604629516601562 -0.9637950658798218 1.1463603973388672
-12.312895774841309 -2.5758867263793945 3.2570130825042725
-11.00239086151123 -2.699596643447876 2.5111067295074463
-4.262444972991943 -0.25667011737823486 -1.325103521347046
-10.5874605178833 -3.4803662300109863 2.2749388217926025
-7.7371931076049805 3.6633033752441406 1.1648943424224854
-9.661505699157715 0.09780622273683548 3.1944661140441895
-11.938480377197266 -3.5971648693084717 3.0439043045043945
-7.643433094024658 3.5272305011749268 1.3144681453704834
-7.720145225524902 2.754183530807495 0.6429362893104553
-10.488119125366211 -6.559049606323242 2.2183926105499268
-20.99709701538086 -0.4658609628677368 8.199846267700195
-9.731986999511719 6.247344493865967 1.7880282402038574
-13.127317428588867 -7.8217267990112305 3.7205584049224854
-11.141251564025879 -5.343255519866943 2.5901403427124023
-4.489842891693115 2.6268067359924316 -1.1956732273101807
-6.784493923187256 -1.9461911916732788 0.1103840321302414
-14.289976119995117 -6.962278366088867 4.382315635681152
-5.721981525421143 -2.578165054321289 -0.49437129497528076
-6.9083027839660645 3.8113858699798584 2.497838020324707
-18.095251083374023 -9.350456237792969 6.548182964324951
-9.781811714172363 -3.1960556507110596 1.8163819313049316
-11.172362327575684 -1.8105292320251465 5.810482025146484
-8.739706039428711 -5.943066596984863 1.2232396602630615
-17.094358444213867 -7.0412492752075195 5.9785003662109375
-9.699259757995605 -0.2345048487186432 2.617825984954834
-12.04418659210205 -2.211824893951416 3.1040706634521484
-8.052486419677734 2.8691041469573975 2.0153868198394775
-14.572240829467773 -7.3026442527771 4.542974472045898
-10.145743370056152 -6.686074733734131 2.023521900177002
-9.757664680480957 1.0636404752731323 3.2491979598999023
-8.266261100769043 1.6534117460250854 0.95377117395401
-4.609443187713623 -2.943328857421875 -1.1276025772094727
-15.397272109985352 -7.79965877532959 5.0125603675842285
-18.752552032470703 5.181161880493164 6.922308921813965
-6.561459541320801 -3.9401848316192627 -0.016562145203351974
-5.473912239074707 -3.8071606159210205 -0.6355675458908081
-7.055935859680176 -2.9062304496765137 0.26488110423088074
-16.662635803222656 2.2587997913360596 8.318540573120117
-8.84935474395752 1.5513050556182861 2.732210636138916
-6.8709211349487305 -3.111294746398926 0.15957562625408173
-7.920682430267334 -0.14129912853240967 0.7570748329162598
-7.02977180480957 0.18137967586517334 0.24999158084392548
-9.716760635375977 -1.9979230165481567 1.779358148574829
-11.302417755126953 7.513287544250488 2.6818792819976807
-15.487123489379883 0.35794270038604736 9.649593353271484
-10.216850280761719 -2.184893846511841 2.0639960765838623
-5.0578932762146 2.5371129512786865 -0.8723512291908264
-16.283660888671875 2.840195894241333 6.664597034454346
-10.417352676391602 1.9010437726974487 2.178119421005249
-8.295838356018066 -2.358592987060547 0.9706041216850281
-15.612013816833496 -8.171480178833008 5.134786128997803
-6.22652530670166 -0.44741523265838623 -0.20719611644744873
-5.840420722961426 0.13488304615020752 -0.4269575774669647
-7.6081109046936035 2.5462281703948975 0.5791686773300171
-6.676544666290283 -0.044164299964904785 0.048943210393190384
-10.616121292114258 2.1242010593414307 3.8396291732788086
-11.16536808013916 -1.238783597946167 4.0504255294799805
-6.503802299499512 1.1788924932479858 -0.04937729611992836
-16.41392707824707 -9.990028381347656 5.591214656829834
-7.041110515594482 3.795210361480713 2.2649409770965576
-15.338045120239258 3.197580099105835 9.637015342712402
-12.190505981445312 -2.4381155967712402 3.187352180480957
-6.383232593536377 0.08177840709686279 -0.11800258606672287
-9.191068649291992 -1.952784538269043 1.4801477193832397
-16.737634658813477 -5.245578765869141 5.775462627410889
-9.47562313079834 3.159102439880371 3.088667631149292
-7.296611309051514 -4.414113521575928 0.40186694264411926
-12.368511199951172 -7.992059230804443 3.2886645793914795
-6.099146366119385 -1.1403216123580933 -0.279697448015213
-5.338736057281494 2.8572096824645996 -0.7125032544136047
-7.19171142578125 0.1897038221359253 0.3421630859375
-7.797948360443115 3.4347548484802246 0.6872191429138184
-8.927897453308105 0.8357604146003723 1.3303579092025757
-12.387825965881348 -3.595245361328125 3.299661159515381
-9.268787384033203 -0.8735474348068237 1.524383306503296
-5.127711296081543 2.2573158740997314 -0.8326141238212585
-3.990588903427124 0.8201667070388794 -1.4798352718353271
-8.601120948791504 2.3919312953948975 2.34092378616333
-10.030336380004883 -1.5017279386520386 1.9578386545181274
-7.129574298858643 3.022947311401367 3.1730337142944336
-17.767864227294922 -5.883729457855225 10.913952827453613
-6.3276896476745605 2.626838207244873 -0.14961586892604828
-5.530354022979736 1.700935959815979 -0.6034388542175293
-13.117810249328613 -5.533627510070801 3.715148687362671
-10.325521469116211 2.095684289932251 3.5724077224731445
-16.4412841796875 2.256561279296875 8.631662368774414
-12.358226776123047 -4.332148551940918 3.2828128337860107
-16.420995712280273 -6.770593166351318 5.595239639282227
-6.896572589874268 3.5364484786987305 2.905327081680298
-10.488070487976074 -3.6217782497406006 2.2183678150177
-3.4693267345428467 1.3892465829849243 -1.7765246629714966
-12.275555610656738 -3.968681812286377 3.2357594966888428
-10.306547164916992 1.3433436155319214 3.56160831451416
-9.855788230895996 1.0414495468139648 1.8584911823272705
-4.715510845184326 -2.8770041465759277 -1.0672307014465332
-4.327639579772949 0.8043464422225952 -1.2879958152770996
-18.989870071411133 -6.500946521759033 7.057379245758057
-9.121295928955078 0.23884952068328857 1.4404349327087402
-10.64721965789795 -2.1716198921203613 4.018747806549072
-4.358160972595215 1.1252301931381226 -1.270623803138733
-10.239237785339355 -0.7765416502952576 2.6000823974609375
-9.993739128112793 -2.0192670822143555 1.9370064735412598
-8.423524856567383 0.7738655805587769 1.0432811975479126
-6.808335304260254 -2.14117431640625 0.12395409494638443
-13.254298210144043 -7.938504695892334 3.7928338050842285
-21.48917007446289 2.3280181884765625 8.479924201965332
-12.427603721618652 -0.8746896982192993 4.995092868804932
-6.909449577331543 3.402269124984741 3.0684523582458496
-15.68466854095459 -8.72567081451416 5.176138401031494
-7.774273872375488 0.4166848659515381 0.6737433075904846
-10.846354484558105 -4.169608116149902 2.4222941398620605
-18.650108337402344 -5.66918420791626 9.939757347106934
-7.464277744293213 4.5601487159729 0.4973035454750061
-8.161527633666992 3.0904972553253174 0.8941600918769836
-4.774226665496826 -2.489224672317505 -1.0338109731674194
-4.031643390655518 -1.146009087562561 -1.4564696550369263
-7.436588287353516 2.8907370567321777 2.7546005249023438
-5.256524085998535 1.31761634349823 -0.7592965364456177
-16.62541389465332 2.5933632850646973 9.13754653930664
-6.146913051605225 -0.015126915648579597 2.7438623905181885
-8.918601036071777 -4.778505325317383 1.325063705444336
-19.978105545043945 -5.163340091705322 7.6198577880859375
-10.268258094787598 -2.490983724594116 3.4903066158294678
-8.726531982421875 -2.016603946685791 1.2157443761825562
-6.65751314163208 -1.3960422277450562 0.03811046481132507
-10.039107322692871 0.02225157991051674 3.4093875885009766
-7.593635082244873 0.8835829496383667 0.5709285140037537
-4.229703426361084 2.092745780944824 -1.3437376022338867
-8.109004974365234 2.7285094261169434 1.6175506114959717
-10.841402053833008 1.0005743503570557 2.419476270675659
-19.362812042236328 5.96195650100708 7.269654750823975
-17.080631256103516 -9.324267387390137 5.970685958862305
-3.495591878890991 1.0938445329666138 -1.7615762948989868
-4.013685703277588 -0.2971416711807251 -1.4666904211044312
-11.164689064025879 -7.38974666595459 2.603480100631714
-2.9629602432250977 -0.28274357318878174 -2.0647380352020264
-12.399380683898926 -7.505190849304199 3.3062357902526855
-11.922301292419434 -6.675168514251709 3.034693717956543
-6.702983856201172 0.998658299446106 0.06399177759885788
-11.271417617797852 -5.463140964508057 2.6642277240753174
-10.025895118713379 6.436758518218994 1.9553128480911255
-7.225108623504639 3.483889102935791 2.3329572677612305
-8.573166847229004 1.7935270071029663 1.8981928825378418
-17.397035598754883 6.1312432289123535 6.150783061981201
-3.9625229835510254 0.0011757612228393555 -1.4958107471466064
-12.60605525970459 -4.328065872192383 3.4238719940185547
-14.85667610168457 -8.246039390563965 4.704866886138916
-10.027267456054688 0.9037308692932129 1.9560922384262085
-7.937303066253662 -3.6346521377563477 0.7665343880653381
-4.3106369972229 -2.4095277786254883 -1.2976738214492798
-7.794032573699951 2.5875937938690186 0.6849910616874695
-9.06813907623291 -5.54869270324707 1.4101759195327759
-9.039456367492676 0.7806757092475891 2.403146266937256
-10.45654296875 1.0577120780944824 3.646982192993164
-8.940427780151367 1.6865639686584473 1.3374907970428467
-9.06281566619873 -1.8117512464523315 1.4071476459503174
-6.101611614227295 1.167145848274231 -0.2782934308052063
-12.946039199829102 -5.186173915863037 3.6173808574676514
-3.6235623359680176 1.0408881902694702 -1.6887375116348267
-11.876526832580566 -1.0864918231964111 4.455200672149658
-9.663599014282227 -0.07674356549978256 3.1956570148468018
-7.1326904296875 3.736173391342163 2.169874668121338
-14.000020027160645 -4.423594951629639 4.217280387878418
-7.82546329498291 3.1085941791534424 1.882157325744629
-7.67775297164917 0.7179208993911743 0.6188063621520996
-9.46316909790039 -1.424581527709961 4.569889545440674
-7.828553199768066 3.40720272064209 1.392164945602417
-7.606466293334961 4.090182781219482 1.5118032693862915
-9.678821563720703 -0.43088069558143616 3.2043209075927734
-5.884217739105225 3.5462265014648438 -0.40202826261520386
-5.118709564208984 0.14637625217437744 -0.8377377986907959
-7.093075752258301 0.6999824047088623 0.286021888256073
-8.890560150146484 2.254115581512451 1.3091068267822266
-6.970747947692871 1.1097959280014038 0.21639730036258698
-7.8797607421875 3.0737738609313965 2.9941577911376953
-15.321684837341309 1.6671720743179321 9.622335433959961
-5.596034526824951 2.6929478645324707 -0.5660551190376282
-7.9963555335998535 -0.8002558946609497 0.8001468181610107
-10.39586067199707 -5.330137729644775 2.1658828258514404
-8.689077377319336 -1.61371910572052 1.194425106048584
-9.407289505004883 -1.2642247676849365 1.6032145023345947
-9.37826156616211 0.5345064401626587 2.188006639480591
-11.029894828796387 7.311606407165527 2.526766300201416
-20.6593074798584 6.646105766296387 8.007587432861328
-5.107841968536377 -2.0798964500427246 -0.843924343585968
-15.903335571289062 2.505755662918091 5.983201026916504
-14.683402061462402 -7.438363552093506 4.6062445640563965
-11.807114601135254 -3.4877917766571045 2.96913480758667
-19.7203426361084 -7.29868745803833 7.473146438598633
-8.86246109008789 -2.186180353164673 1.2931114435195923
-7.071859359741211 2.5817766189575195 0.2739480435848236
-10.894218444824219 1.5291435718536377 3.8960957527160645
-12.739532470703125 -0.5907536745071411 5.078219413757324
-6.981015682220459 3.0276124477386475 3.469992160797119
-6.850956916809082 0.5754114389419556 0.14821423590183258
-18.65074920654297 -6.928371906280518 6.864360332489014
-8.78052043914795 5.8434858322143555 1.2464770078659058
-8.984575271606445 0.9097676873207092 2.8547637462615967
-6.407299041748047 0.12436877191066742 1.1709802150726318
-9.518319129943848 -5.125300884246826 1.6664085388183594
-9.099430084228516 0.4211597442626953 2.794344902038574
-6.815066337585449 4.8048272132873535 0.1277884989976883
-7.931362628936768 -1.6090420484542847 0.7631533741950989
-18.55809783935547 -5.295870304107666 11.140000343322754
-14.425029754638672 -4.165753364562988 4.459186553955078
-15.019949913024902 -7.010943412780762 4.7977986335754395
-6.878958702087402 3.672095775604248 0.16415438055992126
-7.705114364624023 2.878678321838379 2.6911447048187256
-9.469345092773438 0.8036519289016724 2.516937732696533
-10.048246383666992 0.5135939717292786 3.414588689804077
-12.604897499084473 -5.168359279632568 3.4232118129730225
-13.016876220703125 -5.497206211090088 3.6577000617980957
-13.317166328430176 -7.996385097503662 3.8286168575286865
-14.450873374938965 -6.820408344268799 4.4738945960998535
-8.57162857055664 1.5217475891113281 1.1275779008865356
-20.581579208374023 -10.55117130279541 7.963336944580078
-6.952040672302246 2.70378041267395 0.20575107634067535
-11.840712547302246 -7.802471160888672 2.9882559776306152
-8.909150123596191 0.9393762946128845 1.3196879625320435
-7.130843639373779 2.711317777633667 3.2588815689086914
-8.50428295135498 4.003988265991211 1.089248538017273
-7.913572311401367 -2.965062141418457 0.7530272603034973
-7.808753490447998 2.133302927017212 3.0651116371154785
-6.869511127471924 1.2694685459136963 0.15877525508403778
-16.733020782470703 2.621217966079712 8.942381858825684
-10.81579303741455 -0.6190897226333618 2.404900550842285
-9.693105697631836 -2.285815954208374 1.7658934593200684
-7.377566814422607 -3.6142332553863525 0.44794607162475586
-6.683755397796631 0.37566959857940674 0.05304670333862305
-10.571810722351074 -3.8154683113098145 2.2660295963287354
-1.9988387823104858 -0.13837012648582458 -0.23969721794128418
-5.477099418640137 3.2361793518066406 -0.6337495446205139
-8.311888694763184 2.2682628631591797 2.176300287246704
-8.149431228637695 3.869810104370117 0.8872761130332947
-15.60692310333252 0.35035619139671326 9.775217056274414
-7.712876319885254 2.9468045234680176 2.890465259552002
-10.817028045654297 -5.373856544494629 2.4056012630462646
-19.315839767456055 -10.678313255310059 7.2429094314575195
-11.779170989990234 -0.14001058042049408 4.461165428161621
-7.775816917419434 2.9156148433685303 1.931135892868042
-5.790360450744629 2.458697557449341 -0.4554494619369507
-7.393639087677002 2.097346782684326 3.6820425987243652
-9.845163345336914 -0.29254257678985596 2.643038272857666
-6.906355381011963 -0.6641548871994019 0.17974527180194855
-16.03499984741211 -4.971942901611328 5.3755412101745605
-9.392465591430664 -2.286510467529297 1.594777226448059
-12.744051933288574 -3.7297616004943848 3.5024161338806152
-6.9930524826049805 0.3554772138595581 1.1723759174346924
-11.427934646606445 -1.7901794910430908 3.73881196975708
-6.532660484313965 -1.0995227098464966 -0.03295246511697769
-6.800023078918457 3.966451644897461 2.504503011703491
-11.776097297668457 -4.571433067321777 2.951479911804199
-17.086711883544922 2.2595200538635254 7.852109432220459
-4.782679080963135 -1.6142908334732056 -1.0289984941482544
-6.0323357582092285 -3.9503073692321777 -0.31772658228874207
-17.81121253967285 -6.117249965667725 10.621485710144043
-5.4794020652771 2.8190524578094482 -0.6324394941329956
-7.402378082275391 -0.42474329471588135 0.46206825971603394
-6.935461044311523 4.413612365722656 1.692561388015747
-6.571259498596191 -0.12984688580036163 4.4640092849731445
-3.199281930923462 0.9857555627822876 -1.9302281141281128
-10.331657409667969 -0.843063473701477 2.1293416023254395
-8.202348709106445 2.81292986869812 1.2963947057724
-11.292952537536621 -5.838464736938477 2.676485538482666
-3.7922475337982178 0.01701033115386963 -1.5927276611328125
-8.600443840026855 -1.7632274627685547 1.1439778804779053
-12.615724563598633 -0.6688915491104126 5.051485061645508
-4.85320520401001 -0.10343968868255615 -0.9888560771942139
-18.112564086914062 -5.788469314575195 10.401793479919434
-8.331233978271484 -3.300586700439453 0.9907495975494385
-17.80381965637207 -10.269098281860352 6.38230562210083
-7.4350266456604 -0.6915591955184937 0.4806517958641052
-9.950172424316406 1.6331477165222168 3.3587687015533447
-14.147204399108887 -7.859686374664307 4.301053524017334
-9.043927192687988 -4.395590782165527 1.3963958024978638
-8.233322143554688 -2.9256017208099365 0.9350208044052124
-12.021383285522461 -1.7683029174804688 3.0910913944244385
-6.898415565490723 0.1831720918416977 0.8269091248512268
-7.467837333679199 3.9135565757751465 1.3258635997772217
-7.011427402496338 3.489201784133911 0.23955148458480835
-10.763884544372559 1.8014496564865112 2.375356912612915
-12.583571434020996 -4.809979438781738 3.411073923110962
-8.802851676940918 1.2105367183685303 2.256845712661743
-8.389349937438965 -4.550306797027588 1.0238264799118042
-18.368364334106445 -9.76087760925293 6.703632354736328
-8.203248977661133 2.3784520626068115 0.9179059267044067
-3.50930118560791 -0.3612886667251587 -1.7537730932235718
-12.196810722351074 -3.6258304119110107 3.19093918800354
-9.432611465454102 -3.43169903755188 1.6176261901855469
-9.157018661499023 6.104202747344971 1.4607712030410767
-17.91274642944336 -5.43752908706665 6.44430685043335
-10.249268531799316 -6.645022869110107 2.0824460983276367
-9.606678009033203 -0.8512897491455078 1.7167012691497803
-10.694952011108398 -5.587622165679932 2.33611798286438
-7.444742679595947 3.007418394088745 3.5510313510894775
-6.30629301071167 -1.4963237047195435 -0.1617957055568695
-21.608789443969727 5.932985305786133 8.548009872436523
-4.074567794799805 1.6330112218856812 -1.4320369958877563
-7.723908424377441 3.3701584339141846 4.194457530975342
-9.345077514648438 3.0079333782196045 3.014364719390869
-3.751216173171997 1.1523054838180542 -1.6160808801651
-10.875057220458984 -1.5144569873809814 2.438631534576416
-6.231830596923828 2.5279505252838135 -0.2041761726140976
-6.984443664550781 -1.9470690488815308 0.2241901159286499
-7.101955890655518 4.696404933929443 0.29107949137687683
-7.919990062713623 0.323360800743103 0.7566817402839661
-4.0678815841674805 2.341214656829834 -1.4358428716659546
-9.863812446594238 -0.21608991920948029 2.8097083568573
-7.475409984588623 3.0773260593414307 3.7156779766082764
-7.476729869842529 3.769399642944336 1.2289773225784302
-7.120790481567383 2.9437062740325928 0.30179816484451294
-17.881223678588867 -6.184591770172119 10.623369216918945
-5.844951629638672 -3.0228796005249023 -0.4243803918361664
-7.481545448303223 -0.15279614925384521 0.5071295499801636
-5.471342086791992 -1.2989171743392944 -0.6370289325714111
-3.913116216659546 -1.1975547075271606 -1.5239317417144775
-3.1044721603393555 -0.15954744815826416 -1.984193205833435
-6.647059917449951 -2.2145330905914307 0.03216031566262245
-9.560367584228516 -2.2777767181396484 1.6903420686721802
-7.222659587860107 4.343245983123779 1.2500954866409302
-12.934454917907715 -2.5125620365142822 3.6107892990112305
-9.801482200622559 -0.08382495492696762 3.274137258529663
-8.396745681762695 2.1865625381469727 1.0280399322509766
-11.11340618133545 -1.7321659326553345 4.190761566162109
-6.0124030113220215 2.144705295562744 -0.3290681838989258
-12.063433647155762 -6.5766520500183105 3.1150240898132324
-7.024454593658447 2.8279435634613037 0.24696624279022217
-3.469208002090454 -1.6829105615615845 -1.7765933275222778
-9.178421974182129 -0.7149444818496704 1.4729491472244263
-5.300146102905273 1.1273545026779175 -0.7344686388969421
-5.999263286590576 -0.20299971103668213 -0.33654889464378357
-6.26198673248291 2.345496892929077 -0.1870122104883194
-7.375936508178711 4.4797043800354 0.9330676794052124
-8.263814926147461 2.352295398712158 2.1489369869232178
-9.6126070022583 0.8218943476676941 1.720077633857727
-6.388160705566406 4.139649868011475 -0.11519623547792435
-6.51714563369751 4.189236164093018 -0.04178118705749512
-8.141365051269531 5.3509297370910645 0.8826857805252075
-6.986701965332031 -2.738621473312378 0.2254757136106491
-15.730246543884277 -2.7835776805877686 10.687626838684082
-11.403228759765625 -0.41295570135116577 2.7392544746398926
-7.560592174530029 4.278796672821045 1.3458093404769897
-4.972859859466553 2.498913288116455 -0.9207506775856018
-10.50247859954834 2.0201773643493652 3.7526724338531494
-9.148041725158691 -2.782527446746826 1.4556562900543213
-13.055622100830078 -8.289825439453125 3.679750919342041
-9.405389785766602 0.08388595283031464 2.717323064804077
-9.831381797790527 -0.49992936849594116 2.956552028656006
-15.118467330932617 -9.488210678100586 4.853870391845703
-6.048803329467773 -0.734878659248352 -0.30835258960723877
-12.23265266418457 -7.102434158325195 3.2113394737243652
-7.109000205993652 -1.8672665357589722 0.29508498311042786
-7.5260748863220215 -0.3339911699295044 0.5324744582176208
-11.046719551086426 -6.664859771728516 2.536334753036499
-22.501352310180664 -0.0742255449295044 9.0560302734375
-17.347970962524414 3.7571041584014893 6.228890895843506
-8.135305404663086 -2.35952091217041 0.8792319297790527
-9.156291961669922 -1.2953088283538818 1.460352897644043
-11.103292465209961 -2.0494565963745117 2.5685369968414307
-10.504661560058594 -1.5062602758407593 2.227811336517334
-5.677603244781494 -3.0575857162475586 -0.5196316242218018
-6.55674409866333 4.564358711242676 -0.019242212176322937
-6.564672470092773 -2.6878182888031006 -0.014733330346643925
-6.907382011413574 -1.990709662437439 0.1803283542394638
-7.535426616668701 4.014927864074707 1.5646040439605713
-9.086209297180176 2.0238492488861084 1.4204658269882202
-7.16124153137207 -4.690113544464111 0.32481849193573
-4.995048522949219 0.9782699346542358 -0.9081227779388428
-10.260157585144043 1.130738615989685 2.0886471271514893
-17.214826583862305 -7.139064788818359 6.047067642211914
-9.256125450134277 5.864603519439697 1.5171797275543213
-9.045918464660645 2.6272265911102295 1.3975334167480469
-8.07207202911377 3.0051846504211426 2.4418745040893555
-6.446625232696533 -0.6829138994216919 -0.08192159980535507
-10.15966796875 -1.4282101392745972 2.0314486026763916
-18.168201446533203 -5.5452165603637695 6.5897064208984375
-10.569665908813477 -2.2966392040252686 3.637146472930908
-6.97361421585083 1.6618633270263672 0.21802879869937897
-18.7336483001709 -5.515389919281006 9.907033920288086
-9.877193450927734 -1.4451515674591064 1.8706717491149902
-17.996444702148438 -8.698659896850586 6.491944313049316
-6.7879815101623535 -4.303463935852051 0.11236784607172012
-6.178520679473877 -0.6173518896102905 -0.23451997339725494
-7.602818012237549 -3.1271369457244873 0.5761535167694092
-4.981576442718506 -3.049365997314453 -0.9157922863960266
-9.286633491516113 3.1666746139526367 1.5345425605773926
-9.078020095825195 0.8531705141067505 2.240612506866455
-8.503787994384766 -2.527495861053467 1.088963270187378
-7.375795841217041 2.9244544506073 3.412827491760254
-12.9506196975708 -7.222439289093018 3.6199874877929688
-10.098272323608398 -1.557700276374817 6.735030174255371
-11.9417085647583 -2.853288412094116 3.0457417964935303
-11.357364654541016 -2.8443443775177 2.713149309158325
-8.416753768920898 5.845003128051758 1.0394302606582642
-12.264028549194336 -1.6989388465881348 3.2291996479034424
-14.179844856262207 -7.3548455238342285 4.319631576538086
-18.624425888061523 3.506667137145996 12.480198860168457
-3.6115710735321045 1.5958296060562134 -1.695563554763794
-11.792935371398926 -6.707489967346191 2.9610626697540283
-14.009845733642578 -8.426287651062012 4.222871780395508
-9.3544340133667 0.42151105403900146 2.3654377460479736
-7.483885288238525 3.2092981338500977 1.944139003753662
-8.11556625366211 2.550577163696289 0.8680005669593811
-9.352617263793945 0.7796083092689514 2.646859884262085
-8.822545051574707 1.263961672782898 2.152402639389038
-4.479966640472412 1.7906795740127563 -1.201293706893921
-8.783656120300293 2.1167151927948 1.2482595443725586
-5.80002498626709 1.9109903573989868 -0.4499489367008209
-11.063352584838867 -1.8932793140411377 5.935375213623047
-7.572869300842285 2.894977331161499 2.500500202178955
-3.235710859298706 -1.134968876838684 -1.9094935655593872
-6.953336715698242 3.2697675228118896 3.1742401123046875
-11.013238906860352 -0.4157721996307373 2.517282247543335
-6.47005033493042 0.2266169786453247 -0.06858839839696884
-16.02914047241211 -9.310840606689453 5.372203350067139
-11.471668243408203 -1.7976455688476562 5.209475994110107
-10.106195449829102 1.7516388893127441 3.527118444442749
-9.664618492126465 -3.5581846237182617 1.7496790885925293
-11.474004745483398 -6.70110559463501 2.7795345783233643
-3.3159983158111572 0.12959039211273193 -1.863796353340149
-11.034845352172852 -5.438910961151123 2.5295777320861816
-9.080516815185547 1.1262099742889404 2.8637819290161133
-9.525373458862305 3.055328845977783 3.1965298652648926
-3.2459592819213867 -0.9798265695571899 -1.9036612510681152
-7.514986515045166 4.233785152435303 0.8743247389793396
-5.589320659637451 -3.2810709476470947 -0.5698798894882202
-6.124216079711914 -1.8388670682907104 -0.2654295861721039
-9.565962791442871 -2.0642154216766357 1.6935266256332397
-10.887211799621582 -7.277351379394531 2.4455463886260986
-10.237602233886719 -2.7232494354248047 2.8919222354888916
-13.49349594116211 -7.032952785491943 3.9289796352386475
-3.6257870197296143 1.8791073560714722 -1.6874711513519287
-9.96242904663086 1.5465385913848877 1.9191869497299194
-5.920679569244385 -1.6611064672470093 -0.38127779960632324
-9.728753089904785 -0.9535695314407349 1.7861838340759277
