-10.67653751373291 1.0507951974868774 3.0754289627075195
-10.39187240600586 2.038803815841675 1.9931501150131226
-4.636280059814453 -0.34225642681121826 -1.2827894687652588
-13.582422256469727 7.3626861572265625 3.99554705619812
-13.496636390686035 -0.39679861068725586 3.760303497314453
-6.385909080505371 -1.1518820524215698 -0.2869451940059662
-8.435065269470215 -2.9611921310424805 0.8793832659721375
-10.124770164489746 0.15958333015441895 1.8411216735839844
-6.687129497528076 3.949718475341797 -0.11549584567546844
-5.826663494110107 1.4933239221572876 -0.6052525639533997
-5.71584415435791 -2.9950332641601562 -0.6683312654495239
-11.074905395507812 0.9759420156478882 3.5464401245117188
-5.332164764404297 -0.4411947727203369 -0.8867099285125732
-7.49434757232666 -0.9923714399337769 0.343950092792511
-5.102501392364502 -2.1946334838867188 -1.0174293518066406
-6.699735641479492 -0.16642850637435913 -0.10832230746746063
-7.483286380767822 1.471825361251831 0.33765557408332825
-5.627540111541748 0.18294870853424072 -0.7185896039009094
-7.552430152893066 -1.3384946584701538 0.3770090341567993
-10.471626281738281 6.044821262359619 2.0385475158691406
-6.8275885581970215 3.0084786415100098 -0.03555107116699219
-8.45258903503418 2.6592540740966797 3.90855073928833
-8.7214994430542 4.736372470855713 1.0424177646636963
-13.467957496643066 0.29293107986450195 3.74398136138916
-5.239508628845215 2.968235731124878 -0.9394457340240479
-9.694497108459473 -6.096209526062012 1.596218228340149
-8.640898704528809 -5.902158737182617 0.9965358376502991
-14.85482406616211 -1.3840538263320923 5.979326248168945
-5.190342426300049 -3.006678581237793 -0.9674336314201355
-6.1077880859375 -0.5436006784439087 -0.44524461030960083
-8.415183067321777 -3.765174627304077 1.4908571243286133
-12.076781272888184 -2.4517810344696045 2.952155590057373
-10.580452919006348 0.7686251997947693 6.226112365722656
-8.59487247467041 2.215745210647583 0.9703437685966492
-10.202085494995117 6.565978527069092 1.8851312398910522
-6.27725887298584 -1.4485269784927368 -0.3487854301929474
-17.401933670043945 -4.946237087249756 5.9831013679504395
-8.457975387573242 -4.590202331542969 1.1081738471984863
-5.425703048706055 1.027452826499939 -0.8334689736366272
-8.995198249816895 0.26964300870895386 1.1981981992721558
-14.72470474243164 -1.343420386314392 5.47327184677124
-6.526048183441162 0.9081180095672607 -0.2071792185306549
-7.415707588195801 -2.6042098999023438 0.2991892099380493
-10.326189994812012 -1.3209834098815918 1.9557647705078125
-4.881892681121826 2.817539930343628 -1.1429919004440308
-14.379900932312012 -1.110764741897583 5.061232566833496
-14.418227195739746 -0.8470044732093811 4.487738609313965
-7.795838356018066 -5.242932319641113 0.51554936170578
-6.464929103851318 -2.7370104789733887 -0.241969034075737
-9.68614387512207 -6.3449554443359375 2.1816484928131104
-10.283777236938477 1.943139672279358 2.902801752090454
-5.262067794799805 1.2171666622161865 -0.9266069531440735
-8.422225952148438 2.295215129852295 0.8720769882202148
-17.953262329101562 -9.835641860961914 6.296899795532227
-7.042874336242676 0.6046538352966309 0.08698370307683945
-9.57270622253418 5.988894462585449 1.5269032716751099
-6.938926696777344 0.545862078666687 0.027818972244858742
-9.785149574279785 3.837122917175293 3.213010549545288
-7.530160427093506 0.022079646587371826 0.3643345832824707
-5.807861328125 -4.0520710945129395 -0.6159574389457703
-9.929398536682129 2.027559757232666 3.176478862762451
-10.002963066101074 -1.4970941543579102 1.771791696548462
-11.704573631286621 -0.8936306238174438 2.7403056621551514
-12.636565208435059 7.289552211761475 3.2707765102386475
-8.83322525024414 -2.037848949432373 1.1060060262680054
-8.414602279663086 -2.263031005859375 0.8677365183830261
-8.367006301879883 -3.9096016883850098 0.8406444787979126
-7.83837890625 4.186182975769043 0.5397664308547974
-9.689891815185547 0.3285587728023529 1.5936000347137451
-5.63160514831543 3.044489860534668 -0.7162747383117676
-5.04679012298584 1.4007376432418823 -1.049136996269226
-3.9284818172454834 -1.0992910861968994 -1.685651421546936
-10.785965919494629 1.1844946146011353 2.3446388244628906
-10.24366283416748 1.0260648727416992 1.9087929725646973
-6.36811637878418 -0.5774138569831848 -0.2970716655254364
-3.713343381881714 1.2984306812286377 -1.808100938796997
-13.495570182800293 8.689301490783691 3.75970196723938
-6.145254611968994 -0.1510450839996338 -0.4239201247692108
-6.9069671630859375 4.032549858093262 0.009630946442484856
-8.84122085571289 -1.6793569326400757 1.110556960105896
-11.35860538482666 6.571380138397217 2.543393135070801
-11.124183654785156 0.748813271522522 2.409964084625244
-8.44042682647705 1.525821328163147 0.8824370503425598
-5.6942973136901855 -3.8907968997955322 -0.6805948615074158
-3.829705238342285 -2.0670006275177 -1.7418731451034546
-4.114058017730713 1.3261888027191162 -1.5800251960754395
-10.670415878295898 -0.7566295862197876 2.1516897678375244
-11.226858139038086 2.5776870250701904 2.4684035778045654
-8.31213665008545 3.7695021629333496 0.8094179630279541
-6.134562015533447 -0.684198260307312 -0.43000566959381104
-12.411091804504395 8.126541137695312 3.1424434185028076
-14.13427734375 -4.677201747894287 4.12322998046875
-8.169018745422363 1.1358704566955566 0.7279562950134277
-5.455981254577637 -0.5958889722824097 -0.816236138343811
-5.645473957061768 -2.2661471366882324 -0.7083832621574402
-11.86971664428711 -0.4136704206466675 2.834301471710205
-8.4608154296875 -3.412379741668701 0.8940378427505493
-3.9753921031951904 -0.6204677820205688 -1.6589508056640625
-9.880748748779297 -0.19196230173110962 1.702230453491211
-13.685201644897461 -6.21335506439209 3.8676278591156006
-13.25954818725586 -0.4607163667678833 3.6253583431243896
-3.521240711212158 1.4883723258972168 -1.9174420833587646
-9.653451919555664 3.6033263206481934 3.2071805000305176
-10.018392562866211 4.2758941650390625 3.2640371322631836
-9.696805953979492 -6.388767242431641 2.430790424346924
-9.809096336364746 0.9975832104682922 1.66144859790802
-6.460096836090088 0.3062324523925781 -0.24471938610076904
-6.597216606140137 -2.150569200515747 -0.16667486727237701
-8.80996036529541 2.455310583114624 1.6957156658172607
-7.038552761077881 -0.041521668434143066 0.08452357351779938
-9.854904174804688 -6.276331424713135 2.5210061073303223
-10.517688751220703 4.7951836585998535 3.1594254970550537
-14.442229270935059 -0.9483670592308044 4.505724906921387
-8.660748481750488 1.314453125 2.64461350440979
-10.146541595458984 6.496473789215088 1.8535168170928955
-9.950499534606934 2.656179189682007 1.7419322729110718
-4.882626056671143 3.0286545753479004 -1.142573595046997
-10.037135124206543 3.3359923362731934 1.7912436723709106
-11.712322235107422 -5.431957244873047 2.744713544845581
-7.59119987487793 -0.7171786427497864 0.3990761339664459
-7.254586696624756 0.45718300342559814 0.20748573541641235
-8.403862953186035 3.209963798522949 0.8616257905960083
-5.474773406982422 0.19558465480804443 -0.8055398464202881
-10.550312042236328 -0.8631300926208496 2.0833301544189453
-14.607891082763672 -1.2143350839614868 5.285976409912109
-6.1285929679870605 -4.292880058288574 -0.4334059953689575
-5.126745700836182 1.192936897277832 -1.003629446029663
-9.819857597351074 1.081346035003662 1.6675726175308228
-9.971055030822754 0.9571174383163452 1.753631353378296
-8.956266403198242 -6.206238746643066 1.1760356426239014
-9.354728698730469 0.306896448135376 1.4028347730636597
-10.853266716003418 0.21805763244628906 2.2557640075683594
-8.484739303588867 -0.013476172462105751 0.9076577425003052
-8.262141227722168 1.538459300994873 0.780960202217102
-6.498444557189941 -3.4882326126098633 -0.22289371490478516
-13.6870756149292 -0.47748446464538574 3.8686976432800293
-14.71336555480957 -1.9433224201202393 4.452834606170654
-3.9623634815216064 2.0714733600616455 -1.6663658618927002
-8.970100402832031 0.930767297744751 1.1839139461517334
-12.723371505737305 -0.3140636682510376 3.320180892944336
-10.50232219696045 3.4328908920288086 2.056016206741333
-6.783473014831543 -3.657870292663574 -0.0606638602912426
-11.095813751220703 -1.1814924478530884 2.3938148021698
-4.880990028381348 0.9781535863876343 -1.1435062885284424
-7.1282572746276855 -1.7564092874526978 0.13558048009872437
-10.486149787902832 -1.5699713230133057 2.046808958053589
-11.694769859313965 0.2680467963218689 4.533299446105957
-13.468831062316895 -0.5298973917961121 4.434100151062012
-7.952926158905029 0.7269925475120544 0.6049627661705017
-12.769586563110352 -0.09628190845251083 4.7930426597595215
-10.099434852600098 4.5745062828063965 3.424625873565674
-3.939023733139038 -0.3624308109283447 -1.6796497106552124
-4.764094829559326 2.106184244155884 -1.2100399732589722
-6.087247371673584 2.526275873184204 -0.4569341242313385
-7.158802032470703 4.0728840827941895 0.15296852588653564
-8.765335083007812 3.700098752975464 1.067367672920227
-13.288017272949219 -0.5350954532623291 4.752494812011719
-11.898353576660156 0.5604872107505798 3.238752841949463
-9.848176956176758 -1.0312615633010864 1.6836918592453003
-10.721923828125 1.4370867013931274 3.627563714981079
-13.47237491607666 -0.6360487341880798 5.798262596130371
-12.48979377746582 1.7737804651260376 4.713337421417236
-7.986529350280762 -4.411529541015625 0.6240867972373962
-5.103951454162598 -2.4326012134552 -1.0166043043136597
-4.231807231903076 -1.0675106048583984 -1.513006567955017
-6.0170979499816895 -0.8244535326957703 -0.49686360359191895
-4.88803768157959 1.3428113460540771 -1.139496088027954
-8.526482582092285 1.1978636980056763 0.931416392326355
-9.598316192626953 -6.359975337982178 2.3250179290771484
-10.598189353942871 6.867300510406494 2.110583782196045
-5.642889499664307 -2.8229150772094727 -0.7098543047904968
-5.015975475311279 1.9006834030151367 -1.0666762590408325
-9.084561347961426 2.0271451473236084 1.2490613460540771
-9.918161392211914 -6.337319850921631 2.557011365890503
-13.573421478271484 -0.524522602558136 4.209232807159424
-3.3699429035186768 1.0238029956817627 -2.0035555362701416
-5.102952480316162 -1.3850064277648926 -1.0171728134155273
-10.114477157592773 1.6097584962844849 2.8072144985198975
-10.871216773986816 -2.1470372676849365 2.2659802436828613
-7.615298748016357 0.6925108432769775 0.4127930998802185
-10.048759460449219 0.8890506029129028 1.7978591918945312
-4.355681896209717 1.6956701278686523 -1.4424986839294434
-4.6571855545043945 -2.450366973876953 -1.2708916664123535
-9.083465576171875 3.095625638961792 2.0390937328338623
-8.43197250366211 2.4503533840179443 4.279457092285156
-6.1002655029296875 -3.523977279663086 -0.44952818751335144
-8.307920455932617 5.807550430297852 0.807019829750061
-6.943065643310547 -2.3365986347198486 0.030173443257808685
-6.259286403656006 -0.773755669593811 -0.3590161204338074
-3.89032244682312 -1.2862991094589233 -1.7073705196380615
-4.841812610626221 0.28112781047821045 -1.1658058166503906
-8.350929260253906 -1.8883953094482422 0.8314938545227051
-11.865077018737793 -1.054964303970337 2.831660747528076
-4.701379776000977 -0.6171956062316895 -1.2457363605499268
-9.493958473205566 5.87962532043457 1.4820823669433594
-3.9022300243377686 1.239884376525879 -1.7005927562713623
-13.427879333496094 -5.547736644744873 3.7211670875549316
-11.120133399963379 5.853311538696289 2.407660722732544
-10.761358261108398 5.4602580070495605 2.2034547328948975
-11.447019577026367 0.5500397682189941 3.777686595916748
-4.484680652618408 2.5083556175231934 -1.3690755367279053
-10.18138313293457 -5.803589820861816 2.5156092643737793
-10.08296012878418 -4.002308368682861 1.8173227310180664
-5.862285614013672 -2.4637959003448486 -0.5849801898002625
-3.955683946609497 -1.5563503503799438 -1.6701674461364746
-6.152019500732422 -2.145249366760254 -0.4200700521469116
-11.239256858825684 1.0186991691589355 2.475461006164551
-6.33007287979126 -2.651430606842041 -0.31872591376304626
-7.105177879333496 -0.48463159799575806 0.1224450096487999
-10.092694282531738 -1.9327706098556519 1.8228634595870972
-10.578086853027344 -1.72748863697052 2.099137783050537
-6.920856952667236 -4.709062099456787 0.01753225177526474
-4.885146141052246 0.30828917026519775 -1.1411418914794922
-7.726025104522705 -4.050922870635986 0.475814551115036
-7.092426300048828 0.9032770395278931 0.11518734693527222
-6.33203125 4.409896373748779 -0.31760838627815247
-10.66336441040039 -5.240554332733154 2.147674560546875
-9.025008201599121 6.251540660858154 1.2151682376861572
-9.433116912841797 2.2253756523132324 1.4474507570266724
-14.048462867736816 -1.1646220684051514 4.074389457702637
-7.175529956817627 2.2872447967529297 0.1624893844127655
-4.527320861816406 2.8756752014160156 -1.344805359840393
-12.181683540344238 3.0467209815979004 3.011867046356201
-9.883962631225586 -1.502573013305664 1.7040601968765259
-1.4097687005996704 0.004970491398125887 -0.7489291429519653
-6.438040256500244 3.289691925048828 -0.25727152824401855
-7.261892318725586 -2.9185259342193604 0.21164195239543915
-6.731711387634277 -1.8362854719161987 -0.09012314677238464
-8.840936660766602 1.988338589668274 1.1103971004486084
-7.098228931427002 -1.1984087228775024 0.1184895858168602
-11.369892120361328 -0.02698814868927002 2.549814462661743
-15.205205917358398 9.087154388427734 4.732783317565918
-10.416763305664062 -0.9632163047790527 2.0073161125183105
-6.674386978149414 -0.47221970558166504 -0.12275008112192154
-12.364823341369629 2.3347930908203125 5.592724800109863
-9.552238464355469 -6.526116371154785 1.5152475833892822
-10.833231925964355 -5.487455368041992 2.2443583011627197
-8.253705024719238 1.4275918006896973 0.7761580944061279
-5.726884365081787 2.310788869857788 -0.6620438694953918
-8.163107872009277 1.2969996929168701 0.7245923280715942
-15.923349380493164 -2.585580348968506 5.141526699066162
-6.5671868324279785 -2.8429641723632812 -0.18376685678958893
-12.22921371459961 0.42662715911865234 3.03891921043396
-5.933846950531006 1.7082297801971436 -0.544245719909668
-5.987174034118652 0.7595417499542236 -0.5138948559761047
-11.09910774230957 -0.7537425756454468 2.3956897258758545
-7.12227201461792 2.094712972640991 0.1321757584810257
-12.102434158325195 -0.28774547576904297 2.96675968170166
-3.949859619140625 1.3528783321380615 -1.6734825372695923
-11.9071044921875 5.417348861694336 2.8555850982666016
-11.91761589050293 0.39055901765823364 3.5667147636413574
-12.057696342468262 7.633166313171387 2.9412992000579834
-9.563858985900879 -0.09865343570709229 1.521864891052246
-8.583361625671387 2.3619956970214844 2.883984327316284
-9.2250394821167 1.148711919784546 1.3290183544158936
-11.249929428100586 3.2718148231506348 3.928093194961548
-11.271770477294922 -6.056285858154297 2.493962287902832
-8.87086009979248 2.067250967025757 1.1274278163909912
-10.740981101989746 -0.11979556083679199 2.191854476928711
-9.904090881347656 4.876423358917236 1.7155187129974365
-7.857241630554199 5.158102989196777 0.550504207611084
-12.021040916442871 0.04175209999084473 2.9204320907592773
-7.445995807647705 -4.499513149261475 0.3164284825325012
-7.716132164001465 -0.032186359167099 0.47018539905548096
-9.064102172851562 1.6882797479629517 1.2374167442321777
-5.617484092712402 -1.401220679283142 -0.7243145704269409
-13.505687713623047 0.13507139682769775 3.7654552459716797
-11.846338272094727 2.531850576400757 2.820995807647705
-9.337508201599121 -2.6598591804504395 1.3930302858352661
-5.06970739364624 -2.551015853881836 -1.0360947847366333
-7.606588363647461 -5.073155403137207 0.40783342719078064
-6.601034641265869 0.9496943950653076 -0.16450023651123047
-21.30642318725586 5.967705249786377 8.2054443359375
-10.732173919677734 2.329007387161255 2.186840772628784
-4.294920444488525 0.5633785724639893 -1.4770828485488892
-10.5196533203125 -0.3037623167037964 2.0658798217773438
-8.409250259399414 -3.339308261871338 0.8646893501281738
-10.275279998779297 -2.396804094314575 1.926785945892334
-5.197005748748779 2.4398770332336426 -0.9636383652687073
-6.4525885581970215 -2.6437675952911377 -0.24899344146251678
-7.415515899658203 0.5617411136627197 0.2990826666355133
-10.008417129516602 4.396512508392334 3.4039440155029297
-6.440664291381836 2.7044966220855713 -0.25577807426452637
-8.427020072937012 -3.0553641319274902 0.8748032450675964
-15.831478118896484 -5.822025775909424 5.089234352111816
-13.297259330749512 7.765310764312744 4.198432445526123
-8.709365844726562 -0.6802425384521484 1.0355087518692017
-8.4371976852417 -5.880617618560791 0.8805959820747375
-7.905385971069336 0.6732825636863708 0.5779037475585938
-14.66971206665039 -1.348731517791748 5.603652477264404
-9.538330078125 -3.030317544937134 1.5073332786560059
-4.555427074432373 2.592367172241211 -1.3288084268569946
-13.919862747192383 -0.016763731837272644 5.640390872955322
-9.568509101867676 -5.740023136138916 1.5245091915130615
-7.071090221405029 3.2652063369750977 0.10304517298936844
-17.97235679626465 8.79872989654541 6.3077778816223145
-6.505383014678955 -1.5523203611373901 -0.21894359588623047
-10.187610626220703 -1.0779527425765991 1.8768887519836426
-12.124079704284668 -1.0334317684173584 2.979078769683838
-7.485330581665039 0.4507414698600769 0.3388189971446991
-11.631646156311035 -0.2428354024887085 2.6987979412078857
-7.00452184677124 1.1412608623504639 0.0651545599102974
-10.713700294494629 2.6380813121795654 2.1763269901275635
-7.376798152923584 0.8704916834831238 0.2770451307296753
-6.250215530395508 1.0920743942260742 -0.3641780912876129
-14.192039489746094 -0.8889093399047852 4.7057976722717285
-13.713850021362305 0.0536145456135273 6.0737504959106445
-9.321672439575195 2.7815680503845215 2.4248809814453125
-5.755358695983887 1.9739795923233032 -0.6458368897438049
-4.2913336753845215 0.04336810111999512 -1.4791247844696045
-8.381072998046875 -2.8904168605804443 0.8486523628234863
-8.717979431152344 -1.4912878274917603 1.0404114723205566
-10.805222511291504 1.701521635055542 2.228419065475464
-6.965277194976807 -4.3869476318359375 0.04281528666615486
-9.10811710357666 -1.0412815809249878 1.2624672651290894
-3.4526586532592773 1.218108892440796 -1.9564779996871948
-6.015720367431641 1.311089038848877 -0.4976460933685303
-10.83334732055664 -2.6178605556488037 2.2444252967834473
-20.31226921081543 -11.30334186553955 7.63958740234375
-9.97537612915039 2.4400367736816406 2.6520419120788574
-13.134387016296387 -2.3145296573638916 3.55411958694458
-13.393996238708496 0.19380895793437958 6.777952194213867
-9.379920959472656 -6.107232093811035 1.4171700477600098
-8.720582008361816 -3.8066651821136475 1.652626872062683
-10.699136734008789 -5.325537204742432 2.1680352687835693
-8.660285949707031 2.565129518508911 3.9254307746887207
-5.97572660446167 3.8250174522399902 -0.5204084515571594
-14.641885757446289 -1.3526160717010498 5.693065166473389
-1.6832607984542847 0.3198210597038269 -0.5585613250732422
-8.334599494934082 2.1969616413116455 0.8222023248672485
-5.822473049163818 2.67569899559021 -0.6076370477676392
-14.473819732666016 -1.258150577545166 5.569948196411133
-8.324806213378906 4.24664306640625 0.8166295886039734
-5.545804500579834 1.5572890043258667 -0.7651109099388123
-8.42313289642334 0.9684820175170898 0.872592568397522
-9.200515747070312 -2.3429596424102783 1.3150572776794434
-7.110766887664795 1.7756812572479248 0.12562696635723114
-9.361533164978027 -0.44671931862831116 1.4067050218582153
-11.119552612304688 -1.57205331325531 2.407327175140381
-5.34935188293457 -0.6927653551101685 -0.8769274950027466
-9.712617874145508 1.390094518661499 1.6065354347229004
-9.147560119628906 -2.271587610244751 1.2849165201187134
-11.04503059387207 0.9373786449432373 2.935753345489502
-9.201739311218262 3.538114070892334 2.247581720352173
-4.4390549659729 1.1648130416870117 -1.3950456380844116
-9.592212677001953 -2.652224540710449 1.5380022525787354
-6.746418476104736 2.022995948791504 -0.08175081759691238
-4.915944576263428 1.8316428661346436 -1.1236090660095215
-4.264790058135986 -1.6719532012939453 -1.49423348903656
-5.163960933685303 0.11989271640777588 -0.9824473261833191
-13.32640552520752 -0.2633270025253296 3.6634132862091064
-8.854496002197266 2.30609393119812 1.1181154251098633
-6.484740734100342 2.4088196754455566 -0.2306915819644928
-5.199989318847656 1.8374308347702026 -0.9619393348693848
-8.481003761291504 2.4650838375091553 0.9055315256118774
-8.398221015930176 2.312467575073242 4.260392665863037
-3.5978286266326904 -1.7139177322387695 -1.873852014541626
-6.6371331214904785 -1.9325363636016846 -0.14395591616630554
-12.93986988067627 8.153717994689941 3.443411111831665
-9.753006935119629 3.9626662731170654 1.6295255422592163
-4.564024448394775 1.8161530494689941 -1.323914885520935
-8.944623947143555 -5.442052841186523 1.1694098711013794
-8.560088157653809 -1.7356579303741455 0.9505431056022644
-19.998863220214844 -11.909890174865723 7.461203098297119
-8.557634353637695 2.2906100749969482 4.063401222229004
-9.818987846374512 4.318208694458008 1.667080044746399
-8.38373851776123 5.570143222808838 0.8501736521720886
-3.769477128982544 1.8258910179138184 -1.7761528491973877
-8.41728687286377 -4.831557750701904 1.2584445476531982
-7.327469825744629 -1.430023193359375 0.24896785616874695
-14.786849975585938 -1.096776008605957 4.5482177734375
-6.1236419677734375 1.7984552383422852 -0.43621915578842163
-9.857223510742188 -6.129854202270508 1.688838005065918
-8.851825714111328 -1.3595800399780273 1.116593360900879
-8.34753131866455 -4.80353307723999 0.8295588493347168
-3.397378444671631 -1.0687768459320068 -1.9879419803619385
-10.248492240905762 0.9198818802833557 1.9115415811538696
-5.0211591720581055 0.44901037216186523 -1.0637258291244507
-7.6283369064331055 -0.0021300911903381348 0.420213520526886
-8.742600440979004 1.1317418813705444 2.350743532180786
-10.77920150756836 -2.0176610946655273 2.2136058807373047
-5.325925827026367 1.4848217964172363 -0.8902606964111328
-13.099498748779297 -5.885225296020508 3.5342609882354736
-8.591071128845215 -4.535881996154785 0.9934906363487244
-13.438414573669434 -0.28712621331214905 4.23499059677124
-9.557694435119629 -0.39824652671813965 1.5183556079864502
-12.134086608886719 -4.6503071784973145 2.984772205352783
-8.672069549560547 0.26056212186813354 1.0142807960510254
-10.661602020263672 -2.3544466495513916 2.146672010421753
-6.560497760772705 3.412414312362671 -0.18757301568984985
-7.662172794342041 0.5257143378257751 0.43947309255599976
-8.943379402160645 1.7735953330993652 2.6138994693756104
-5.668432712554932 2.9025564193725586 -0.6953123807907104
-19.307279586791992 9.143420219421387 7.067580699920654
-11.981720924377441 -1.4546152353286743 3.0637426376342773
-10.17306900024414 0.8952174782752991 1.8686120510101318
-13.892915725708008 8.207740783691406 3.985860586166382
-12.488914489746094 0.02484874054789543 3.9284045696258545
-7.815479278564453 0.3421884775161743 0.5267312526702881
-5.346284866333008 1.5323151350021362 -0.8786728978157043
-7.2427077293396 -3.0096588134765625 0.20072242617607117
-5.894105911254883 -2.656338930130005 -0.5668675899505615
-3.9187731742858887 0.9613831043243408 -1.6911770105361938
-1.4587355852127075 0.009267983958125114 -0.7149884700775146
-9.573967933654785 -3.1139109134674072 1.5276169776916504
-3.402094841003418 0.559126615524292 -1.9852572679519653
-13.7715482711792 0.9731454849243164 6.905337810516357
-10.404415130615234 -1.8696125745773315 2.0002870559692383
-7.43486213684082 -0.8460432887077332 0.31009265780448914
-6.423548221588135 0.011435508728027344 -0.2655215263366699
-14.339204788208008 -1.1232330799102783 5.391082763671875
-13.629487037658691 -0.5548039078712463 4.235051155090332
-5.979837894439697 1.0520391464233398 -0.5180702209472656
-5.598066329956055 -2.866400718688965 -0.7353671789169312
-3.56689190864563 -0.9316325187683105 -1.8914601802825928
-14.467119216918945 -1.5619251728057861 6.926230430603027
-3.4568052291870117 0.20071101188659668 -1.9541164636611938
-5.3313422203063965 -3.141278028488159 -0.8871785402297974
-6.032192230224609 2.359255790710449 -0.4882700443267822
-14.827959060668945 -1.3891218900680542 6.120777130126953
-5.929695129394531 0.2780815362930298 -0.5466105341911316
-6.8173909187316895 -1.5444936752319336 -0.04135734960436821
-4.109325408935547 -2.399660110473633 -1.5827211141586304
-8.325118064880371 -3.7836267948150635 1.3316057920455933
-7.027541637420654 0.5583869814872742 0.07825641334056854
-9.66215991973877 -3.4355990886688232 1.5778143405914307
-9.828048706054688 -3.7557191848754883 1.672234296798706
-18.946277618408203 8.399791717529297 6.862107753753662
-8.650227546691895 5.303359031677246 1.0018516778945923
-7.773255348205566 0.1956758201122284 0.5026977062225342
-10.946898460388184 0.4056135416030884 2.309056520462036
-14.332965850830078 -0.9999963641166687 4.899599075317383
-11.911751747131348 0.2578343152999878 2.8582265377044678
-11.448987007141113 -1.0010533332824707 2.594832420349121
-11.34912109375 -5.615248680114746 2.537989616394043
-10.59131145477295 0.39429008960723877 2.1066651344299316
-9.215225219726562 -1.182458519935608 1.3234305381774902
-8.878423690795898 1.6520910263061523 1.1317335367202759
-7.405239582061768 3.9768123626708984 0.293233722448349
-14.38510513305664 -1.1230376958847046 5.309650897979736
-8.356642723083496 -3.7852916717529297 1.255373477935791
-8.39833927154541 2.5629825592041016 0.8584817051887512
-13.641095161437988 1.0122727155685425 5.320139408111572
-9.787137985229492 -0.5435872673988342 1.6489503383636475
-5.538813591003418 3.433138608932495 -0.7690889835357666
-4.051609992980957 -1.4659419059753418 -1.615571141242981
-7.710786819458008 1.9339547157287598 0.46714311838150024
-9.592787742614746 -2.1063032150268555 1.5383292436599731
-8.50426959991455 -1.6278138160705566 0.9187730550765991
-9.009413719177246 -1.970465064048767 1.2062886953353882
-3.87381911277771 1.3245677947998047 -1.716762661933899
-4.586285591125488 -1.384856104850769 -1.3112462759017944
-6.5761613845825195 -4.040935516357422 -0.1786600649356842
-6.206028461456299 -1.4074687957763672 -0.38932886719703674
-5.179574489593506 -3.460357189178467 -0.9735617637634277
-7.150791645050049 -2.5475480556488037 0.1484053134918213
-5.930601596832275 -0.003518819808959961 -0.5460938811302185
-4.166790008544922 -1.9108734130859375 -1.5500133037567139
-5.8364763259887695 -2.8016319274902344 -0.5996692180633545
-7.19386100769043 -4.091331958770752 0.17291980981826782
-14.391098022460938 -1.1091033220291138 5.015921115875244
-7.115809440612793 -2.705030679702759 0.12849454581737518
-14.350191116333008 -1.69845712184906 6.864938259124756
-6.493861675262451 1.5275464057922363 -0.22550080716609955
-8.551786422729492 -2.0042285919189453 0.9458176493644714
-11.288771629333496 0.6791785359382629 3.5090017318725586
-10.271309852600098 -1.0563633441925049 1.9245282411575317
-7.124081611633301 2.5621583461761475 0.13320577144622803
-8.384736061096191 1.2962281703948975 0.8507386445999146
-8.45009994506836 -4.883191108703613 1.1703264713287354
-4.7632246017456055 -0.4815629720687866 -1.2105358839035034
-5.807757377624512 -0.7430633306503296 -0.6160152554512024
-6.5567121505737305 0.6653128862380981 -0.18972714245319366
-9.665262222290039 3.6813371181488037 3.2655792236328125
-9.822690963745117 -6.104100227355957 2.117116689682007
-12.243422508239746 -0.42861926555633545 3.047006130218506
-8.04025936126709 -0.647892415523529 0.6546690464019775
-8.492502212524414 4.156208038330078 0.9120772480964661
-11.194555282592773 0.8454557657241821 2.4500174522399902
-5.544792175292969 -0.7727569341659546 -0.7656873464584351
-11.680800437927246 3.0783510208129883 2.8248000144958496
-14.833883285522461 -0.8381738066673279 4.521431922912598
-14.145418167114258 -0.8887147307395935 4.786925315856934
-10.376192092895508 2.955735683441162 2.9717748165130615
-10.040658950805664 0.9829037189483643 1.7932491302490234
-7.688657283782959 4.032528877258301 0.4545494318008423
-8.64822006225586 4.621987819671631 1.0007083415985107
-8.326805114746094 1.8082302808761597 0.8177657723426819
-9.371996879577637 1.655571699142456 1.4126620292663574
-4.313302516937256 1.4568686485290527 -1.4666215181350708
-6.754091739654541 -0.24282145500183105 -0.07738373428583145
-12.778411865234375 -3.307339668273926 3.351506471633911
-9.533190727233887 5.212998867034912 1.504412293434143
-20.775941848754883 9.496180534362793 7.903508186340332
-8.754084587097168 -3.7158875465393066 1.426045298576355
-5.754439830780029 1.6765035390853882 -0.6463600993156433
-7.087482452392578 -1.5261540412902832 0.11237260699272156
-9.550582885742188 2.667109251022339 2.697463274002075
-8.204018592834473 0.8200270533561707 0.7478786706924438
-13.046024322509766 -0.34071049094200134 4.9928879737854
-6.21014928817749 2.0155231952667236 -0.3869812786579132
-5.275093078613281 1.9275918006896973 -0.9191926121711731
-2.0073132514953613 0.3758038580417633 -0.33387231826782227
-7.727766513824463 0.8618913888931274 0.4768078327178955
-4.4720377922058105 2.808786153793335 -1.3762719631195068
-7.329226970672607 4.832366943359375 0.2499714493751526
-8.600568771362305 4.546466827392578 0.9735859632492065
-5.322499752044678 -1.9666343927383423 -0.8922117352485657
-9.20785903930664 3.705644130706787 2.8875861167907715
-6.1104254722595215 1.0206713676452637 -0.4437428414821625
-5.1680121421813965 3.0180068016052246 -0.9801406264305115
-4.593242168426514 1.3133609294891357 -1.3072856664657593
-14.418427467346191 -1.6664838790893555 6.809866905212402
-6.1207780838012695 0.3998899459838867 -0.43785005807876587
-8.952935218811035 -1.9030044078826904 1.1741422414779663
-11.157051086425781 2.1820523738861084 3.890509605407715
-8.404886245727539 3.6774203777313232 0.8622077703475952
-6.056405067443848 0.42010653018951416 -0.4744895100593567
-8.409493446350098 -3.463223695755005 0.8648276925086975
-6.541431903839111 -3.6941850185394287 -0.1984272450208664
-17.500680923461914 8.702262878417969 6.199634552001953
-10.171708106994629 1.0843485593795776 1.8678393363952637
-10.900357246398926 -3.498670816421509 2.2825639247894287
-4.638421535491943 -2.79189395904541 -1.2815728187561035
-11.819985389709473 0.47659868001937866 3.503856658935547
-14.570047378540039 1.388052225112915 5.910065650939941
-6.380337715148926 -1.6463851928710938 -0.2901163101196289
-8.005191802978516 1.355414867401123 0.6347116827964783
-9.040135383605957 1.5769447088241577 1.2237757444381714
-8.327768325805664 -1.778934359550476 0.8183131217956543
-5.255386829376221 1.7538397312164307 -0.9304100275039673
-4.974155902862549 1.9810664653778076 -1.0904793739318848
-11.130290031433105 -2.3173327445983887 2.4134364128112793
-10.858363151550293 0.8824164271354675 3.270063877105713
-17.060983657836914 9.296929359436035 6.172769069671631
-9.831315994262695 1.680321455001831 3.120652198791504
-5.120460510253906 -1.5394270420074463 -1.0072073936462402
-11.584061622619629 -0.09603691101074219 2.6717147827148438
-6.073940277099609 2.0952205657958984 -0.4645083546638489
-7.831197261810303 -0.057816267013549805 0.5356766581535339
-9.384257316589355 -0.17215844988822937 1.4196406602859497
-10.061220169067383 -3.9603793621063232 1.8049488067626953
-8.437982559204102 2.314544677734375 4.182002544403076
-7.689140319824219 -3.0223233699798584 0.45482006669044495
-11.215046882629395 7.325510025024414 2.4616830348968506
-7.098860740661621 2.2321343421936035 0.11885035037994385
-8.353379249572754 -2.3997113704681396 0.8328897953033447
-9.024005889892578 2.973400592803955 2.019552707672119
-6.985600471496582 -0.11681151390075684 0.05438472330570221
-11.298397064208984 -1.3910720348358154 2.509119749069214
-3.3624329566955566 -1.1529886722564697 -2.0078325271606445
-17.383691787719727 7.029468536376953 5.972723484039307
-10.845691680908203 -1.878835678100586 2.251451253890991
-13.114322662353516 -8.30527400970459 3.542696714401245
-6.572114944458008 0.10978317260742188 -0.1809607744216919
-6.125809669494629 0.3251146078109741 -0.43498700857162476
-9.935954093933105 4.083949089050293 3.214125633239746
-9.7487154006958 -5.789283275604248 2.432342529296875
-11.522226333618164 -3.285889148712158 2.6365175247192383
-3.5758304595947266 -1.59961998462677 -1.8863707780838013
-9.774177551269531 -6.202882766723633 1.641570806503296
-11.54860782623291 -1.3922184705734253 2.6515331268310547
-7.764381408691406 1.5100865364074707 0.4976480305194855
-10.595163345336914 1.0762176513671875 3.1159982681274414
-8.475746154785156 -1.1963169574737549 0.9025375247001648
-11.106070518493652 0.8040809631347656 3.2238903045654297
-9.454337120056152 -0.7608432769775391 1.4595283269882202
-7.068016052246094 1.5923278331756592 0.10129449516534805
-13.447529792785645 -0.4804064929485321 4.249924182891846
-9.676493644714355 -0.004390895366668701 1.585973858833313
-7.391931533813477 0.059218406677246094 0.2856586277484894
-8.831121444702148 5.59381103515625 1.1048123836517334
-8.35801887512207 -1.351607084274292 0.8355299234390259
-8.477359771728516 -3.7566490173339844 0.910152018070221
-3.6106534004211426 -0.6464061737060547 -1.8665510416030884
-4.974687576293945 -2.4248127937316895 -1.0901777744293213
-5.614752292633057 -1.4523861408233643 -0.7258684039115906
-6.959780216217041 -4.851960182189941 0.03968626633286476
-6.579740524291992 3.0263419151306152 -0.1766197830438614
-4.504678249359131 1.9659857749938965 -1.3576929569244385
-10.555245399475098 -4.171660423278809 2.0861353874206543
-5.394517421722412 -2.655249834060669 -0.8512215614318848
-3.2171177864074707 -0.6701571941375732 -2.0905420780181885
-4.811434745788574 3.182445526123047 -1.1830942630767822
-14.17459774017334 -1.000383734703064 5.185451507568359
-5.394085884094238 -0.9221248626708984 -0.8514657020568848
-4.9390740394592285 -2.8112595081329346 -1.1104490756988525
-7.193977355957031 1.0878580808639526 0.17298804223537445
-5.323587894439697 -1.0864835977554321 -0.8915920257568359
-7.055771350860596 -1.0216543674468994 0.09432338923215866
-9.103423118591309 -0.14332520961761475 1.2597960233688354
-5.879551410675049 -1.6477960348129272 -0.5751519203186035
-8.41636848449707 1.4522465467453003 0.8687427639961243
-5.376250267028809 -0.7851722240447998 -0.8616176247596741
-9.566308975219727 -1.0914658308029175 1.5232594013214111
-13.281651496887207 -0.5104613900184631 4.662417888641357
-7.504820823669434 -3.712862491607666 0.3499103784561157
-11.021234512329102 -3.482595682144165 2.351365566253662
-9.414410591125488 -0.08774447441101074 1.4368021488189697
-14.522533416748047 1.388896107673645 5.990142822265625
-4.708834648132324 2.4898338317871094 -1.2414922714233398
-8.004674911499023 1.2081645727157593 0.6344171762466431
-7.233204364776611 4.811191558837891 0.19531752169132233
-10.483399391174316 3.5921316146850586 4.081025123596191
-5.159256458282471 -0.6310998201370239 -0.985124409198761
-3.2152278423309326 -0.49613475799560547 -2.0916178226470947
-8.396352767944336 -1.2000616788864136 0.857349693775177
-12.803378105163574 7.435595512390137 3.365722417831421
-9.205211639404297 3.6078531742095947 2.312237024307251
-9.494916915893555 -3.768507719039917 1.4826226234436035
-13.477304458618164 -3.6705446243286133 3.7492988109588623
-10.39969539642334 1.9451234340667725 2.649277925491333
-9.12122917175293 -2.2363386154174805 1.2699302434921265
-9.704488754272461 -3.5150814056396484 1.6019054651260376
-13.815914154052734 -1.1725386381149292 7.281441688537598
-8.154924392700195 1.728623390197754 0.7199357151985168
-6.655479431152344 -0.9788787961006165 -0.1335121989250183
-4.659933090209961 0.5128152370452881 -1.2693266868591309
-6.66536283493042 -1.7797446250915527 -0.1278870403766632
-14.460948944091797 1.4612388610839844 5.806947231292725
-7.685559272766113 0.8115825653076172 0.45278400182724
-14.221574783325195 -1.0009537935256958 5.105216026306152
-10.023199081420898 0.8008134365081787 1.7833102941513062
-13.295108795166016 -0.8187534213066101 5.956228733062744
-8.19534683227539 3.884953737258911 0.7429434657096863
-14.229205131530762 0.5070900321006775 5.628406524658203
-17.391315460205078 9.530543327331543 6.026783466339111
-6.119375705718994 1.3062963485717773 -0.4386477470397949
-4.090109348297119 0.3812282085418701 -1.593656063079834
-16.7121639251709 -8.409729957580566 5.590498924255371
-14.964154243469238 -2.185967445373535 4.595577716827393
-4.006795883178711 0.18201804161071777 -1.6410770416259766
-6.7462849617004395 -1.5163813829421997 -0.08182795345783234
-4.134757995605469 1.1157207489013672 -1.5682430267333984
-5.958210468292236 -0.5427639484405518 -0.5303807854652405
-6.458420276641846 1.5944700241088867 -0.24567222595214844
-13.901268005371094 -0.7789059281349182 4.655081272125244
-8.407252311706543 -0.1960715800523758 0.8635534048080444
-11.73430061340332 0.4362249970436096 3.704845666885376
-10.431259155273438 1.6908036470413208 3.462125539779663
-10.359241485595703 -0.6341421008110046 1.9745757579803467
-13.19316577911377 -0.5363513231277466 4.997828483581543
-10.72667407989502 5.375731468200684 2.1837124824523926
-6.421712875366211 4.119659900665283 -0.2665634751319885
-8.291788101196289 -1.6821610927581787 0.7978335022926331
-11.65943717956543 -0.09544134140014648 2.7146155834198
-6.1582255363464355 1.1586004495620728 -0.41653600335121155
-10.568436622619629 -1.068657398223877 2.093644618988037
-13.443943977355957 -0.4565512537956238 4.160135269165039
-5.521893501281738 -0.9518115520477295 -0.7787218689918518
-7.461952209472656 -0.7595358490943909 0.3255113363265991
-4.201177597045898 2.409348964691162 -1.5304381847381592
-6.939019680023193 3.200401544570923 0.027874257415533066
-12.510793685913086 -2.3261914253234863 3.1991865634918213
-8.950489044189453 -0.7346060872077942 1.1727497577667236
-12.41828727722168 -3.199796676635742 3.146533250808716
-8.839569091796875 6.066640377044678 1.109620213508606
-8.342713356018066 2.4953181743621826 0.8268207907676697
-11.074936866760254 -1.5582553148269653 2.3819334506988525
-4.541060924530029 1.7124834060668945 -1.3369855880737305
-14.569536209106445 -1.710495948791504 4.3709716796875
-5.358786106109619 3.675698757171631 -0.8715564012527466
-11.198807716369629 6.890632629394531 2.4524409770965576
-4.531998157501221 -0.6403987407684326 -1.3421448469161987
-8.38089370727539 2.66115140914917 0.8485516905784607
-8.121668815612793 3.9752516746520996 0.7010092735290527
-11.148941993713379 2.588697671890259 2.4240570068359375
-7.255733013153076 -1.4796249866485596 0.20813654363155365
-6.441577434539795 -2.5510497093200684 -0.25526148080825806
-8.588519096374512 1.3134605884552002 0.9667267203330994
-6.367028713226318 0.4244605302810669 -0.29768991470336914
-10.572840690612793 1.1101322174072266 2.7013041973114014
-7.426653861999512 3.893296480178833 0.3054231107234955
-6.1488752365112305 3.688632011413574 -0.4218562841415405
-14.273813247680664 -0.8710235357284546 4.534421443939209
-5.586686134338379 -0.4927997589111328 -0.74184250831604
-9.691781997680664 2.586211681365967 2.561506748199463
-7.329172134399414 -1.0056661367416382 0.24993614852428436
-6.443892955780029 -0.6314886808395386 -0.25394171476364136
-14.236045837402344 -9.103280067443848 4.181153297424316
-9.773383140563965 -0.02490544319152832 1.6411211490631104
-9.352581024169922 4.0780744552612305 2.4868481159210205
-9.132906913757324 1.7545887231826782 1.2765787839889526
-6.916913032531738 0.6986912488937378 0.015290223062038422
-17.731922149658203 -10.454490661621094 6.170917987823486
-6.365259170532227 -0.9050037264823914 -0.29869937896728516
-6.429537773132324 2.6119415760040283 -0.26211196184158325
-5.352743625640869 1.7304365634918213 -0.8749960660934448
-14.430119514465332 -1.0571506023406982 4.291618347167969
-9.641495704650879 2.372819662094116 1.5660549402236938
-10.526308059692383 -2.4040796756744385 2.0696661472320557
-11.681061744689941 -1.189403772354126 2.7269227504730225
-10.4382963180542 0.7452965974807739 2.0195727348327637
-6.705535888671875 -1.6263283491134644 -0.10502200573682785
-13.88005542755127 -0.7089627385139465 4.41062068939209
-4.42720365524292 2.5666701793670654 -1.4017900228500366
-8.645204544067383 -0.6869210600852966 0.998989999294281
-9.786993026733398 -3.674985885620117 1.6488651037216187
-14.478219032287598 1.142257571220398 5.835348606109619
-13.558904647827148 1.0147390365600586 7.321138381958008
-14.537814140319824 -1.2384072542190552 5.908267498016357
-6.682765007019043 -1.013655662536621 -0.1179821565747261
-11.769527435302734 -2.231110095977783 2.7772762775421143
-11.864930152893066 -1.3094810247421265 2.831681251525879
-7.20499324798584 1.1951045989990234 0.17925792932510376
-7.615728378295898 -2.445582866668701 0.4130367636680603
-8.299405097961426 4.7787322998046875 0.8021718263626099
-8.956732749938965 3.115384340286255 1.1763057708740234
-3.4761078357696533 0.13730669021606445 -1.9431308507919312
-9.271513938903809 -0.7337551712989807 1.3554697036743164
-11.081218719482422 -1.9467382431030273 2.385507345199585
-4.015265941619873 -1.2965084314346313 -1.6362560987472534
-9.020503044128418 -3.766885280609131 1.2297232151031494
-9.93813419342041 4.069037437438965 1.734894871711731
-16.936677932739258 9.42490005493164 6.542884826660156
-6.277559757232666 2.402315616607666 -0.3486126661300659
-10.291624069213867 1.3490711450576782 2.5502591133117676
-7.998776435852051 0.676596999168396 0.6310603022575378
-9.812183380126953 0.4831573963165283 1.663205623626709
-5.3410725593566895 3.1930220127105713 -0.881637692451477
-5.355646133422852 -1.8181003332138062 -0.873345673084259
-13.854215621948242 -0.30738207697868347 5.4103875160217285
-8.565065383911133 -4.724074840545654 1.564110517501831
-1.568992018699646 0.3408915400505066 -0.6376794576644897
-16.24669075012207 -4.915995121002197 5.325563907623291
-8.663182258605957 -3.7273716926574707 1.4419682025909424
-8.416558265686035 -3.6510684490203857 0.8688488006591797
-9.122762680053711 0.5117983818054199 1.2708046436309814
-8.200868606567383 2.7627651691436768 4.922597408294678
-3.2393805980682373 0.1964271068572998 -2.0778708457946777
-8.292473793029785 -0.23974066972732544 0.7982240915298462
-9.802550315856934 3.785240411758423 1.657724142074585
-14.411808013916016 1.463134765625 5.885643005371094
-15.945168495178223 -8.58343505859375 5.15394401550293
-14.383198738098145 -1.2138571739196777 5.5497846603393555
-13.2555513381958 7.7772979736328125 3.623088836669922
-13.949823379516602 -0.7804052829742432 4.575812339782715
-3.2192132472991943 0.31502246856689453 -2.0893490314483643
-14.878104209899902 -1.4957845211029053 6.521664619445801
-12.578096389770508 -5.896026611328125 3.2374918460845947
-4.177531719207764 -1.5425806045532227 -1.543899655342102
-12.160016059875488 2.361684799194336 2.9995336532592773
-7.990262508392334 2.477219820022583 0.6262132525444031
-8.38056468963623 -5.736788272857666 0.8483608365058899
-9.196256637573242 -3.210214853286743 1.3126344680786133
-7.05305290222168 -1.2539266347885132 0.0927768126130104
-5.80736780166626 -3.9833872318267822 -0.6162386536598206
-7.39971923828125 1.8217910528182983 0.29009124636650085
-6.5615553855896 -3.7843453884124756 -0.18697306513786316
-14.207427024841309 -1.898451328277588 4.164867877960205
-8.817741394042969 -1.8768424987792969 1.097192645072937
-11.306108474731445 -6.1407599449157715 2.513507127761841
-13.82611083984375 4.909937858581543 3.9478347301483154
-8.35569953918457 -2.1976888179779053 0.834209680557251
-5.182619571685791 3.3880527019500732 -0.9718254208564758
-13.695806503295898 -0.6128196120262146 4.347071170806885
-5.433590888977051 1.3867223262786865 -0.8289804458618164
-9.252483367919922 4.010619163513184 1.3446401357650757
-1.5717190504074097 -0.03349859267473221 -0.6368204355239868
-9.242273330688477 3.4912586212158203 1.9872524738311768
-11.99827766418457 -0.9995097517967224 3.073166847229004
-8.891657829284668 -4.529158115386963 1.750000238418579
-5.855189323425293 1.2485119104385376 -0.5890170335769653
-8.422301292419434 3.895751953125 0.8721206188201904
-7.476234436035156 1.0378129482269287 0.3336417078971863
-5.155308246612549 -2.5921733379364014 -0.9873741865158081
-10.343826293945312 -5.822262763977051 2.335012197494507
-5.918412685394287 -1.1615757942199707 -0.5530322790145874
-5.871458053588867 0.9583320617675781 -0.5797562599182129
-14.541634559631348 1.278367042541504 5.862030982971191
-8.997631072998047 -5.34771203994751 1.1995798349380493
-11.786136627197266 5.5428690910339355 2.7867331504821777
-4.621892929077148 -2.023867607116699 -1.2909809350967407
-11.112338066101074 -0.06322646141052246 2.4032208919525146
-5.497278213500977 0.9228883981704712 -0.7927314639091492
-12.22500991821289 6.966520309448242 3.036529302597046
-13.52382755279541 -3.659392833709717 3.7757792472839355
-7.067594051361084 2.0747456550598145 0.1010546088218689
-8.444843292236328 4.0811238288879395 0.8849515914916992
-8.200084686279297 1.7326627969741821 0.745638370513916
-7.239468574523926 1.1239632368087769 0.1988806575536728
-5.4518022537231445 2.6900694370269775 -0.8186135292053223
-4.397228240966797 -1.5251692533493042 -1.418853521347046
-12.185539245605469 2.575892448425293 3.014061450958252
-15.950518608093262 9.49521541595459 5.156996726989746
-6.118326663970947 -2.2783026695251465 -0.43924692273139954
-10.21024227142334 5.903919696807861 1.8897721767425537
-6.423300266265869 -0.9292736053466797 -0.26566335558891296
-10.012482643127441 -3.6357369422912598 1.7772091627120972
-10.318592071533203 1.3172661066055298 1.9514411687850952
-5.898425579071045 3.3769659996032715 -0.5644067525863647
-10.084033012390137 1.351050615310669 2.7415735721588135
-13.961913108825684 -2.6856088638305664 4.0251264572143555
-12.275908470153809 6.002751350402832 3.0654995441436768
-9.514108657836914 -0.984361469745636 1.4935481548309326
-15.298704147338867 -3.597858190536499 4.785993576049805
-4.6416544914245605 -1.5458720922470093 -1.2797313928604126
-9.908828735351562 0.5421947836875916 1.7182143926620483
-8.381174087524414 2.8870155811309814 0.8487110733985901
-14.306178092956543 0.7314801812171936 5.72083854675293
-11.929181098937988 0.2907104194164276 3.77199125289917
-6.207995891571045 0.07433187961578369 -0.3882087171077728
-6.411360263824463 -4.459994792938232 -0.272460401058197
-9.238531112670898 -2.5126497745513916 1.336695671081543
-10.319121360778809 7.012603759765625 1.9517439603805542
-7.381948947906494 -2.142698287963867 0.27997589111328125
-4.610866069793701 2.537990093231201 -1.297253131866455
-13.604145050048828 7.769001513224794e-07 4.235135078430176
-8.552905082702637 4.470971584320068 0.9464577436447144
-13.856834411621094 7.414409160614014 3.9653239250183105
-14.116863250732422 -5.729109287261963 4.1133198738098145
-7.986971855163574 2.7012670040130615 0.6243418455123901
-10.165403366088867 0.40561938285827637 1.8642488718032837
-10.018783569335938 -3.508725881576538 1.7807960510253906
-3.671746015548706 1.109614372253418 -1.831777572631836
-6.923808574676514 3.6101460456848145 0.019215742126107216
-9.533613204956055 2.8613100051879883 1.5046513080596924
-5.736366271972656 1.4024066925048828 -0.6566472053527832
-4.799543380737305 -1.0108094215393066 -1.1898659467697144
-8.646517753601074 -3.7432937622070312 1.2718980312347412
