-5.462288856506348 -0.27431854605674744 2.5762791633605957
-5.885870456695557 3.179292917251587 0.4656735956668854
-5.5222487449646 -2.564514398574829 0.2587047219276428
-5.944958686828613 0.8328646421432495 3.2262120246887207
-4.945722579956055 -0.4553182125091553 -0.0694378912448883
-5.693793773651123 0.10892897844314575 2.6534886360168457
-4.295858383178711 1.2272751331329346 -0.43932366371154785
-6.150516986846924 -0.3124329745769501 1.8889394998550415
-5.805663585662842 -3.9793899059295654 0.4200175106525421
-6.689645290374756 1.5530372858047485 0.9231610894203186
-5.3814802169799805 -2.8483848571777344 0.17858347296714783
-8.077094078063965 1.7340850830078125 3.159417152404785
-6.487360000610352 3.596298933029175 0.8080259561538696
-5.887880325317383 2.635502815246582 0.4668150842189789
-6.0762434005737305 4.125690460205078 0.5740272402763367
-6.371648788452148 -3.2549262046813965 0.7421629428863525
-4.293844223022461 1.1031908988952637 -0.4404705762863159
-4.78560209274292 -0.20442545413970947 -0.16057313978672028
-4.278050899505615 -2.9859633445739746 -0.449461966753006
-6.475127220153809 -2.2000253200531006 0.8010600805282593
-6.264822483062744 -2.7955715656280518 0.6813600063323975
-5.726541996002197 -0.12915393710136414 2.2974178791046143
-5.596613883972168 0.19553589820861816 0.30103206634521484
-8.850204467773438 -2.588149309158325 2.15289306640625
-8.06032943725586 -0.15969261527061462 1.7033185958862305
-4.1302900314331055 2.762380599975586 -0.20217809081077576
-7.782299518585205 3.7026329040527344 1.5450726747512817
-5.783507823944092 3.239185333251953 0.4074100852012634
-6.193613052368164 -0.045835137367248535 0.6408302187919617
-5.404177665710449 2.15714168548584 0.19150492548942566
-6.056135177612305 0.251921683549881 1.9040510654449463
-3.1826491355895996 -1.8946810960769653 -1.0729365348815918
-9.391765594482422 -5.429990768432617 2.4611353874206543
-7.802835941314697 -3.760284185409546 1.5567578077316284
-3.7198026180267334 -0.7853775024414062 -0.7672007083892822
-6.501379489898682 0.47161370515823364 1.429001808166504
-6.453835487365723 -2.7542595863342285 0.7889404892921448
-6.55487060546875 -2.6217613220214844 0.8464479446411133
-6.683807373046875 3.4289662837982178 0.919838011264801
-2.6643388271331787 -0.9802849292755127 -1.3679438829421997
-3.763921022415161 -0.5069619417190552 -0.7420920729637146
-4.04688024520874 0.07749152183532715 -0.5810363292694092
-9.030828475952148 4.823431968688965 2.255704164505005
-8.98309326171875 -3.1294748783111572 2.228532314300537
-5.999115467071533 2.845125913619995 0.5301273465156555
-2.6813650131225586 1.234027624130249 -1.3582544326782227
-10.871025085449219 6.903487682342529 3.3030989170074463
-6.888348579406738 -1.2150968313217163 1.0362557172775269
-6.267158031463623 -4.256918430328369 0.6826884150505066
-3.6484415531158447 -2.421816110610962 -0.8078197240829468
-6.149391174316406 -0.5972104072570801 1.1017508506774902
-6.318163871765137 3.168452501296997 0.7117228507995605
-6.119856834411621 -4.024583339691162 0.5988489389419556
-7.118715286254883 -2.401939630508423 1.1673740148544312
-5.972413539886475 3.3348608016967773 0.5149317979812622
-8.082902908325195 5.437834739685059 1.7161692380905151
-3.8729305267333984 -1.529962420463562 -0.6800438761711121
-3.6684458255767822 2.429380178451538 -0.796431303024292
-8.21369457244873 3.7381765842437744 2.9466469287872314
-7.5024847984313965 -1.502275824546814 1.3858059644699097
-11.504108428955078 4.450372695922852 5.202612400054932
-7.343567848205566 -1.220460295677185 1.2953548431396484
-8.74545955657959 4.336147308349609 2.8710904121398926
-3.323960304260254 1.2320764064788818 -0.9925041794776917
-7.376759052276611 -2.457211971282959 1.3142462968826294
-6.272809982299805 2.7042248249053955 0.6859080791473389
-6.738383769989014 0.36128097772598267 0.950900673866272
-6.5301947593688965 1.215133547782898 0.8324044942855835
-9.130502700805664 -2.869727849960327 2.3124325275421143
-5.937411308288574 0.041244715452194214 2.1041147708892822
-8.691158294677734 4.339503288269043 2.985354423522949
-6.937067031860352 1.9923171997070312 1.0639855861663818
-15.230572700500488 -9.057999610900879 5.784437656402588
-6.27518367767334 -0.9105284214019775 1.9064648151397705
-8.646414756774902 3.199092388153076 2.3600733280181885
-3.710878372192383 0.6094090938568115 -0.7722800970077515
-6.908690452575684 -1.3111563920974731 1.943143606185913
-6.4109296798706055 -0.20897553861141205 1.5732576847076416
-6.292453289031982 0.791908860206604 2.53023624420166
-5.351961612701416 -0.4992189407348633 2.607619524002075
-6.447788238525391 2.3021700382232666 0.7855022549629211
-5.278428554534912 -0.6773053407669067 0.11992999166250229
-6.580402851104736 -3.932987928390503 0.8609799146652222
-8.176513671875 2.3154149055480957 1.7694485187530518
-6.1836256980896 0.5699361562728882 2.233106851577759
-5.52758264541626 -3.8454904556274414 0.2617402970790863
-5.8573760986328125 -1.0174318552017212 3.0179402828216553
-6.173323154449463 1.1715952157974243 2.9922375679016113
-7.2075395584106445 -4.45216178894043 1.2179298400878906
-5.781998157501221 -0.2530534565448761 2.052769899368286
-4.292717456817627 0.7233619689941406 -0.44111159443855286
-6.088603496551514 0.86686110496521 2.9921209812164307
-3.891597032546997 -1.6915487051010132 -0.6694204211235046
-5.642119407653809 -0.7153662443161011 0.32693272829055786
-9.104700088500977 3.118833303451538 2.2977488040924072
-10.414386749267578 -4.7971320152282715 3.043186664581299
-3.8703606128692627 -2.173011302947998 -0.6815091371536255
-6.015646457672119 -0.6571205258369446 1.8512641191482544
-5.588637351989746 -0.5552582740783691 0.2964925765991211
-3.4098498821258545 -1.5700145959854126 -0.9436195492744446
-8.511436462402344 4.092252254486084 1.9600800275802612
-9.647930145263672 -2.3200035095214844 2.6069397926330566
-5.656510829925537 -0.899344265460968 3.173792839050293
-3.501572847366333 1.0595879554748535 -0.8914110660552979
-4.886444091796875 -0.47326624393463135 -0.10317858308553696
-4.632816314697266 2.0108492374420166 -0.24753527343273163
-6.330264091491699 -1.762678623199463 0.7186073660850525
-6.272486686706543 -1.9151785373687744 0.6857226490974426
-6.377010345458984 0.3009556531906128 0.7452157735824585
-3.389248847961426 -0.1402149200439453 -0.9553428888320923
-2.9468235969543457 0.6716651916503906 -1.2071607112884521
-7.089486122131348 4.868824481964111 1.1507418155670166
-5.068340301513672 0.501956582069397 0.0003552911803126335
-8.460077285766602 5.267366886138916 1.9308478832244873
-5.119755268096924 -0.2654482126235962 0.029617199674248695
-6.517026424407959 -0.0030710697174072266 0.824908435344696
-9.022815704345703 -4.816115379333496 2.2511401176452637
-7.583322525024414 -4.88543176651001 1.4318162202835083
-6.2534050941467285 2.676466464996338 0.6748641729354858
-4.947739124298096 1.2138160467147827 -0.06829095631837845
-5.218495845794678 -1.53192937374115 0.08581766486167908
-6.6150898933410645 0.5386294722557068 1.4751518964767456
-4.365790367126465 -2.4630093574523926 -0.39952218532562256
-7.108264923095703 -1.4914687871932983 1.9187110662460327
-6.663762092590332 -0.5274924039840698 0.9084277153015137
-7.258135795593262 -2.753194570541382 1.2467290163040161
-6.465866565704346 -1.4126242399215698 3.0332062244415283
-3.9569296836853027 -1.3271194696426392 -0.6322328448295593
-1.514475703239441 0.15872393548488617 -0.45653438568115234
-5.575169086456299 -0.11853580921888351 2.5677008628845215
-2.515498161315918 -0.1546478271484375 -1.4526619911193848
-6.946197986602783 1.143708348274231 1.0691838264465332
-7.679069519042969 3.300935745239258 1.4863157272338867
-7.983678817749023 3.069763660430908 1.6596909761428833
-5.5390095710754395 -2.629640817642212 0.2682453989982605
-7.432938575744629 1.2161240577697754 1.3462241888046265
-7.789338111877441 -4.880181789398193 1.5490745306015015
-7.442249774932861 4.752385139465332 1.3515241146087646
-6.437404632568359 1.2685705423355103 0.7795903086662292
-3.7158846855163574 -1.4440585374832153 -0.7694334387779236
-8.746194839477539 -5.806118011474609 2.093693971633911
-3.016808032989502 0.9368014335632324 -1.1673269271850586
-4.9646453857421875 -1.0638744831085205 -0.05866676941514015
-5.8498382568359375 -1.2126141786575317 3.4939768314361572
-6.285058498382568 -0.008995115756988525 0.6928778886795044
-9.504624366760254 5.834256649017334 2.5253775119781494
-3.298466205596924 0.6078214645385742 -1.0070146322250366
-6.14544677734375 -1.3354310989379883 0.6134154796600342
-4.946387767791748 -1.3159466981887817 -0.06905926018953323
-2.9159677028656006 -0.24301600456237793 -1.2247250080108643
-7.106527805328369 2.3765692710876465 1.1604396104812622
-3.800469160079956 2.236593246459961 -0.6429983377456665
-6.243664741516113 -2.419877529144287 0.6693161129951477
-6.862043380737305 -1.0401149988174438 1.0212844610214233
-7.809597015380859 3.7655599117279053 1.5606096982955933
-9.5520658493042 2.9627058506011963 2.5523781776428223
-3.752739191055298 -1.3040517568588257 -0.7484533786773682
-5.254678726196289 2.1467490196228027 0.10641379654407501
-6.356476306915283 -1.3894233703613281 4.116613388061523
-3.4858763217926025 1.3291752338409424 -0.9003431797027588
-6.950770378112793 0.09329599142074585 1.071785569190979
-4.210095405578613 1.1651897430419922 -0.48813730478286743
-5.625706672668457 0.011979329399764538 2.6497836112976074
-4.501776695251465 -2.9356796741485596 -0.32212138175964355
-3.4695777893066406 0.5677919387817383 -0.9096223711967468
-5.255965232849121 -0.5872289538383484 3.3031888008117676
-6.407560348510742 0.6275895833969116 1.979426383972168
-10.047252655029297 5.706242561340332 2.834228515625
-4.437196254730225 1.833139419555664 -0.35887789726257324
-5.455879211425781 -0.5543806552886963 0.22093051671981812
-6.9120049476623535 -4.236013412475586 1.0497188568115234
-9.55627727508545 3.0799636840820312 2.5547759532928467
-6.035984516143799 -2.014225721359253 0.5511118769645691
-6.236434459686279 2.5580031871795654 0.6652048230171204
-5.093914985656738 -0.40984663367271423 3.345409393310547
-2.8528738021850586 -0.16379618644714355 -1.260636568069458
-6.367130756378174 -1.4274240732192993 3.4871933460235596
-3.6282782554626465 -0.14953255653381348 -0.8192937970161438
-6.8940606117248535 0.7591618895530701 1.1707245111465454
-3.930938720703125 -2.652050256729126 -0.6470295190811157
-6.070394515991211 -0.236914724111557 1.737851858139038
-5.154125690460205 -0.5138148069381714 0.04918111860752106
-13.04631519317627 7.6716837882995605 4.5412211418151855
-9.414687156677246 2.6798899173736572 3.9207422733306885
-3.487938404083252 -0.8614978790283203 -0.8991712927818298
-8.647615432739258 4.395728588104248 2.990999698638916
-11.627224922180176 4.390316486358643 5.175515651702881
-6.260796070098877 -2.6562600135803223 0.6790677309036255
-6.602054119110107 0.5342041850090027 1.3379652500152588
-7.273612022399902 1.2554550170898438 2.452096939086914
-5.349764823913574 0.24396002292633057 0.1605335772037506
-9.186002731323242 4.839132785797119 2.3440258502960205
-6.112741947174072 0.9134460687637329 0.5948004722595215
-5.010411262512207 -0.06392872333526611 -0.03262139484286308
-1.758436679840088 -0.18748822808265686 -0.28844642639160156
-6.871596336364746 1.3355777263641357 2.2232794761657715
-6.034540176391602 -1.200016736984253 3.373112916946411
-1.837665319442749 0.22544202208518982 -0.2324141263961792
-5.783067226409912 0.8953698873519897 0.4071585536003113
-5.144467830657959 -0.23486876487731934 0.04368274286389351
-3.708526611328125 2.161968231201172 -0.7736161947250366
-8.090051651000977 -1.7520873546600342 1.7202346324920654
-6.474560260772705 -1.1846845149993896 2.170945167541504
-6.20008659362793 0.09739887714385986 0.6445144414901733
-4.96957540512085 -0.6840164661407471 -0.055860936641693115
-3.778754949569702 2.2411632537841797 -0.6141662001609802
-6.277836799621582 -2.9578745365142822 0.688765823841095
-4.206601619720459 -0.5509721040725708 -0.4901264011859894
-1.2978849411010742 0.11056007444858551 -0.6489629745483398
-8.516100883483887 3.215928316116333 2.318317413330078
-5.896119594573975 -0.19940626621246338 1.8671228885650635
-9.396323204040527 6.155108451843262 2.463735818862915
-5.611931800842285 0.5356231927871704 0.30975186824798584
-6.247935771942139 0.6716820001602173 2.397341012954712
-10.055375099182129 -6.464608669281006 2.83884596824646
-3.5246341228485107 -0.5959572792053223 -0.8782856464385986
-5.2006916999816895 -2.750836133956909 0.07568294554948807
-6.074250221252441 0.34928154945373535 1.9915889501571655
-8.17900276184082 4.3051862716674805 1.7708656787872314
-5.230912685394287 -0.5847073793411255 0.09288536757230759
-8.208970069885254 2.7923221588134766 1.7879220247268677
-8.556395530700684 3.6045117378234863 2.161285400390625
-8.70810317993164 -5.660944938659668 2.0720136165618896
-8.621559143066406 2.9630866050720215 2.022757053375244
-4.32554292678833 -2.0706899166107178 -0.42243024706840515
-6.840744495391846 0.6490498185157776 1.113429307937622
-6.137105464935303 0.6773256063461304 0.6086676120758057
-5.457382678985596 -0.6386814117431641 2.6898880004882812
-12.080205917358398 -3.46120548248291 3.9913299083709717
-5.014738082885742 -0.4761514663696289 -0.030156271532177925
-18.89618682861328 -10.671801567077637 7.87081241607666
-3.1679415702819824 -1.0456111431121826 -1.0813060998916626
-6.281489849090576 -0.15625882148742676 1.4711054563522339
-4.062830448150635 2.1357476711273193 -0.5719566941261292
-7.012096881866455 2.1045308113098145 1.1066908836364746
-6.8001837730407715 -1.2530981302261353 0.9860738515853882
-3.849475622177124 1.9025304317474365 -0.693393349647522
-3.5661306381225586 -0.17965483665466309 -0.8546677231788635
-5.870226860046387 0.8175897598266602 3.3514978885650635
-7.4316887855529785 -3.506598711013794 1.3455109596252441
-6.591839790344238 -0.595728874206543 0.8674916625022888
-6.338870048522949 -0.28374558687210083 0.7235071659088135
-8.235027313232422 -0.1494949460029602 1.8027522563934326
-4.32310676574707 1.6776034832000732 -0.4238135516643524
-3.9488794803619385 0.10085272789001465 -0.6368154883384705
-2.7601027488708496 -0.9021933078765869 -1.3134397268295288
-5.16192626953125 -0.2259158343076706 3.2495949268341064
-8.304722785949707 -5.100711345672607 1.8424187898635864
-6.993258476257324 -4.800765037536621 1.0959651470184326
-8.753328323364258 4.539620876312256 3.3606221675872803
-6.44266939163208 0.39235714077949524 1.4608829021453857
-9.417213439941406 6.097166538238525 2.47562575340271
-4.675211429595947 -0.39710915088653564 -0.22340528666973114
-8.594388008117676 3.0748684406280518 2.469048261642456
-4.431825160980225 -0.6993957757949829 -0.36193427443504333
-7.874439716339111 -1.5186587572097778 1.5975148677825928
-7.980876445770264 3.8555288314819336 1.658097505569458
-4.7616729736328125 -0.04138815402984619 -0.1741930991411209
-5.309826850891113 -0.1384870558977127 2.4788877964019775
-2.6516916751861572 -0.022122859954833984 -1.375141978263855
-5.69141960144043 0.16056594252586365 2.7317442893981934
-7.291192054748535 2.176924705505371 2.3666651248931885
-8.088475227355957 3.6970460414886475 3.0769879817962646
-8.152488708496094 4.2421088218688965 1.7557733058929443
-5.066885471343994 -2.0178945064544678 -0.00047593782073818147
-8.020360946655273 5.136536121368408 1.6805717945098877
-5.7876362800598145 0.694231390953064 0.40975871682167053
-3.6427438259124756 1.1750295162200928 -0.8110603094100952
-9.47102165222168 -5.063004493713379 2.5062472820281982
-12.348383903503418 7.2984490394592285 4.143974781036377
-5.095909118652344 3.4056220054626465 0.016046104952692986
-6.179521083831787 1.4858537912368774 0.6328099370002747
-6.894200801849365 1.1760936975479126 1.8065059185028076
-5.319341659545898 -0.585475504398346 2.9566054344177246
-6.843749523162842 1.1677333116531372 1.8585925102233887
-7.734831809997559 -3.280214548110962 1.5180516242980957
-5.932833671569824 1.1455984115600586 3.492253303527832
-6.883232116699219 -1.8843302726745605 1.033342957496643
-7.43848180770874 1.9129210710525513 1.7389092445373535
-4.327974796295166 -2.5276453495025635 -0.42104700207710266
-6.88743257522583 0.8677645921707153 1.331269383430481
-6.832331657409668 1.2991352081298828 1.955285668373108
-3.452751636505127 2.0888378620147705 -0.9191994071006775
-6.384594917297363 0.4884656071662903 1.694683313369751
-7.887866020202637 2.9461710453033447 1.6051578521728516
-6.332316875457764 4.080275058746338 0.7197798490524292
-4.762321949005127 -2.064887762069702 -0.17382638156414032
-3.7808609008789062 1.3209278583526611 -0.7324479222297668
-18.827190399169922 -6.684442043304443 7.831543445587158
-5.673130989074707 -0.7945808172225952 2.6396639347076416
-6.219161510467529 -1.938244104385376 0.655369758605957
-6.369951248168945 0.28379911184310913 1.546470046043396
-6.980326175689697 -1.3402830362319946 2.081305742263794
-5.583889961242676 2.689145565032959 0.29379183053970337
-6.0745463371276855 0.6429629325866699 2.6875412464141846
-4.2959113121032715 -0.10401475429534912 -0.4392944872379303
-3.9871857166290283 0.8859093189239502 -0.615012526512146
-3.7600796222686768 -2.3871405124664307 -0.7442773580551147
-5.208705902099609 -1.4566500186920166 0.08024465292692184
-7.089576721191406 2.347536563873291 1.1507922410964966
-3.4409537315368652 0.054415225982666016 -0.9259142875671387
-5.112763404846191 -0.8967349529266357 0.02563769556581974
-5.874441146850586 -0.08325865864753723 2.077457904815674
-6.054696559906006 -0.34137222170829773 1.733874797821045
-19.84491539001465 -11.182948112487793 8.410805702209473
-6.813690185546875 -1.4275504350662231 0.9937619566917419
-10.917367935180664 6.23296594619751 3.329476833343506
-3.886636257171631 2.1221446990966797 -0.6722401976585388
-6.6849493980407715 -1.6243009567260742 3.7271580696105957
-8.798735618591309 4.886054039001465 3.4261879920959473
-5.6717000007629395 2.863863706588745 0.3437716066837311
-6.111237049102783 2.7299768924713135 0.5939451456069946
-3.2766997814178467 -1.5332446098327637 -1.0194042921066284
-6.2862629890441895 2.281677722930908 0.6935659050941467
-3.006774663925171 -0.7311384677886963 -1.1730400323867798
-3.8108859062194824 -1.6368136405944824 -0.7153602838516235
-3.084787368774414 -0.8201069831848145 -1.1286331415176392
-6.2320427894592285 -0.9379464387893677 1.8624979257583618
-8.114872932434082 0.1121782511472702 1.734363079071045
-5.6785125732421875 -0.369104266166687 0.34764689207077026
-4.8590874671936035 -1.6336596012115479 -0.11875040829181671
-4.650455951690674 -2.5714271068573 -0.237497478723526
-3.8899877071380615 2.6659250259399414 -0.5046437382698059
-4.7312397956848145 -3.2553398609161377 -0.19151777029037476
-6.205207347869873 2.008293628692627 0.6474303603172302
-6.715221405029297 -4.022639751434326 0.9377136826515198
-6.4509382247924805 3.5399842262268066 0.7872946858406067
-9.239354133605957 -2.5485851764678955 2.3743886947631836
-2.6298656463623047 0.18911099433898926 -1.3875644207000732
-5.242613315582275 -0.35933592915534973 2.904578924179077
-3.544968843460083 -0.8140552043914795 -0.8667126297950745
-8.583955764770508 5.4485931396484375 2.001356363296509
-6.5042314529418945 2.0221078395843506 0.8176265358924866
-8.585662841796875 -5.537112712860107 2.0023229122161865
-6.071041584014893 -0.30658969283103943 1.743177890777588
-6.780094623565674 -1.6495490074157715 3.4063527584075928
-6.768100261688232 1.298431158065796 2.1466031074523926
-11.488713264465332 7.2275495529174805 3.6546707153320312
-9.286637306213379 3.003261089324951 2.401304006576538
-7.895961761474609 2.9861557483673096 2.4136221408843994
-5.583670616149902 1.9849616289138794 0.2936670482158661
-4.4487409591674805 -0.28074944019317627 -0.3523072898387909
-6.409287452697754 1.0470341444015503 0.7635881304740906
-2.6988723278045654 -0.6050999164581299 -1.348289132118225
-6.153192520141602 3.935281276702881 0.6178252696990967
-3.6459550857543945 -2.355876922607422 -0.8092348575592041
-6.1381916999816895 -3.5503177642822266 0.6092849969863892
-5.913854598999023 -1.1031160354614258 3.2701523303985596
-6.386068344116211 0.7006290555000305 0.7503726482391357
-3.7074294090270996 -1.5419635772705078 -0.774243950843811
-8.786272048950195 4.574621200561523 3.0807759761810303
-3.29064679145813 -1.7437047958374023 -1.0114647150039673
-6.726102828979492 -1.2220978736877441 1.7510496377944946
-8.192070960998535 3.1518609523773193 1.7783037424087524
-6.480676174163818 -1.2491545677185059 2.36286997795105
-5.44735050201416 -0.9264358282089233 3.278886556625366
-5.13279390335083 -0.44391655921936035 3.384716510772705
-5.717804908752441 1.7436350584030151 0.3700133264064789
-7.954741477966309 -4.004645347595215 1.643218755722046
-4.650521755218506 -2.841031551361084 -0.23746000230312347
-6.430362224578857 -1.3801935911178589 2.982267379760742
-8.916488647460938 4.929480075836182 3.3466227054595947
-7.0290937423706055 -2.2079050540924072 1.116363525390625
-3.526101589202881 -2.164947748184204 -0.8774518966674805
-6.1207194328308105 -0.9111437797546387 0.5993409156799316
-5.652584075927734 0.6966540217399597 3.794020175933838
-2.924170732498169 1.119264841079712 -1.2200562953948975
-5.568516731262207 -1.1871811151504517 0.28504103422164917
-7.921276092529297 3.042437791824341 2.446315288543701
-6.816021919250488 1.0192686319351196 0.995090126991272
-9.205331802368164 -2.914093255996704 2.3550238609313965
-4.997838497161865 1.1684597730636597 -0.03977401927113533
-1.5893759727478027 -0.14484013617038727 -0.4054708480834961
-13.933063507080078 -7.578265190124512 5.045929431915283
-4.916821479797363 -1.4291197061538696 -0.08588846772909164
-9.873910903930664 6.348433971405029 2.735565662384033
-5.767612934112549 -0.8183891177177429 0.3983610272407532
-4.353978633880615 1.5177500247955322 -0.40624260902404785
-5.1616621017456055 -0.7057754397392273 3.215435743331909
-8.204708099365234 5.341036319732666 1.785497784614563
-7.496993541717529 2.5572962760925293 2.526592969894409
-5.183361530303955 0.8013150691986084 0.06582137942314148
-6.0846452713012695 0.6754058599472046 0.578808069229126
-6.162294864654541 -0.27594879269599915 1.7880215644836426
-6.489756107330322 1.0453002452850342 2.8127474784851074
-5.25407600402832 -0.7662061452865601 3.1574056148529053
-8.3598051071167 -1.7107009887695312 1.8737716674804688
-6.2197747230529785 2.4144909381866455 0.6557227969169617
-6.536680221557617 2.234692335128784 0.8360961079597473
-12.58154296875 -4.320631980895996 4.276678085327148
-5.196191787719727 0.1252678632736206 0.07312275469303131
-3.4773459434509277 0.21274447441101074 -0.9052022695541382
-4.678950309753418 0.30290210247039795 -0.22127921879291534
-4.350248336791992 -1.481453537940979 -0.4083663523197174
-6.206702709197998 2.1050796508789062 0.6482816338539124
-7.848189830780029 1.9892488718032837 1.5825752019882202
-5.18238639831543 -2.1814560890197754 0.06526488065719604
-5.684925079345703 0.5925947427749634 3.3826961517333984
-10.327383041381836 5.323741436004639 4.506176471710205
-5.782802104949951 0.43542030453681946 2.948582172393799
-5.384018898010254 0.046327855437994 3.1766135692596436
-5.438807964324951 -1.5963976383209229 0.21121437847614288
-7.971668243408203 2.0838942527770996 1.652855396270752
-5.579507350921631 -0.39270099997520447 2.242601156234741
-6.860548973083496 3.5122313499450684 1.0204355716705322
-4.8501458168029785 -1.5645910501480103 -0.12383737415075302
-2.8473525047302246 -0.8015346527099609 -1.263777494430542
-5.117369651794434 -3.2102441787719727 0.02825787663459778
-5.167852878570557 3.2259726524353027 0.05699459835886955
-13.773951530456543 -7.029083251953125 4.955366611480713
-8.429773330688477 3.371328353881836 2.1816680431365967
-5.98720121383667 -1.574958324432373 0.523345410823822
-6.644197940826416 0.5484707951545715 1.2793587446212769
-5.885045528411865 0.2699143886566162 0.465201735496521
-4.415273666381836 0.9663994312286377 -0.37135574221611023
-8.958138465881348 4.597929000854492 2.793388605117798
-5.775239944458008 0.3313799798488617 2.8142852783203125
-2.7569198608398438 -0.583538293838501 -1.3152521848678589
-6.86404275894165 4.193447589874268 1.0224236249923706
-7.002137184143066 4.351498126983643 1.101024866104126
-3.4044153690338135 -0.5571889877319336 -0.9467117190361023
-10.499917030334473 5.9817609786987305 4.135017395019531
-4.09484338760376 2.695030450820923 -0.3880447745323181
-4.290849685668945 1.5448012351989746 -0.44217464327812195
-6.203969955444336 -1.9851908683776855 0.6467236876487732
-8.925788879394531 -3.1168508529663086 2.1959152221679688
-2.737687110900879 1.0954399108886719 -1.326195240020752
-4.749216079711914 0.010858774185180664 -0.181285098195076
-3.5851550102233887 1.6579418182373047 -0.8438392281532288
-7.343801021575928 -0.915890634059906 1.2954884767532349
-8.771100044250488 4.5453410148620605 3.06728458404541
-3.8811709880828857 0.7350389957427979 -0.6753553152084351
-3.4785032272338867 -1.6708022356033325 -0.9045418500900269
-3.9001238346099854 -1.002760887145996 -0.6645664572715759
-3.869293212890625 1.047783613204956 -0.68211430311203
-10.097904205322266 -3.352080821990967 2.8630545139312744
-6.496417045593262 3.019533395767212 0.8131800889968872
-6.583668231964111 2.5061609745025635 0.8628396391868591
-6.223378658294678 -1.0288233757019043 2.1664254665374756
-8.690067291259766 -4.073871612548828 2.061748504638672
-4.358282089233398 0.04952192306518555 -0.40379491448402405
-4.769118309020996 0.4237034320831299 -0.16995683312416077
-4.686532497406006 0.5736905336380005 -0.2169620394706726
-8.655084609985352 4.191859722137451 2.696815252304077
-7.070971488952637 0.04084932804107666 1.1402015686035156
-2.8048722743988037 -1.125732183456421 -1.2879552841186523
-5.333186626434326 0.774795651435852 0.15109844505786896
-6.29998254776001 3.140368700027466 0.701375424861908
-7.817778587341309 -1.9552792310714722 1.5652639865875244
-5.050715923309326 -0.199326753616333 2.8909592628479004
-5.358405113220215 -1.0263392925262451 0.1654508262872696
-6.908364772796631 -1.0756455659866333 1.0476478338241577
-9.046975135803223 3.106646776199341 2.264892578125
-5.824330806732178 0.7736140489578247 0.43064364790916443
-3.8298044204711914 -0.5077396631240845 -0.7045906186103821
-5.045456886291504 0.5614798069000244 -0.012670365162193775
-7.640596389770508 1.7679044008255005 1.464417815208435
-7.241185188293457 -4.44871187210083 1.2370811700820923
-6.179366588592529 1.65309739112854 0.6327219605445862
-6.715802192687988 0.9055054187774658 1.7017807960510254
-8.87314224243164 5.701486587524414 2.165952444076538
-6.702819347381592 0.794754147529602 1.795723557472229
-3.1678316593170166 -0.6344907283782959 -1.0813690423965454
-6.822469234466553 -1.210230827331543 1.9524768590927124
-7.020595550537109 2.2325947284698486 1.1115292310714722
-6.315155506134033 -1.4979610443115234 0.7100093960762024
-4.040929317474365 -2.256270408630371 -0.5844254493713379
-8.078396797180176 -3.1065070629119873 1.7136012315750122
-3.327446222305298 0.9912600517272949 -0.9905204176902771
-4.828691005706787 -0.3360462188720703 -0.13604950904846191
-3.19563627243042 1.3257677555084229 -1.0655428171157837
-8.722909927368164 4.1488471031188965 2.6437556743621826
-8.794295310974121 2.444660186767578 2.121074676513672
-5.246731281280518 1.046972393989563 0.10188879072666168
-2.450183629989624 -0.6895465850830078 -1.4898347854614258
-8.078091621398926 -0.06668974459171295 1.7134279012680054
-5.002398490905762 -1.2048494815826416 -0.03717946633696556
-5.7724223136901855 0.9220086932182312 3.8297677040100098
-5.796740531921387 -3.0760843753814697 0.414938360452652
-4.0646162033081055 -2.0135385990142822 -0.5709417462348938
-6.719851493835449 0.36393430829048157 1.1482741832733154
-6.629603862762451 0.07000601291656494 0.8889846801757812
-6.899277687072754 1.937090277671814 1.0424782037734985
-6.817183971405029 -1.1222214698791504 1.6936736106872559
-9.537598609924316 -5.871243476867676 2.544140338897705
-6.820628643035889 1.1505622863769531 1.8979837894439697
-6.299405574798584 -2.3812270164489746 0.7010456323623657
-3.984180212020874 2.2105579376220703 -0.4971490204334259
-6.715508460998535 -4.076513767242432 0.937878429889679
-6.186574935913086 -2.056441307067871 0.6368228793144226
-2.902761220932007 0.03536367416381836 -1.2322403192520142
-2.41927433013916 0.5653421878814697 -1.507425308227539
-4.454705238342285 1.3527631759643555 -0.3489115834236145
-7.635395050048828 2.519400119781494 2.9080138206481934
-6.021963119506836 0.8191256523132324 3.0456013679504395
-6.720892906188965 -0.3679910898208618 0.9409455060958862
-5.883422374725342 -0.7171817421913147 0.46427735686302185
-6.3125410079956055 -1.4177314043045044 3.7620301246643066
-6.295124530792236 -3.0959482192993164 0.6986062526702881
-6.174940586090088 4.265375137329102 0.6302038431167603
-6.710364818572998 -1.0697815418243408 1.4785910844802856
-7.79510498046875 5.050989151000977 1.5523617267608643
-4.038506984710693 -2.6266467571258545 -0.5858035087585449
-7.727264404296875 4.847866058349609 1.5137494802474976
-3.7761166095733643 -0.732430100440979 -0.7351496815681458
-6.54105806350708 -1.3341224193572998 2.4688944816589355
-1.1510426998138428 -0.12571465969085693 -0.7091377973556519
-4.006678581237793 0.7745387554168701 -0.6039181351661682
-4.9037604331970215 -0.23708903789520264 -0.09332257509231567
-3.2509615421295166 1.8192846775054932 -1.0340532064437866
-7.055113792419434 2.2897591590881348 1.131176471710205
-7.202365875244141 -1.585914969444275 2.0828561782836914
-8.774222373962402 2.2159831523895264 3.5973000526428223
-5.727706432342529 -0.5717005729675293 1.8233091831207275
-4.4442620277404785 -1.289747714996338 -0.35485875606536865
-8.481877326965332 4.381009578704834 3.4693565368652344
-4.72572660446167 1.5878119468688965 -0.1946534961462021
-6.429898738861084 -1.3455010652542114 2.8273651599884033
-5.28851842880249 -0.3221626281738281 2.8552398681640625
-10.21885871887207 3.9046552181243896 5.558300495147705
-3.8897593021392822 0.855076789855957 -0.6704666018486023
-4.8635101318359375 -1.2026070356369019 -0.11623050272464752
-5.612481594085693 -1.255566954612732 0.3100646436214447
-7.702014923095703 4.446043491363525 1.499377727508545
-6.414773941040039 3.4836623668670654 0.7667115926742554
-9.160804748535156 4.480896472930908 2.515812397003174
-4.654384613037109 -0.2903825044631958 -0.2352599799633026
-3.890158176422119 1.594280481338501 -0.6702386140823364
-6.609812259674072 -1.2602909803390503 2.1600210666656494
-6.119607448577881 -0.7544296383857727 1.5821092128753662
-5.904537677764893 0.8311951160430908 0.4762958288192749
-5.503454208374023 0.22960376739501953 0.24800936877727509
-3.7433090209960938 1.84965181350708 -0.7538229823112488
-6.066247940063477 -3.959366798400879 0.568335771560669
-5.789827823638916 0.41755950450897217 0.41100621223449707
-6.434634208679199 0.19704508781433105 0.7780138254165649
-6.663477897644043 2.6647956371307373 0.9082657098770142
-6.191604137420654 -1.3003748655319214 3.3536252975463867
-12.811578750610352 -3.606241226196289 4.407609462738037
-4.799994468688965 0.667932391166687 -0.15238283574581146
-4.928463459014893 0.4816768169403076 -0.0792609304189682
-6.675164222717285 2.812152147293091 0.9149189591407776
-10.923239707946777 6.939321517944336 3.3328182697296143
-5.92323112487793 -1.0894675254821777 3.150944948196411
-7.021442413330078 4.378286838531494 1.112012505531311
-4.270120143890381 2.107180118560791 -0.4539741277694702
-6.762294769287109 -1.2301362752914429 0.9645088911056519
-8.620378494262695 2.7989349365234375 2.0220863819122314
-6.094880104064941 1.0708527565002441 0.5846346616744995
-5.995030879974365 3.0225305557250977 0.5278035402297974
-13.204854011535645 -7.23423957824707 4.631450176239014
-3.9239542484283447 -0.7412265539169312 -0.6510024666786194
-4.861059188842773 -0.4961686134338379 -0.11762621998786926
-6.154037952423096 -2.875561237335205 0.6183047890663147
-4.063998222351074 -1.2963627576828003 -0.5712937116622925
-5.539132118225098 0.44878220558166504 3.467048168182373
-5.338376998901367 -0.5156260132789612 3.609100580215454
-9.294358253479004 5.361560344696045 2.405698776245117
-3.8459277153015137 0.22007155418395996 -0.6954148411750793
-8.145163536071777 3.5741207599639893 2.842125415802002
-6.175897598266602 -0.36864686012268066 1.4117605686187744
-7.61633825302124 4.172415733337402 1.4506111145019531
-7.881328105926514 2.4145290851593018 3.0479931831359863
-7.983570098876953 3.013237714767456 1.659630298614502
-3.824092149734497 0.1168363094329834 -0.7078407406806946
-6.4854817390441895 -0.8925526142120361 0.806955099105835
-5.0278239250183105 -3.3173794746398926 -0.022708779200911522
-3.017862319946289 1.0126924514770508 -1.1667289733886719
-8.279275894165039 1.8718892335891724 1.8279386758804321
-4.739421844482422 -2.344119071960449 -0.18685957789421082
-8.193553924560547 3.375633478164673 3.0393857955932617
-5.911346435546875 0.927383542060852 0.48017168045043945
-8.673774719238281 -4.827561855316162 2.0524744987487793
-10.395944595336914 -3.4401426315307617 3.0326900482177734
-6.1422247886657715 2.783780574798584 0.6115818619728088
-4.512049674987793 -0.5032368898391724 -0.3162747919559479
-5.310904502868652 1.8964569568634033 0.13841401040554047
-6.189661502838135 -1.7398359775543213 0.6385803818702698
-5.943510055541992 -0.4746538996696472 0.498478502035141
-2.790384292602539 1.3058645725250244 -1.2962009906768799
-4.349540710449219 -1.4149303436279297 -0.40877190232276917
-4.777798652648926 1.8401505947113037 -0.1650155484676361
-6.2230377197265625 -2.5098485946655273 0.6575764417648315
-10.093144416809082 -4.5557451248168945 2.8603436946868896
-5.6394734382629395 1.8886923789978027 0.32542848587036133
-6.936405658721924 0.8359580636024475 1.0636099576950073
-8.730395317077637 4.172604560852051 3.550978422164917
-6.646239757537842 0.4556589722633362 1.190012812614441
-5.455519199371338 -0.14866948127746582 0.22072462737560272
-4.649233341217041 -2.7074403762817383 -0.23819378018379211
-5.203487396240234 3.3244431018829346 0.07727725803852081
-2.8801817893981934 1.3216922283172607 -1.2450928688049316
-7.483284950256348 4.803813934326172 1.3748809099197388
-5.377758502960205 0.5690212249755859 0.17646613717079163
-4.426104545593262 2.2340407371520996 -0.360609769821167
-6.5692138671875 0.6993797421455383 0.8546135425567627
-3.852658748626709 2.408904790878296 -0.5258909463882446
-5.240573406219482 1.1856286525726318 0.09838465601205826
-8.170957565307617 3.6302576065063477 2.8737716674804688
-5.423104763031006 -0.3360617160797119 0.20227627456188202
-3.533968210220337 1.7309677600860596 -0.8729715943336487
-5.876275062561035 3.970017433166504 0.4602122902870178
-5.307399272918701 0.7206069231033325 0.13641980290412903
-4.239857196807861 -1.611248254776001 -0.4711986780166626
-5.781859874725342 1.144838809967041 0.40647169947624207
-3.3070454597473145 1.5866003036499023 -1.0021305084228516
-6.983801364898682 0.8539155125617981 1.090585470199585
-5.207737922668457 -0.08390043675899506 3.4205095767974854
-6.1748480796813965 -1.2207492589950562 0.6301487684249878
-6.778298854827881 1.3657597303390503 0.9736195802688599
-5.394608020782471 -0.5261894464492798 0.18605728447437286
-8.973607063293457 -4.768942356109619 2.2231314182281494
-6.804440498352051 1.8014963865280151 0.9884991645812988
-8.743038177490234 -5.069997310638428 2.091895580291748
-6.174311637878418 0.3170989155769348 0.6298446655273438
-5.656391143798828 -1.25212824344635 0.33505555987358093
-5.688452243804932 0.019062161445617676 0.35330450534820557
-5.4388556480407715 3.2795050144195557 0.2112426459789276
-6.094321250915527 -0.41140902042388916 1.8519697189331055
-5.305586814880371 -2.021552085876465 0.13538743555545807
-5.829573154449463 0.6004735231399536 3.1020145416259766
-4.833320140838623 1.0056838989257812 -0.1334143429994583
-6.568783283233643 -0.8425289392471313 0.8543664216995239
-5.6463189125061035 0.894389271736145 0.32932326197624207
-4.224493503570557 0.17602455615997314 -0.4799436330795288
-4.721242427825928 0.3579748868942261 -0.19720588624477386
-7.724592685699463 2.524935007095337 1.5122264623641968
-7.407069206237793 2.561887741088867 2.7780563831329346
-7.814089298248291 -4.194619655609131 1.56316339969635
-5.597229957580566 -2.769362449645996 0.30138280987739563
-7.094631671905518 0.4487190246582031 1.1536682844161987
-6.059317111968994 1.1087044477462769 3.380004405975342
-7.690433979034424 -2.088291883468628 1.4927829504013062
-7.371241092681885 -1.6486139297485352 2.063530206680298
-5.344404697418213 -2.129606008529663 0.1574811339378357
-5.765287399291992 0.6209150552749634 0.3970381021499634
-8.833255767822266 4.101759910583496 2.1432504653930664
-5.6562910079956055 0.6029848456382751 3.4573419094085693
-5.164103984832764 2.173334836959839 0.05486052855849266
-5.166597366333008 -0.4387558102607727 3.455742835998535
-3.5191562175750732 -2.237635612487793 -0.8814055323600769
-5.255219459533691 1.5299659967422485 0.10671975463628769
-2.5644078254699707 -1.1157281398773193 -1.424821376800537
-7.856184005737305 -3.885840654373169 1.5871227979660034
-5.373057842254639 -0.13572490215301514 0.1737910360097885
-7.042355537414551 -1.341362714767456 1.1239122152328491
-5.347570419311523 3.660735607147217 0.15928488969802856
-1.1043955087661743 -0.23654042184352875 -0.7417640686035156
-6.342077732086182 -3.3299481868743896 0.7253307104110718
-3.9549643993377686 -0.8551663160324097 -0.6333537101745605
-4.252774238586426 -2.6422817707061768 -0.46384719014167786
-3.8441054821014404 -1.924816608428955 -0.6964519023895264
-9.315841674804688 -5.8460822105407715 2.417921781539917
-3.197016954421997 0.735328197479248 -1.064757227897644
-4.851844310760498 -0.7195734977722168 -0.12287148833274841
-3.1972973346710205 -1.0730903148651123 -1.0645971298217773
-4.811910629272461 -0.8119736909866333 -0.14560016989707947
-4.4146623611450195 0.8265008926391602 -0.37170398235321045
-5.843754768371582 0.23511815071105957 0.4416999816894531
-7.316800594329834 -1.1638431549072266 1.280120611190796
-6.58390998840332 -1.2898029088974 2.2976789474487305
-6.728217601776123 0.5802428722381592 1.2167925834655762
-3.885742425918579 1.989290714263916 -0.6727501153945923
-17.91415786743164 -9.556833267211914 7.311866760253906
-4.433768272399902 1.4973843097686768 -0.3608300983905792
-3.592480421066284 -2.387922525405884 -0.8396717309951782
-4.352298259735107 1.7958428859710693 -0.40719833970069885
-6.4098100662231445 0.8861281275749207 2.1252310276031494
-9.259878158569336 5.954328536987305 2.386075735092163
-5.246575832366943 3.373934268951416 0.1018020436167717
-10.372526168823242 6.617701053619385 3.0193660259246826
-4.486821174621582 -2.5919291973114014 -0.3306334614753723
-3.830878496170044 1.784902811050415 -0.7039780616760254
-6.4069952964782715 -0.769432008266449 0.7622814774513245
-8.32107162475586 -5.4260945320129395 1.8517239093780518
-2.861381769180298 -0.9460899829864502 -1.2557928562164307
-8.299790382385254 5.404788970947266 1.8396159410476685
-6.104222774505615 -0.3149952292442322 0.5899511575698853
-5.7173171043396 -0.7944629788398743 0.36973485350608826
-6.357283592224121 0.8156269788742065 2.398411989212036
-5.204927444458008 1.2738304138183594 0.07809692621231079
-6.301878452301025 -1.1482008695602417 2.387960195541382
-6.195583820343018 2.2693471908569336 0.6419534087181091
-6.955970287322998 1.120144009590149 1.5850774049758911
-6.591040134429932 1.1701273918151855 0.8670361638069153
-5.1077375411987305 -0.31141841411590576 0.022775523364543915
-6.963862895965576 4.297778606414795 1.079239845275879
-5.323160171508789 0.30264365673065186 0.1453898698091507
-5.451650142669678 2.8596315383911133 0.21852563321590424
-6.134472370147705 1.439391851425171 0.6071682572364807
-4.311183929443359 2.061319351196289 -0.4306011199951172
-3.372077226638794 -0.7385625839233398 -0.965117335319519
-5.578304767608643 -0.15718039870262146 2.510444164276123
-5.239321708679199 -0.4958147704601288 2.9068615436553955
-7.9151177406311035 4.016090393066406 1.6206694841384888
-4.280507564544678 2.3925890922546387 -0.11667832732200623
-3.9021878242492676 -0.5811672210693359 -0.6633906960487366
-6.204444408416748 -2.366145372390747 0.6469938158988953
-6.022210597991943 -2.650839328765869 0.5432714819908142
-6.30037260055542 -0.250956654548645 1.7099406719207764
-8.191864013671875 4.33645486831665 1.7781877517700195
-6.529721736907959 0.6199999451637268 1.5534048080444336
-6.381974697113037 0.447390079498291 0.7480412125587463
-6.809264183044434 1.386102318763733 2.1262192726135254
-4.861290454864502 -0.29511475563049316 -0.11749490350484848
-9.412429809570312 3.6551876068115234 3.9990031719207764
-7.441987037658691 -2.926076650619507 1.3513716459274292
-3.3180081844329834 -0.7599260807037354 -0.9958914518356323
-3.6699955463409424 -1.2219128608703613 -0.7955486178398132
-3.249551773071289 2.0467488765716553 -1.0348562002182007
-5.124789714813232 -0.5598987340927124 0.03248193860054016
-7.925321102142334 -5.3507304191589355 1.6264735460281372
-4.333410739898682 -0.6740233898162842 -0.41795095801353455
-7.555086612701416 1.5938966274261475 1.415746808052063
-6.071590423583984 0.441821813583374 0.5713780522346497
-5.846926212310791 -1.026868224143982 3.1037466526031494
-3.9621407985687256 0.9162614345550537 -0.6292678117752075
-6.272166728973389 0.17454102635383606 1.3948359489440918
-5.688047409057617 -2.9455080032348633 0.35307398438453674
-7.71495246887207 -3.184915781021118 1.5067369937896729
-6.746643543243408 0.9612709283828735 1.6651711463928223
-3.2626333236694336 0.5459189414978027 -1.0274109840393066
-7.8300065994262695 -3.8233489990234375 1.572222352027893
-6.938180923461914 1.636792778968811 1.0646191835403442
-5.773794174194336 1.0960842370986938 3.9192655086517334
-6.842426776885986 1.855198860168457 1.010119080543518
-5.156634330749512 -0.9479080438613892 0.05060654506087303
-4.8229169845581055 -0.5289623737335205 -0.13933655619621277
-6.874969959259033 -1.4826533794403076 1.0286401510238647
-4.315713882446289 -2.7282800674438477 -0.4280250370502472
-6.244735240936279 0.06169100105762482 1.3991358280181885
-6.890829086303711 -0.9413533210754395 1.0376677513122559
-4.930645942687988 -3.0496299266815186 -0.078018918633461
-5.221011161804199 -0.9160023927688599 0.08724990487098694
-4.541261196136475 -0.8213578462600708 -0.2996480464935303
-11.183627128601074 6.683719635009766 3.4810240268707275
-5.887204170227051 0.5961313247680664 0.4664304256439209
-2.7681939601898193 1.0847320556640625 -1.3088313341140747
-2.8612594604492188 -1.2225568294525146 -1.2558658123016357
-6.377837657928467 -1.332051157951355 2.9065914154052734
-5.922967433929443 0.9719401597976685 4.0272216796875
-7.667732238769531 -4.192918300628662 1.4798591136932373
-7.980839729309082 -4.06731653213501 1.6580729484558105
-7.1473708152771 -3.4278218746185303 1.183684229850769
-4.491986274719238 -0.9357250928878784 -0.3276933431625366
-5.666651248931885 0.42498335242271423 3.1656036376953125
-6.728234767913818 -1.2416609525680542 0.9451234936714172
-5.530077934265137 -0.9297835826873779 3.5786917209625244
-7.325298309326172 -2.127086639404297 1.2849557399749756
-3.986600637435913 2.359549045562744 -0.44965389370918274
-6.42850923538208 -0.962811291217804 1.6602661609649658
-6.763869285583496 -1.173794150352478 1.9433648586273193
-3.6888203620910645 -2.464045524597168 -0.7848367691040039
-4.68646764755249 -0.13491618633270264 -0.21699881553649902
-5.235125541687012 1.2546199560165405 0.09528318792581558
-10.218420028686523 6.036899566650391 2.931652069091797
-8.757829666137695 3.984529733657837 2.1003198623657227
-8.868590354919434 5.614291191101074 2.163363456726074
-3.6726367473602295 -0.16516733169555664 -0.7940483689308167
-7.4448981285095215 3.0626380443573 3.4624829292297363
-7.37959098815918 1.7197279930114746 2.5124170780181885
-5.819885730743408 0.9148047566413879 3.9474873542785645
-2.8252015113830566 0.525660514831543 -1.2763854265213013
-11.566548347473145 4.421230792999268 5.189971923828125
-4.281046390533447 0.17351603507995605 -0.44775480031967163
-2.4175405502319336 0.1823275089263916 -1.5084153413772583
-5.162164211273193 -0.1807178258895874 2.6615734100341797
-3.5230886936187744 -1.4374589920043945 -0.8791665434837341
-3.9124293327331543 -0.6779042482376099 -0.6575630903244019
-4.602997303009033 -2.0331382751464844 -0.26450973749160767
-4.876227378845215 0.4073258638381958 -0.10899218916893005
-3.453455924987793 -1.431598424911499 -0.9187988638877869
-7.587086200714111 -1.7564994096755981 1.4339581727981567
-6.755431652069092 0.5017781257629395 1.0872083902359009
-6.404238700866699 0.008942663669586182 0.7607128024101257
-3.8334901332855225 0.8523218631744385 -0.7024929523468018
-4.4093828201293945 2.253580093383789 -0.2090170532464981
-6.378840446472168 3.1452817916870117 0.7462587952613831
-3.4098262786865234 0.8932158946990967 -0.9436302781105042
-2.9150612354278564 -0.15175223350524902 -1.2252397537231445
-5.6420440673828125 0.6462204456329346 3.557002544403076
-6.244199752807617 1.1199092864990234 3.021777629852295
-7.458486080169678 -3.2459821701049805 1.3607637882232666
-11.644257545471191 -4.282175540924072 3.7431983947753906
-6.198179244995117 -2.247258424758911 0.6434288620948792
-6.102715969085693 1.0683867931365967 3.4239282608032227
-3.3416688442230225 2.060715436935425 -0.9824237823486328
-3.8033981323242188 0.9699690341949463 -0.7196189165115356
-7.72290563583374 -1.4032119512557983 1.5112643241882324
-4.44810152053833 -2.578474760055542 -0.3526715338230133
-8.325820922851562 3.372981309890747 2.2582337856292725
-6.223372936248779 1.811119556427002 3.7902438640594482
-6.9178547859191895 -0.9189842939376831 1.0530508756637573
-7.067015171051025 -4.214292526245117 1.1379470825195312
-6.523800373077393 1.0551056861877441 0.828764796257019
-3.287856101989746 1.276331901550293 -1.013054609298706
-7.70985746383667 2.9384043216705322 2.6751246452331543
-4.922521114349365 0.37885379791259766 -0.08264335989952087
-5.530696392059326 -0.7243987917900085 2.794318437576294
-5.297628402709961 0.8533799648284912 0.13085944950580597
-4.1979193687438965 -0.692778468132019 -0.4950697422027588
-4.74343729019165 0.7640222311019897 -0.18457235395908356
-4.757820129394531 -0.8383322954177856 -0.17638856172561646
-6.0173797607421875 0.08738543838262558 2.0135998725891113
-4.229331016540527 -2.5832157135009766 -0.47719207406044006
-6.392666816711426 -0.8714811205863953 1.342211365699768
-3.4274613857269287 0.5458614826202393 -0.9335961937904358
-5.502526760101318 -1.0802514553070068 0.24748066067695618
-4.073897838592529 2.2260515689849854 -0.565656304359436
-5.891404628753662 -0.8958299160003662 2.443286657333374
-5.899308204650879 2.2175216674804688 0.47332075238227844
-8.2388916015625 3.667158365249634 1.804952621459961
-3.84218692779541 0.7986164093017578 -0.697542667388916
-6.520112037658691 -1.3264141082763672 2.5467770099639893
-6.011326789855957 0.8959317207336426 0.5370776653289795
-6.166684627532959 -2.5202198028564453 0.6255025267601013
-2.509977102279663 0.9020144939422607 -1.4558008909225464
-5.186342716217041 2.397855520248413 0.0675174817442894
