-9.615118980407715 -4.328469753265381 1.9489747285842896
-4.613610744476318 -1.8310376405715942 -0.8977582454681396
-5.613128185272217 -0.38236963748931885 0.7568846344947815
-5.070597171783447 -0.6087610721588135 -0.6376515030860901
-7.804213523864746 -2.051764726638794 0.9182532429695129
-7.556582450866699 -4.990411758422852 0.7773061394691467
-3.1345932483673096 0.9196486473083496 -1.7395775318145752
-6.265918731689453 1.5486860275268555 0.042695578187704086
-13.760823249816895 -5.35709810256958 4.308605670928955
-7.745434761047363 0.9684515595436096 0.8847994208335876
-6.7330851554870605 3.5691990852355957 1.7551535367965698
-6.225497722625732 2.82650089263916 1.4662468433380127
-5.780314922332764 0.2517681419849396 -0.23369736969470978
-13.401020050048828 -5.311252117156982 4.103814125061035
-8.165763854980469 -1.5371811389923096 1.1240384578704834
-10.680277824401855 -3.5681819915771484 2.555237054824829
-10.644096374511719 -3.3505568504333496 2.534644365310669
-5.995984077453613 0.2513064742088318 1.3606953620910645
-5.207273483276367 -0.07043923437595367 -0.5598579049110413
-13.544095993041992 -3.5537307262420654 4.185251712799072
-7.810968399047852 -2.9579083919525146 0.9220987558364868
-4.961415767669678 -0.8254500031471252 -0.6997950077056885
-6.015725135803223 1.5335019826889038 0.668495237827301
-5.280916690826416 2.7828996181488037 -0.5179427266120911
-9.010835647583008 -3.2286524772644043 1.6050325632095337
-5.501513481140137 -0.7116905450820923 -0.3923838138580322
-6.516300201416016 1.3097752332687378 0.8805922269821167
-6.690243244171143 1.1997871398925781 1.8103126287460327
-5.724782466888428 3.9860925674438477 -0.26530367136001587
-12.549525260925293 -7.316318511962891 3.6191649436950684
-5.302103519439697 2.704705238342285 -0.5058825016021729
-6.817787170410156 -1.5214577913284302 0.35680460929870605
-6.924003601074219 4.177486419677734 1.8638194799423218
-7.620642185211182 1.2819585800170898 2.2603275775909424
-16.425823211669922 10.023608207702637 5.825463771820068
-3.3703930377960205 -1.530084252357483 -1.6053650379180908
-6.381008625030518 -0.7400003671646118 0.10820108652114868
-5.865056991577148 1.0282583236694336 -0.18546365201473236
-5.620459079742432 1.0717532634735107 1.0926179885864258
-10.113794326782227 -3.9957613945007324 2.232808828353882
-4.807421684265137 2.862616539001465 -0.7874447703361511
-6.616991996765137 -0.01836230605840683 0.24251846969127655
-6.626224040985107 -0.40992090106010437 2.061302661895752
-3.678337335586548 1.6718980073928833 -1.4300920963287354
-5.846176624298096 -2.191729784011841 -0.19621111452579498
-6.165121078491211 -0.16606925427913666 2.531176805496216
-12.827451705932617 -6.239468097686768 3.777352809906006
-8.918676376342773 -5.986551284790039 1.558028221130371
-6.245701789855957 3.5356621742248535 0.031189855188131332
-8.681297302246094 -5.118982315063477 1.4174662828445435
-15.246624946594238 -8.962676048278809 5.154285430908203
-4.838267803192139 1.4486054182052612 2.652458667755127
-7.598935604095459 0.42670872807502747 0.8014152646064758
-3.2799746990203857 1.3820092678070068 -1.656828761100769
-6.91408634185791 2.9367072582244873 1.858174204826355
-6.195173263549805 0.17748333513736725 1.3978512287139893
-6.112820148468018 2.3955891132354736 0.9217817187309265
-6.110649108886719 2.2924609184265137 -0.04567926377058029
-6.6042656898498535 1.2893624305725098 0.8640273809432983
-7.762882709503174 -2.184387683868408 0.8947290182113647
-8.01347827911377 -2.73378586769104 1.0373613834381104
-7.688394546508789 0.9357091784477234 0.8523329496383667
-5.1318817138671875 0.33429232239723206 -0.6027704477310181
-8.831811904907227 -2.452763795852661 1.5031379461288452
-7.043638229370117 -0.6730146408081055 0.48535242676734924
-3.632824659347534 -0.9869484305381775 -1.4559977054595947
-4.89028263092041 0.5441258549690247 0.9324007034301758
-6.544604778289795 1.4173855781555176 1.6478737592697144
-6.640263557434082 -1.3436163663864136 0.2557622790336609
-6.404638290405273 1.1441847085952759 1.5682088136672974
-7.102860927581787 2.939342737197876 0.5190635323524475
-16.824094772338867 3.7584731578826904 6.052146911621094
-7.3655595779418945 -0.8606930375099182 1.81295907497406
-7.629510402679443 0.844597339630127 2.3449201583862305
-6.92825174331665 4.558112144470215 0.419680118560791
-6.133241176605225 1.0887423753738403 1.4137358665466309
-6.638676166534424 0.7116972804069519 0.25486069917678833
-7.8636956214904785 5.366663455963135 0.9521124362945557
-6.085962772369385 0.9800438284873962 1.3868257999420166
-8.901116371154785 -2.602531909942627 1.5425827503204346
-5.024367332458496 0.5312748551368713 0.8034728765487671
-6.239109039306641 2.293196201324463 0.6257684230804443
-7.4921417236328125 1.6323188543319702 0.7406303882598877
-3.432727098464966 -0.9455950856208801 -1.5698856115341187
-5.40106201171875 -2.214035749435425 -0.44956058263778687
-8.340243339538574 -1.8760370016098022 1.2233490943908691
-14.403779983520508 4.094056129455566 4.891758441925049
-11.673316955566406 -1.3671681880950928 3.1204514503479004
-7.849444389343262 -3.4083125591278076 0.9439975023269653
-5.941522121429443 0.9029202461242676 -0.1419423520565033
-6.622363090515137 -1.2303720712661743 0.24557341635227203
-5.55412483215332 0.6007228493690491 -0.36243975162506104
-19.857210159301758 9.566879272460938 7.778523921966553
-6.043254375457764 2.3148276805877686 -0.08403857052326202
-6.409450531005859 0.247682586312294 0.12439034879207611
-7.516770839691162 0.02715694159269333 0.7546501159667969
-5.451711177825928 -0.011322781443595886 -0.42073094844818115
-14.393074035644531 4.136666297912598 4.8636016845703125
-6.303424835205078 0.3492160141468048 2.75772762298584
-7.7112650871276855 3.9348506927490234 2.3119094371795654
-6.835354804992676 0.286844938993454 0.36680325865745544
-4.899218559265137 -1.1679717302322388 -0.7351970672607422
-21.45762062072754 2.219700336456299 8.689436912536621
-13.9114351272583 -2.89687442779541 4.394331932067871
-5.165954113006592 0.48023083806037903 0.9700126051902771
-6.5449090003967285 3.407499074935913 0.9485188126564026
-11.118375778198242 -1.8448222875595093 2.8045923709869385
-8.172261238098145 2.912261962890625 2.574296474456787
-5.077617168426514 0.6229134202003479 -0.6336565613746643
-4.419948101043701 1.439199447631836 -1.0079843997955322
-4.946466445922852 -0.0026762038469314575 -0.7083039283752441
-5.182943344116211 -2.6377665996551514 -0.5737062096595764
-7.919508457183838 -3.799833059310913 0.98387610912323
-4.850423812866211 -2.327057123184204 -0.762970507144928
-5.645002365112305 2.7542266845703125 -0.31071317195892334
-6.2885050773620605 2.470137357711792 1.0734691619873047
-5.627646446228027 -3.1677820682525635 -0.32059329748153687
-6.146679401397705 0.0340079627931118 1.3702492713928223
-6.02092981338501 -0.20509938895702362 1.2986756563186646
-7.214510917663574 0.5830010175704956 0.5826101899147034
-4.932109832763672 0.8821843266487122 -0.7164743542671204
-7.763753414154053 -2.6493489742279053 0.8952239155769348
-6.483579158782959 -0.4489416480064392 1.8918564319610596
-3.987251043319702 1.437307357788086 -1.254263997077942
-3.1907873153686523 1.382298469543457 -1.7075951099395752
-6.30142068862915 2.4996182918548584 0.6482142210006714
-5.577172756195068 1.8672869205474854 -0.3493212163448334
-9.664323806762695 -1.8474147319793701 1.9769830703735352
-15.241599082946777 2.784710645675659 5.151429176330566
-8.184040069580078 1.4326130151748657 1.2583202123641968
-14.16698169708252 -8.890034675598145 4.539780139923096
-8.397540092468262 -1.9402693510055542 1.255960464477539
-6.885546684265137 -0.667369544506073 1.174283504486084
-5.89906644821167 -0.4760777950286865 0.6620591878890991
-19.439716339111328 -10.717138290405273 7.54088830947876
-3.9788129329681396 0.2544391453266144 -1.2590668201446533
-4.166345596313477 0.32058319449424744 -1.152329444885254
-4.578433990478516 -1.371505856513977 -0.917780339717865
-4.135107040405273 -1.358754277229309 -1.1701092720031738
-11.507265090942383 -7.537029266357422 3.0259363651275635
-4.789210796356201 1.6349527835845947 -0.797808051109314
-4.894056797027588 1.560764193534851 -0.738134503364563
-7.437673091888428 -5.015263080596924 0.7096277475357056
-3.5551068782806396 0.22890137135982513 -1.500232219696045
-13.111251831054688 -4.151578426361084 3.9388856887817383
-6.308345794677734 -0.7363722920417786 0.06684325635433197
-6.7020463943481445 4.3382391929626465 0.2909308671951294
-5.097167015075684 1.6388766765594482 -0.622529149055481
-4.744150638580322 -1.1912083625793457 -0.8234579563140869
-4.076161861419678 -0.9123995900154114 -1.2036627531051636
-5.493369102478027 -3.087779998779297 -0.39702290296554565
-5.3319010734558105 1.651111125946045 -0.488924503326416
-6.919300079345703 3.7675137519836426 1.940687894821167
-6.897592544555664 -2.9003310203552246 0.4022277593612671
-9.6925687789917 -2.353834390640259 1.9930585622787476
-4.058065414428711 -0.6037305593490601 -1.213959813117981
-5.148306369781494 -0.9589229226112366 -0.5934233069419861
-8.485250473022461 0.72416090965271 1.305884838104248
-18.966901779174805 7.4991912841796875 7.271780967712402
-6.391473770141602 1.3547035455703735 0.11415732651948929
-6.637004375457764 1.6125283241271973 0.25390830636024475
-8.01549243927002 3.4098076820373535 2.48506760597229
-5.182413101196289 -2.992429494857788 -0.5740111470222473
-5.654485702514648 0.40065690875053406 -0.30531734228134155
-7.035715103149414 -4.528824329376221 0.48084354400634766
-6.441385746002197 2.516832113265991 0.1425674855709076
-6.262752532958984 1.9634681940078735 0.040894798934459686
-4.648216247558594 0.471083402633667 -0.8780598640441895
-1.9227936267852783 0.28678035736083984 -1.0423974990844727
-8.60905933380127 -1.956246018409729 1.3763517141342163
-4.720099925994873 -1.294638752937317 -0.8371471762657166
-4.861645221710205 -2.0132620334625244 -0.7565820217132568
-8.109394073486328 -2.838597536087036 1.0919545888900757
-6.004472732543945 1.5285120010375977 1.1226460933685303
-7.295462608337402 0.9334055185317993 2.139448642730713
-14.745473861694336 -1.39203941822052 4.869045734405518
-8.066304206848145 -4.345800399780273 1.0674278736114502
-8.325202941894531 1.609360933303833 1.21479070186615
-8.99010944366455 -4.7089104652404785 1.593234658241272
-3.243347406387329 -0.8608666062355042 -1.6776760816574097
-8.803603172302246 -3.569047212600708 1.487080693244934
-8.113554954528809 1.48750638961792 1.0943241119384766
-9.446168899536133 -1.4734883308410645 1.8528141975402832
-15.648520469665527 2.820972204208374 5.383038520812988
-14.366597175598145 4.131770133972168 4.964447021484375
-7.4123406410217285 0.8434807658195496 0.6952117681503296
-7.911489009857178 1.2850658893585205 0.9793131947517395
-5.85874605178833 2.585359573364258 -0.18905572593212128
-14.538125991821289 -1.3665779829025269 4.7510294914245605
-7.646337509155273 -3.7138512134552 0.8283941149711609
-6.020352363586426 -0.3754987120628357 -0.09707590192556381
-12.349834442138672 -2.7781736850738525 3.505507230758667
-3.349423885345459 -1.340148687362671 -1.617302417755127
-5.594785213470459 -2.8729844093322754 -0.33929720520973206
-7.631263732910156 0.8406127095222473 2.446044921875
-6.5074663162231445 -0.021466249600052834 0.1801784187555313
-10.865089416503906 -5.0341901779174805 2.660426378250122
-6.823057174682617 0.13684745132923126 0.3598039150238037
-5.999902725219727 -0.2690960168838501 -0.10871438682079315
-6.603147029876709 3.26261830329895 0.4619576930999756
-6.603757381439209 1.1835637092590332 0.2349853813648224
-4.750781059265137 -0.6704690456390381 -0.8196830749511719
-6.365714073181152 0.12789630889892578 2.61934757232666
-5.34035587310791 -1.6734641790390015 -0.4841119349002838
-10.953079223632812 -4.02691125869751 2.710507869720459
-4.592108726501465 -0.41233915090560913 -0.9099953174591064
-13.998140335083008 1.8394109010696411 4.4436845779418945
-7.71481990814209 -1.8299630880355835 0.8673726320266724
-2.085639238357544 0.2260572910308838 -0.9297294020652771
-5.360894680023193 -2.8391666412353516 -0.47242236137390137
-7.651396751403809 -1.2735408544540405 0.8312758207321167
-6.157092094421387 0.20898526906967163 -0.01924671046435833
-4.07375431060791 2.610687255859375 -1.2050299644470215
-2.802028179168701 0.3351137340068817 -1.928863286972046
-6.570014476776123 0.024653533473610878 1.86830735206604
-5.884967803955078 -2.1037633419036865 -0.17413359880447388
-5.361006259918213 1.3880479335784912 1.8917959928512573
-7.158382415771484 -0.7174036502838135 0.5506612062454224
-8.682165145874023 -2.527331590652466 1.4179623126983643
-6.299357891082764 1.2155734300613403 1.547940969467163
-6.309760093688965 0.40604367852211 0.06764955818653107
-10.397290229797363 -3.1593339443206787 2.394167900085449
-4.820818901062012 1.9373699426651 -0.7798179984092712
-6.490828514099121 0.44409406185150146 1.1076515913009644
-12.994658470153809 -7.58312463760376 3.872523784637451
-11.019928932189941 -2.77783203125 2.748558282852173
-11.727741241455078 -7.558014869689941 3.151425838470459
-6.799468517303467 0.4462561309337616 0.3463791012763977
-4.432501792907715 -2.4168787002563477 -1.0008411407470703
-8.625740051269531 -4.062644004821777 1.385846495628357
-8.54042911529541 0.0712517648935318 1.3372902870178223
-7.21181058883667 -1.7008134126663208 0.5810719728469849
-5.354841709136963 -1.954403042793274 -0.4758668839931488
-15.727832794189453 5.5889892578125 5.428183078765869
-4.751674652099609 -2.8133797645568848 -0.8191753029823303
-5.253329753875732 -3.128507614135742 -0.5336456298828125
-6.550587177276611 -1.0620193481445312 0.2047213912010193
-6.448129177093506 3.5760228633880615 1.5929633378982544
-6.280016899108887 3.4813578128814697 1.1373966932296753
-6.27944278717041 1.3431010246276855 0.9885880351066589
-6.905930042266846 4.36406135559082 0.406975120306015
-14.297028541564941 4.259954452514648 4.9536590576171875
-14.443861961364746 5.397179126739502 4.697380065917969
-6.6128926277160645 3.4014852046966553 0.5132228136062622
-5.257526874542236 0.19535726308822632 -0.5312545895576477
-5.463939189910889 1.9775959253311157 -0.4137721061706543
-7.550487041473389 0.8293135166168213 0.7738406658172607
-2.770214557647705 0.16962765157222748 -1.9469707012176514
-6.904364585876465 -0.694380521774292 1.5227599143981934
-17.718402862548828 -10.646291732788086 6.561159610748291
-7.790946960449219 2.521815538406372 2.3572611808776855
-5.925588130950928 0.20133477449417114 -0.15101143717765808
-6.0057597160339355 -0.15307047963142395 1.2649279832839966
-14.32878303527832 4.228333950042725 4.884181022644043
-6.102248191833496 -1.3243707418441772 -0.05046053230762482
-6.732184886932373 -0.6831179857254028 0.9164639711380005
-6.961263179779053 0.3332774043083191 0.438468337059021
-4.6585869789123535 -1.8520874977111816 -0.8721574544906616
-10.59947681427002 -3.138298988342285 2.509247064590454
-6.7960638999938965 -0.685526430606842 1.3588062524795532
-6.032398223876953 1.0555351972579956 -0.09021735191345215
-6.927938461303711 4.3463921546936035 1.866059422492981
-6.908908367156982 -2.7156429290771484 0.4086682200431824
-6.31689453125 1.8811075687408447 1.518267273902893
-4.230829238891602 0.9111055731773376 -1.1156256198883057
-6.902636528015137 2.828303813934326 0.6029371023178101
-6.27207088470459 3.6564438343048096 1.1783418655395508
-3.4709866046905518 -1.897948145866394 -1.5481117963790894
-7.247598648071289 0.514047384262085 0.6014422178268433
-4.539151191711426 -2.7358155250549316 -0.9401369690895081
-7.799576282501221 -1.9872171878814697 0.9156143069267273
-7.497314929962158 5.238179683685303 0.7435781359672546
-6.664250373840332 -1.5486130714416504 0.26941439509391785
-6.272246837615967 2.4339778423309326 0.6409547328948975
-8.066941261291504 -3.275317668914795 1.0677911043167114
-6.3305840492248535 -1.7319705486297607 0.07950105518102646
-3.1293978691101074 -0.3358725905418396 -1.7425345182418823
-6.750481605529785 -1.2385798692703247 0.3184957206249237
-10.690791130065918 -3.9697117805480957 2.56122088432312
-6.411681175231934 3.556980609893799 0.9433121681213379
-7.385678291320801 1.462538719177246 0.6800349950790405
-7.670260906219482 1.6659374237060547 0.8420127034187317
-4.382473945617676 -2.123196601867676 -1.02931547164917
-6.031742095947266 0.995520293712616 -0.09059329330921173
-11.422316551208496 -7.330465316772461 2.977586269378662
-7.682733058929443 -3.9656946659088135 0.8491083979606628
-5.352458477020264 -3.2364587783813477 -0.4772246778011322
-6.626073360443115 -0.7270777225494385 0.24768660962581635
-7.693812847137451 3.4545092582702637 3.565337657928467
-3.4844322204589844 -0.9404333829879761 -1.5404585599899292
-5.482670783996582 1.2512695789337158 -0.40310853719711304
-8.201176643371582 -1.122254729270935 1.1441950798034668
-8.009688377380371 -0.8977218270301819 1.0352046489715576
-4.798860549926758 -1.8579837083816528 -0.7923180460929871
-7.155336380004883 -4.105034351348877 0.5489274263381958
-1.967652440071106 -0.1075974702835083 -1.012399435043335
-16.280296325683594 -4.707993030548096 5.7426276206970215
-8.077116966247559 0.05878652632236481 1.073585033416748
-11.918464660644531 -3.1786091327667236 3.2599825859069824
-5.702054977416992 -0.33027637004852295 0.5503672361373901
-7.395921230316162 2.910797119140625 0.685865581035614
-5.668079376220703 -1.338832974433899 -0.2975824773311615
-7.795473098754883 -1.3774980306625366 0.9132789969444275
-3.1843903064727783 1.189074993133545 -1.7112319469451904
-5.671093940734863 -0.2294602245092392 -0.295864075422287
-5.166110992431641 2.5933144092559814 -0.583286702632904
-4.879730701446533 -1.3499674797058105 -0.7462881803512573
-3.449216604232788 0.935063362121582 -1.5605002641677856
-6.543048858642578 3.8559958934783936 1.6881654262542725
-6.177032947540283 0.22056396305561066 2.9128921031951904
-8.786211967468262 -5.9720001220703125 1.4771803617477417
-4.814614772796631 1.4074357748031616 -0.7833513617515564
-3.662440538406372 -0.8828580379486084 -1.4391376972198486
-6.206281661987305 3.2522926330566406 1.3135666847229004
-6.441882610321045 2.003586769104004 1.5894075632095337
-5.173620223999023 -2.2055623531341553 -0.5790149569511414
-5.566376686096191 -0.36210766434669495 0.6708803176879883
-10.220853805541992 -2.57204270362854 2.2937450408935547
-6.809747695922852 1.3192412853240967 0.3522289991378784
-6.738240718841553 0.45783162117004395 0.3115294873714447
-6.683751583099365 -0.4796837568283081 1.9924168586730957
-6.688204288482666 -0.22444134950637817 0.2830497920513153
-7.782397747039795 1.3802310228347778 0.905837893486023
-5.111321926116943 -3.497567892074585 -0.6144756078720093
-5.858124732971191 -0.18287114799022675 3.3601481914520264
-6.813785076141357 2.5858657360076904 0.3545285165309906
-5.165239334106445 0.6449209451675415 -0.5837817192077637
-9.195839881896973 -3.2025110721588135 1.710331678390503
-7.844656944274902 -3.521580696105957 0.9412724375724792
-6.221954345703125 2.5292577743530273 0.8791018724441528
-9.997109413146973 -6.447885036468506 2.166393518447876
-16.628015518188477 10.102042198181152 5.940547943115234
-7.791445732116699 -2.8043253421783447 0.9109855890274048
-10.124750137329102 -1.497260570526123 2.239046812057495
-6.318636894226074 0.04576736316084862 1.2558555603027344
-4.808774471282959 1.2251160144805908 -0.7866746187210083
-10.817155838012695 -2.636337995529175 2.6331450939178467
-4.524064064025879 -1.281972050666809 -0.9487258791923523
-5.480335712432861 -3.4863858222961426 -0.4044392704963684
-6.135798454284668 0.37678632140159607 3.0677711963653564
-5.811955451965332 1.298060655593872 1.2308677434921265
-5.884554862976074 -0.1018926352262497 -0.17436674237251282
-5.293031215667725 0.4588920474052429 0.9321202039718628
-6.012961387634277 3.180743932723999 -0.10127966850996017
-10.204865455627441 -4.630634784698486 2.2846436500549316
-2.7680368423461914 0.07857517898082733 -1.9482147693634033
-14.341464042663574 5.601311683654785 4.639096260070801
-10.74964714050293 -1.0189800262451172 2.5947213172912598
-7.4072136878967285 0.4427940249443054 0.6922919750213623
-3.870882034301758 -0.5752618312835693 -1.3205013275146484
-7.312376499176025 0.46108123660087585 0.6383141279220581
-6.232316493988037 3.06154727935791 1.0144590139389038
-6.153253555297852 0.40309005975723267 3.153489112854004
-6.38978385925293 2.0583033561706543 0.24944308400154114
-6.753901481628418 1.1789876222610474 0.320443332195282
-7.5742669105529785 0.6683906316757202 0.7873756289482117
-4.833563327789307 -1.9455305337905884 -0.7725663781166077
-15.01451587677002 6.739290237426758 5.022180557250977
-5.010566711425781 0.6285403370857239 -0.6718194484710693
-9.850152015686035 -4.81233024597168 2.0827507972717285
-6.209187984466553 0.06860214471817017 0.010405270382761955
-5.975417137145996 -2.9277148246765137 -0.12265323847532272
-7.881311416625977 -1.3016332387924194 0.9621359705924988
-6.244912147521973 3.2043535709381104 1.0626574754714966
-7.05381441116333 0.569146990776062 1.9377028942108154
-7.146683216094971 4.794590473175049 0.5440071225166321
-6.098811626434326 -0.9963138103485107 -0.05241778865456581
-13.899240493774414 -8.698707580566406 4.387388706207275
-6.233227252960205 2.7211575508117676 1.0233815908432007
-9.439125061035156 -6.020336627960205 1.8488028049468994
-7.703958511352539 -2.1226022243499756 0.8611889481544495
-15.134661674499512 -1.5175760984420776 5.090561866760254
-5.991970062255859 3.092686891555786 -0.11322793364524841
-5.919381141662598 0.11944562196731567 3.497380256652832
-9.40046501159668 -2.166293144226074 1.8268001079559326
-4.488144397735596 -1.2579265832901 -0.9691706299781799
-10.874509811401367 -4.6918559074401855 2.665788412094116
-10.604947090148926 -0.7002900242805481 2.5123627185821533
-7.838704586029053 0.327716588973999 0.9378864765167236
-5.786810398101807 -0.4136868715286255 0.7116246223449707
-14.59320068359375 4.57742977142334 4.782379150390625
-10.339667320251465 -0.8162918090820312 2.3613710403442383
-19.287826538085938 2.9359517097473145 7.454442024230957
-7.615581512451172 -1.1688847541809082 0.8108896613121033
-5.671525478363037 1.3303492069244385 1.130246639251709
-3.3489553928375244 1.2686057090759277 -1.617567539215088
-5.786556243896484 -0.44169560074806213 -0.2301466166973114
-4.934974193572998 0.6237825155258179 0.9691469669342041
-6.166484832763672 1.4942233562469482 0.5292304754257202
-9.839750289916992 -2.8546154499053955 2.076829671859741
-5.960526466369629 -0.5959903597831726 -0.13112640380859375
-6.5616455078125 -0.4038568437099457 1.9964759349822998
-9.278374671936035 -1.1869415044784546 1.757309913635254
-5.864138603210449 0.33812451362609863 3.4260950088500977
-4.749489784240723 -0.17407257854938507 -0.820418119430542
-8.988201141357422 -3.191011905670166 1.592149019241333
-6.272213459014893 1.357017993927002 0.8858000040054321
-9.343591690063477 -2.370539665222168 1.7944289445877075
-6.552303314208984 1.2973906993865967 0.9370785355567932
-6.1481828689575195 3.190183639526367 1.2803882360458374
-9.504436492919922 -1.348449945449829 1.8859785795211792
-14.239303588867188 2.956854820251465 4.580948352813721
-4.002005577087402 -2.2831671237945557 -1.2458688020706177
-9.005350112915039 -5.642914772033691 1.601908802986145
-14.239508628845215 4.31815242767334 4.994327068328857
-11.100329399108887 -2.87011981010437 2.794320583343506
-20.0537052154541 -9.095498085021973 7.890354633331299
-7.819652557373047 0.9896543025970459 0.92704176902771
-7.060122966766357 -0.7603680491447449 1.6376863718032837
-3.6147730350494385 1.0531312227249146 -1.4662702083587646
-8.44365406036377 -3.070235252380371 1.2822070121765137
-16.83266830444336 -9.814947128295898 6.0570220947265625
-7.928797721862793 -3.998872995376587 0.9891629219055176
-4.729912281036377 2.064974069595337 -0.8315604329109192
-4.828158855438232 0.1982232630252838 -0.775641679763794
-6.4235639572143555 0.12311412394046783 1.0677582025527954
-6.166982173919678 -4.017138481140137 -0.013617640361189842
-9.812639236450195 -4.732000827789307 2.061398506164551
-6.284162998199463 -0.22691543400287628 2.292468309402466
-5.1144232749938965 -0.8866319060325623 -0.6127064228057861
-6.043132781982422 -2.2320668697357178 -0.08410876989364624
-5.392105579376221 3.735203266143799 -0.45465609431266785
-8.26342487335205 -4.925012588500977 1.179624080657959
-6.215908050537109 1.516884446144104 0.452575147151947
-7.482607364654541 3.613046407699585 2.261308193206787
-12.55057430267334 -2.971686840057373 3.619763135910034
-10.298224449157715 -1.980889081954956 2.337782144546509
-3.4942595958709717 1.4469413757324219 -1.534862756729126
-6.971253871917725 0.5091242790222168 1.8907113075256348
-6.063407897949219 3.3781774044036865 -0.0725674107670784
-11.400125503540039 -6.477224349975586 2.9649550914764404
-4.036816120147705 1.7708628177642822 -1.2260538339614868
-6.274169921875 -2.1192967891693115 0.04738935828208923
-6.479529857635498 3.7191264629364014 0.9039613604545593
-11.678377151489258 -7.13914680480957 3.1233277320861816
-6.3071489334106445 -0.5482549667358398 1.0786410570144653
-5.3326592445373535 3.2517497539520264 -0.4884917438030243
-5.181307792663574 0.07063107192516327 -0.574638307094574
-4.0403594970703125 -2.471670389175415 -1.2240389585494995
-4.008645534515381 -0.6894599199295044 -1.2420868873596191
-12.837557792663574 -4.786490440368652 3.783107280731201
-7.28677225112915 0.6017711162567139 0.6237396597862244
-6.123762130737305 3.953155279159546 1.7450628280639648
-3.748011589050293 0.5967787504196167 -1.390433669090271
-9.466519355773926 -6.05316162109375 1.864395022392273
-6.610779285430908 3.3489086627960205 0.49104416370391846
-4.287684440612793 2.190154552459717 -1.0832656621932983
-5.829890251159668 -0.600712776184082 -0.20548155903816223
-5.728959083557129 1.4997587203979492 1.1127686500549316
-5.788243293762207 0.2071877121925354 -0.22918537259101868
-10.0257568359375 -6.479254245758057 2.1827001571655273
-6.04020357131958 -0.3098940849304199 1.385099172592163
-3.931173086166382 1.0713191032409668 -1.2861826419830322
-7.656076431274414 2.1856586933135986 2.2804958820343018
-8.207117080688477 3.3207244873046875 2.594135284423828
-6.7930498123168945 1.6174559593200684 1.7892825603485107
-14.339068412780762 4.279021263122559 4.810725688934326
-3.4448766708374023 -0.5949100255966187 -1.562971591949463
-5.6424241065979 -2.2387795448303223 -0.3121837377548218
-5.816092014312744 -3.331716775894165 -0.21333664655685425
-8.2474365234375 -5.334280967712402 1.1705242395401
-4.089317798614502 0.12986932694911957 -1.1961709260940552
-4.5176262855529785 -1.7158143520355225 -0.9523904919624329
-4.154096603393555 2.4946515560150146 -1.159300684928894
-4.039275169372559 0.8538597822189331 -1.2246534824371338
-6.556277751922607 -4.2088942527771 0.20795859396457672
-14.469717025756836 4.299865245819092 5.767873764038086
-3.3223094940185547 -0.5438105463981628 -1.6327358484268188
-5.69727897644043 1.4308462142944336 1.1344906091690063
-9.055793762207031 -3.304274559020996 1.6306217908859253
-11.026444435119629 -6.1012444496154785 2.752265691757202
-6.1669111251831055 -0.19595734775066376 1.3817646503448486
-7.869089603424072 -3.728274345397949 0.95517897605896
-6.931020259857178 1.3765281438827515 1.867812156677246
-8.331273078918457 0.26473233103752136 1.2182430028915405
-14.267239570617676 4.223710536956787 5.043605327606201
-6.214800834655762 -0.9364613890647888 0.013600670732557774
-10.00532054901123 -1.1590708494186401 2.1710708141326904
-10.78459644317627 -6.468517303466797 2.6146116256713867
-5.660008430480957 -0.14218269288539886 -0.3021725118160248
-6.876622676849365 -0.7557852864265442 0.3902911841869354
-6.8070526123046875 2.6767048835754395 0.3506959080696106
-5.0534563064575195 2.5244076251983643 -0.647406280040741
-8.943071365356445 -3.116231918334961 1.5664634704589844
-7.169958591461182 1.4095500707626343 0.5572533011436462
-7.116146087646484 0.1842302531003952 0.5266237854957581
-15.890604972839355 -9.31923770904541 5.520823001861572
-6.3094916343688965 2.285125732421875 0.502212405204773
-6.723299980163574 2.1945254802703857 1.749583125114441
-6.170033931732178 1.773424744606018 -0.01187831349670887
-8.631196022033691 -2.457195281982422 1.3889509439468384
-5.572885513305664 -3.599883556365967 -0.3517622649669647
-8.054289817810059 1.5314851999282837 1.0605922937393188
-4.990909576416016 1.858780860900879 -0.683007538318634
-6.181800365447998 1.7225011587142944 1.441374659538269
-6.5184125900268555 0.45935577154159546 0.1864086389541626
-12.415719985961914 -7.066015243530273 3.543006420135498
-10.386116981506348 -0.7619798183441162 2.3878090381622314
-6.013854503631592 0.03904661536216736 -0.10077368468046188
-14.330848693847656 4.059004306793213 5.102755546569824
-2.9141411781311035 0.720691442489624 -1.8650521039962769
-8.442117691040039 -0.20160235464572906 1.2813334465026855
-7.7232279777526855 3.125405788421631 2.3187174797058105
-6.085330963134766 1.0623887777328491 1.3864667415618896
-7.979264736175537 -1.0524731874465942 1.0178883075714111
-4.846553325653076 2.3070173263549805 -0.7651702761650085
-10.1669340133667 -6.419572353363037 2.2630538940429688
-5.9946088790893555 -0.06246338412165642 2.9143459796905518
-7.777770042419434 -3.158540725708008 0.9032033085823059
-4.1913652420043945 0.02853010594844818 -1.1380895376205444
-4.672011375427246 1.826898217201233 -0.8645159602165222
-6.942772388458252 -1.0976396799087524 0.42794275283813477
-6.397302150726318 0.0026801638305187225 1.9476747512817383
-12.110477447509766 -2.21722674369812 3.3692715167999268
-8.615365982055664 -0.2996498644351959 2.0282862186431885
-6.519473075866699 0.607892632484436 0.18701264262199402
-6.23806095123291 2.7164008617401123 0.9281401038169861
-8.376252174377441 0.42109814286231995 1.243844747543335
-4.119613170623779 -0.3575214445590973 -1.1789277791976929
-5.501049518585205 -2.6589560508728027 -0.392650306224823
-16.9119815826416 -7.666632652282715 6.102166175842285
-18.309654235839844 -2.754366874694824 6.897688388824463
-16.14011001586914 1.427975058555603 5.662841320037842
-8.390013694763184 -2.389958381652832 1.2516767978668213
-6.575018882751465 3.4970321655273438 0.7134062051773071
-6.439186096191406 -0.12060302495956421 0.1413160264492035
-3.8312785625457764 -0.9901226758956909 -1.3430413007736206
-6.165747165679932 -0.7861319184303284 -0.01432079914957285
-6.118876934051514 3.163058042526245 -0.04099677503108978
-4.2356038093566895 1.7867512702941895 -1.1129074096679688
-14.380790710449219 4.194069862365723 4.817596435546875
-14.355117797851562 4.201266765594482 4.912498474121094
-4.997086524963379 3.194049596786499 -0.6794900894165039
-6.7930216789245605 0.6253867149353027 0.34271109104156494
-6.825588703155518 -1.1004916429519653 0.3612447679042816
-6.406984806060791 0.6553171873092651 0.12298722565174103
-5.545379638671875 -3.896780014038086 -0.36741897463798523
-7.172152042388916 -1.3513025045394897 0.5585014224052429
-5.932925224304199 2.039742946624756 1.069352149963379
-6.856339454650879 0.2334376573562622 0.3787476420402527
-6.077454090118408 1.8960585594177246 0.6757581233978271
-8.33930492401123 -1.5468039512634277 1.222814917564392
-7.0160956382751465 4.265854358673096 1.916236162185669
-8.357691764831543 -2.0217843055725098 1.2332793474197388
-14.236250877380371 4.073845386505127 5.2535600662231445
-7.290985584259033 -2.8643546104431152 0.626137375831604
-16.50136375427246 -1.1145340204238892 5.86845588684082
-6.436190128326416 -2.8534717559814453 0.13960771262645721
-5.331977367401123 3.6916239261627197 -0.4888785779476166
-5.855112075805664 1.286473035812378 1.2554315328598022
-5.101001739501953 -0.799616277217865 -0.6203473806381226
-6.5465006828308105 0.9186522960662842 1.6489524841308594
-10.750777244567871 -2.5903613567352295 2.595365285873413
-14.310681343078613 4.163325786590576 5.029942512512207
-10.549474716186523 -6.8268513679504395 2.4807863235473633
-6.3508620262146 1.3327807188034058 0.9487530589103699
-16.39055633544922 -5.980579853057861 5.805383682250977
-1.7421691417694092 -0.019613010808825493 -1.1870779991149902
-6.575361251831055 0.052676670253276825 0.21882322430610657
-4.174986362457275 -1.424453854560852 -1.1474143266677856
-3.7953994274139404 -0.7486184239387512 -1.3634623289108276
-5.0149383544921875 -3.1505014896392822 -0.6693331003189087
-8.205877304077148 -2.1920056343078613 1.1468700170516968
-4.935640335083008 -1.1853069067001343 -0.7144652009010315
-5.93855094909668 2.2743656635284424 1.3029234409332275
-7.6266374588012695 -1.5047211647033691 0.8171830773353577
-6.149488925933838 2.7921206951141357 1.0986939668655396
-6.56385612487793 3.008218288421631 0.21227581799030304
-5.5965189933776855 -0.1829177886247635 3.8111391067504883
-7.906773090362549 1.2340686321258545 0.9766296744346619
-7.798058986663818 -3.338063955307007 0.914750337600708
-6.887494087219238 -1.9770387411117554 0.3964794874191284
-4.9694294929504395 0.5297629237174988 0.912540078163147
-10.833792686462402 -4.98573637008667 2.6426138877868652
-6.044447898864746 0.38144978880882263 1.646416425704956
-6.057951927185059 0.41585788130760193 -0.07567307353019714
-10.456257820129395 -5.582653522491455 2.4277303218841553
-4.480921745300293 1.9476163387298584 -0.9732810258865356
-4.746004104614258 -2.536579132080078 -0.8224021196365356
-6.100591659545898 2.004711151123047 0.6577095985412598
-7.7118916511535645 -1.9610068798065186 0.8657059669494629
-5.449799537658691 3.0268449783325195 -0.4218186140060425
-9.94543743133545 -3.2693169116973877 2.136986017227173
-11.120981216430664 -5.927826881408691 2.806074619293213
-5.863162517547607 1.4933034181594849 0.8406314253807068
-9.100626945495605 -3.3805153369903564 1.6561400890350342
-5.561051368713379 -0.05076354742050171 3.9073736667633057
-9.58759593963623 -5.171026706695557 1.933309555053711
-3.2705745697021484 0.20570997893810272 -1.6621767282485962
-12.848526954650879 -4.49269437789917 3.7893505096435547
-5.224706172943115 0.43597570061683655 -0.5499378442764282
-7.155355453491211 -0.9869049787521362 0.54893958568573
-8.138460159301758 5.636389255523682 1.1085025072097778
-6.059154987335205 -0.3322887420654297 1.5376468896865845
-5.268714427947998 0.6381446123123169 -0.43521448969841003
-7.259849548339844 -0.10542897880077362 0.6084152460098267
-2.911825180053711 0.03903268277645111 -1.8663705587387085
-6.726207733154297 -0.9330997467041016 0.30467936396598816
-10.59743595123291 -1.357751727104187 2.508087635040283
-6.540665626525879 3.0072648525238037 0.44597768783569336
-14.255464553833008 4.194261074066162 5.094850063323975
-7.081254959106445 -4.953560829162598 0.5067630410194397
-4.020571708679199 -0.8345232009887695 -1.2352992296218872
-7.319503307342529 -4.238872051239014 0.6423677802085876
-3.824734687805176 -1.94232976436615 -1.346766710281372
-14.236686706542969 4.1639084815979 5.159343719482422
-6.307997226715088 -0.11693418025970459 1.1525830030441284
-9.36498737335205 -3.3760344982147217 1.806606650352478
-4.538827896118164 2.6358320713043213 -0.940319836139679
-14.308064460754395 3.72457218170166 5.441537857055664
-14.245237350463867 4.437443256378174 4.813975811004639
-6.259134769439697 -0.3121459186077118 2.417823553085327
-7.042537212371826 -2.8867759704589844 0.4847255051136017
-4.763375759124756 -1.7868300676345825 -0.812516450881958
-7.262582778930664 0.44432613253593445 0.609971284866333
-15.773394584655762 -7.848862171173096 5.4541096687316895
-7.664974689483643 4.721982002258301 2.285562515258789
-17.331758499145508 1.0342506170272827 6.341096878051758
-7.110285758972168 0.38545265793800354 0.5232887864112854
-9.887531280517578 -4.892521858215332 2.104025363922119
-3.5452888011932373 0.7307097911834717 -1.5058178901672363
-5.7588090896606445 -1.4753977060317993 -0.2459394782781601
-7.737590312957764 -2.7377443313598633 0.8803328275680542
-9.385727882385254 -3.88808012008667 1.818411946296692
-15.395231246948242 -8.597053527832031 5.2388691902160645
-7.735054016113281 1.397331714630127 0.8788913488388062
-3.6960794925689697 -1.961105227470398 -1.419995665550232
-13.977937698364258 4.845213413238525 4.432186603546143
-6.714315414428711 -0.13630710542201996 0.2979116141796112
-6.849057674407959 2.9864449501037598 1.8211615085601807
-6.169704437255859 -1.7104312181472778 -0.012069148942828178
-7.748277187347412 -1.394693374633789 0.8864158391952515
-6.700760841369629 0.15978452563285828 2.020845651626587
-11.651336669921875 -3.8950917720794678 3.1079390048980713
-11.597575187683105 -6.920950889587402 3.077338695526123
-4.65136194229126 0.4183148145675659 -0.8762702941894531
-7.189230442047119 -0.8193629384040833 1.7116621732711792
-6.110441207885742 2.1959197521209717 0.8046073317527771
-6.854145526885986 -4.14644193649292 0.3774976134300232
-6.824438571929932 -2.776252508163452 0.3605896830558777
-5.968137741088867 0.0630214735865593 -0.12679451704025269
-5.665073871612549 0.7922423481941223 1.1472667455673218
-6.016452789306641 -1.7225762605667114 -0.09929449111223221
-2.9248592853546143 0.12545190751552582 -1.858954906463623
-6.299116611480713 0.11655021458864212 1.8513810634613037
-9.439976692199707 -4.270248889923096 1.8492881059646606
-6.674001693725586 -4.473931312561035 0.27496376633644104
-6.5422492027282715 -1.017822027206421 0.19997644424438477
-6.729919910430908 3.2406280040740967 0.3067943751811981
-4.600242614746094 0.6189530491828918 -0.9053661227226257
-8.264328956604004 -0.3885793387889862 1.1801397800445557
-7.635879993438721 -1.572977066040039 0.8224424123764038
-6.357777118682861 2.6993706226348877 0.7368119955062866
-8.281094551086426 0.841455340385437 1.1896823644638062
-9.288191795349121 -3.192018508911133 1.7628968954086304
-5.288273334503174 -2.3056650161743164 -0.5137566328048706
-7.646615982055664 0.8685184717178345 0.8285545706748962
-4.440974235534668 1.7424565553665161 -0.9960171580314636
-4.741384029388428 -0.005461975932121277 -0.8250327110290527
-16.757781982421875 -4.395070552825928 6.014399528503418
-5.1936211585998535 1.9881339073181152 -0.5676270723342896
-11.25071907043457 -2.447706937789917 2.8799185752868652
-7.6420464515686035 -4.276423931121826 0.8259495496749878
-6.571879863739014 -0.9834639430046082 0.21684063971042633
-6.749510288238525 -2.4195988178253174 0.31794247031211853
-5.327056407928467 -3.7267208099365234 -0.49168336391448975
-4.05822229385376 1.4216463565826416 -1.213869333267212
-3.0431199073791504 0.550340473651886 -1.791641354560852
-6.390259742736816 0.30124542117118835 1.2139962911605835
-8.458125114440918 4.892359733581543 3.0087907314300537
-3.6174397468566895 -0.9247633218765259 -1.4647531509399414
-11.422374725341797 -4.849920749664307 2.9776196479797363
-5.777133464813232 1.5879255533218384 -0.2355077713727951
-4.550415992736816 -0.49393153190612793 -0.9337263703346252
-5.6216139793396 0.9793094396591187 -0.3240261375904083
-4.141486644744873 -1.4860478639602661 -1.166481375694275
-14.210132598876953 4.281092643737793 5.084400653839111
-5.919859409332275 0.976523756980896 1.2922836542129517
-5.626696586608887 1.0711110830307007 -0.32113388180732727
-5.340789318084717 1.9476890563964844 -0.48386451601982117
-11.34875774383545 -5.80770206451416 2.935718297958374
-6.089725017547607 0.9751980304718018 -0.057589296251535416
-8.924555778503418 -3.552234649658203 1.5559242963790894
-3.8583552837371826 0.3568418323993683 -1.3276299238204956
-6.957732200622559 -0.6825793385505676 1.1736767292022705
-11.006088256835938 -6.1437859535217285 2.7406790256500244
-6.539947986602783 0.3828173875808716 0.1986667811870575
-4.8343915939331055 -2.9632155895233154 -0.7720941305160522
-6.090598106384277 -0.09312637150287628 -0.057093266397714615
-8.282316207885742 -3.1174087524414062 1.1903773546218872
-6.124722480773926 2.8359882831573486 1.0331729650497437
-3.5869691371917725 1.6520224809646606 -1.4820952415466309
-5.942529201507568 -2.773066997528076 -0.14137223362922668
-4.828230381011963 -1.514926552772522 -0.775601863861084
-3.654270887374878 0.12122498452663422 -1.4437878131866455
-18.243375778198242 9.050930976867676 6.8599700927734375
-6.456417083740234 4.551296710968018 0.1511242538690567
-8.311829566955566 -0.2802340090274811 1.207176923751831
-5.214656352996826 0.7106107473373413 -0.5556564927101135
-10.578941345214844 -6.85666561126709 2.4975571632385254
-5.724519729614258 0.2716643810272217 -0.26545438170433044
-10.066655158996582 -4.154932975769043 2.2059781551361084
-7.880138874053955 -3.927518606185913 0.9614667296409607
-3.2771575450897217 -0.6753870844841003 -1.6584357023239136
-5.404036521911621 1.3963720798492432 1.7471119165420532
-6.595165252685547 1.3772019147872925 0.23009535670280457
-6.01276969909668 -0.001993621699512005 2.9116079807281494
-6.059176921844482 1.687193751335144 0.6475342512130737
-6.642210006713867 3.5026330947875977 0.511527419090271
-15.012401580810547 -9.323326110839844 5.020971775054932
-3.61765193939209 -1.860817551612854 -1.464633584022522
-4.147348403930664 0.23753707110881805 -1.1631414890289307
-8.120884895324707 -1.9838625192642212 1.0984948873519897
-6.3660664558410645 -0.3286183476448059 0.9463121294975281
-10.783878326416016 -0.9118021130561829 2.614203691482544
-4.661490440368652 2.11405611038208 -0.8705040216445923
-8.036934852600098 -0.0796767920255661 1.0507146120071411
-6.267989635467529 -3.838472366333008 0.04387335479259491
-3.9555437564849854 -1.2534053325653076 -1.2723156213760376
-7.742255210876465 -1.991041898727417 0.8829885125160217
-7.209044456481934 2.4063782691955566 2.0260567665100098
-7.117138385772705 0.09080851823091507 0.5271883010864258
-6.28907585144043 2.3837215900421143 0.055876679718494415
-5.267422676086426 -1.8263773918151855 -0.5256256461143494
-9.705046653747559 -1.6915333271026611 2.00016188621521
-5.0771284103393555 2.8477537631988525 -0.6339321136474609
-4.402250289916992 -1.6188410520553589 -1.0180573463439941
-6.228625774383545 0.3401655852794647 2.8097102642059326
-11.9587984085083 -4.867640495300293 3.2829389572143555
-6.352203369140625 -0.29467326402664185 0.9873846769332886
-11.587297439575195 -7.480104923248291 3.071488618850708
-5.628678321838379 0.6102778315544128 -0.32000598311424255
-6.632091522216797 1.1765789985656738 1.2201900482177734
-7.757306098937988 -2.8901572227478027 0.8915544748306274
-21.020923614501953 2.1693341732025146 8.440877914428711
-6.542850017547607 -4.032589912414551 0.20031744241714478
-6.456633567810059 0.41379785537719727 1.152809500694275
-5.409658908843994 0.023981615900993347 -0.4446655213832855
-4.478413105010986 2.9503912925720215 -0.9747058153152466
-7.509464740753174 -4.185554027557373 0.7504891753196716
-6.177885055541992 0.8928888440132141 1.439145565032959
-4.080596923828125 1.2789379358291626 -1.2011343240737915
-7.2421159744262695 0.9037216901779175 3.1027486324310303
-14.966004371643066 -5.742213726043701 4.994565963745117
-12.248147964477539 -1.479803204536438 3.447631359100342
-8.274253845214844 0.4246579706668854 1.1857894659042358
-5.2967329025268555 1.0515682697296143 -0.5089390873908997
-14.211132049560547 4.34694766998291 5.01430606842041
-4.387601375579834 -1.2918401956558228 -1.0263968706130981
-6.410888671875 -3.913684368133545 0.12520617246627808
-6.879868030548096 1.4484363794326782 1.8386973142623901
-3.488856077194214 -1.318955421447754 -1.5379406213760376
-4.447010040283203 -1.9325995445251465 -0.992582380771637
-5.126835346221924 0.5850358009338379 1.0717066526412964
-1.889604926109314 -0.12451350688934326 -1.0665245056152344
-6.655947685241699 -0.6357364654541016 0.2646901607513428
-4.541579246520996 0.21489043533802032 -0.9387545585632324
-8.73630428314209 -2.78676700592041 1.4487758874893188
-7.268684387207031 -0.15492279827594757 0.6134455800056458
-14.275829315185547 4.0886759757995605 5.16863489151001
-6.163678169250488 1.7058641910552979 0.4731258749961853
-11.415867805480957 -1.501712441444397 2.973917245864868
-8.182429313659668 -4.3636884689331055 1.1335242986679077
-4.904672145843506 1.482303261756897 2.552384376525879
-8.060293197631836 -2.671931028366089 1.0640075206756592
-6.251828670501709 -3.3548710346221924 0.034673772752285004
-5.362958908081055 -1.5717953443527222 -0.47124868631362915
-13.036626815795898 -7.662619113922119 3.8964109420776367
-6.471468925476074 3.0256741046905518 0.5718940496444702
-6.795413017272949 -0.9447544813156128 0.34406962990760803
-6.495095729827881 4.125730514526367 0.17313829064369202
-16.21533203125 0.7729231715202332 5.705654621124268
-5.974506855010986 2.3350112438201904 -0.12316765636205673
-4.276379585266113 -1.1505733728408813 -1.0897016525268555
-5.101621150970459 0.4865579605102539 1.0388277769088745
-5.719563961029053 0.33119073510169983 1.1834232807159424
-6.576049327850342 -0.19781485199928284 1.784521222114563
-6.887528896331787 -3.013669729232788 0.39650022983551025
-1.955682635307312 -0.01518941018730402 -1.02043879032135
-6.685734272003174 3.3668153285980225 0.6558282375335693
-4.303194046020508 -0.3248426914215088 -1.0744404792785645
-8.038212776184082 -1.085381031036377 1.051439881324768
-7.727598190307617 4.776388168334961 2.3212058544158936
-3.829139471054077 -2.016997814178467 -1.3442587852478027
-7.4322943687438965 -2.556241512298584 0.7065660953521729
-5.993526935577393 2.0508744716644287 -0.11234206706285477
-8.231941223144531 -0.36186084151268005 1.161705732345581
-8.314810752868652 -1.3802361488342285 1.2088730335235596
-10.884557723999023 -2.6829721927642822 2.6715075969696045
-10.081308364868164 -2.607578754425049 2.2143197059631348
-3.025587320327759 -1.0196927785873413 -1.8016185760498047
-6.280939102172852 0.2701677083969116 0.05124394968152046
-3.679847478866577 -1.0684680938720703 -1.4292328357696533
-9.979134559631348 -4.6234846115112305 2.156163215637207
-9.476948738098145 -3.090222120285034 1.8703324794769287
-4.617280960083008 -0.0888979583978653 -0.895667314529419
-8.806170463562012 -1.5700446367263794 1.488541841506958
-5.90493106842041 0.41954246163368225 -0.16277000308036804
-7.340210914611816 5.092087268829346 0.6541575789451599
-7.205935955047607 -1.4342654943466187 0.577728807926178
-6.420355796813965 -0.28784120082855225 1.972109317779541
-7.348794460296631 -3.9403884410858154 0.6590400338172913
-13.134204864501953 -8.37643814086914 3.951948881149292
-7.930965900421143 3.0228326320648193 2.4369566440582275
-14.177836418151855 4.726786136627197 4.621397495269775
-7.305909633636475 4.847421169281006 0.634634792804718
-7.020451068878174 -0.12413611263036728 0.47215649485588074
-6.938292980194092 4.129000186920166 0.4253961145877838
-8.490266799926758 -2.199685573577881 1.308738350868225
-7.152029037475586 0.3739456534385681 0.5470463037490845
-14.376253128051758 -6.871912002563477 4.65889310836792
-6.2401862144470215 -0.3819936215877533 1.1894422769546509
-9.414816856384277 -2.835689067840576 1.8349684476852417
-7.985077381134033 3.9419636726379395 2.4677562713623047
-3.16450572013855 0.05777810513973236 -1.7225534915924072
-10.29808235168457 -3.9196910858154297 2.3377015590667725
-7.2168707847595215 -0.017507869750261307 0.5839549899101257
-6.32918643951416 0.22743523120880127 0.0787057876586914
-5.4054460525512695 -2.1231610774993896 -0.447065144777298
-6.862290859222412 2.980106830596924 0.38213711977005005
