-9.497384071350098 2.641177177429199 2.584855318069458
-6.802081108093262 -0.29960283637046814 1.0507540702819824
-18.414867401123047 1.447016954421997 9.559248924255371
-10.592523574829102 -1.8128961324691772 3.208179473876953
-5.537430286407471 -3.5768425464630127 0.33094626665115356
-10.523067474365234 2.692077398300171 3.1686482429504395
-17.593017578125 1.683479905128479 8.124733924865723
-6.989609718322754 -4.582065105438232 1.1574888229370117
-13.465415954589844 -2.773606538772583 4.843357086181641
-17.36641502380371 5.483274936676025 8.608534812927246
-9.072687149047852 4.263672828674316 2.3431286811828613
-8.173259735107422 -0.8746241927146912 1.831194519996643
-12.48409652709961 -1.785197377204895 4.284815311431885
-17.74593734741211 1.2950819730758667 7.279725551605225
-19.494478225708008 -6.845591068267822 9.951698303222656
-7.343928337097168 4.5998735427856445 1.3591630458831787
-9.907477378845215 3.855992555618286 2.818270206451416
-8.773545265197754 -2.6361947059631348 3.0551090240478516
-13.071574211120605 -2.0766496658325195 4.6191935539245605
-17.97298240661621 1.1471422910690308 7.9878830909729
-8.338170051574707 -3.9526567459106445 2.4897971153259277
-8.98217487335205 -0.8316696286201477 2.291609525680542
-4.743962287902832 1.061705231666565 -0.12067472189664841
-14.593789100646973 -3.35610032081604 5.485599517822266
-12.729809761047363 -2.788583517074585 4.424668312072754
-13.19350814819336 0.3238237798213959 7.086513996124268
-15.061881065368652 -2.8051533699035645 5.752026081085205
-12.167634963989258 5.06639289855957 4.104696273803711
-20.46126365661621 -5.5603532791137695 8.825220108032227
-17.798583984375 0.06368327140808105 8.070847511291504
-17.96940040588379 -1.7901023626327515 8.140377044677734
-6.673562526702881 1.619684100151062 0.9776052832603455
-10.35779857635498 -1.1581515073776245 3.074580430984497
-12.445196151733398 -2.538564443588257 4.262674331665039
-6.7070207595825195 -3.5502851009368896 0.9966473579406738
-3.5030007362365723 2.3278279304504395 -0.826998233795166
-12.476051330566406 0.6507846117019653 4.280237674713135
-17.28887176513672 2.5573158264160156 7.838704586029053
-7.7828168869018555 1.419148325920105 1.6089651584625244
-17.282907485961914 0.0802369937300682 7.016180992126465
-6.308809757232666 3.9550535678863525 0.7699987292289734
-17.263442993164062 2.9338419437408447 7.44740104675293
-7.7050886154174805 -4.1101603507995605 2.981395721435547
-6.917696952819824 4.377072334289551 1.116562008857727
-7.512026786804199 -4.986443519592285 1.6265285015106201
-8.071464538574219 -2.5441477298736572 1.8538843393325806
-5.40543270111084 0.34652191400527954 0.25581708550453186
-16.961811065673828 3.6595284938812256 6.833421230316162
-7.717163562774658 -3.641132354736328 1.7490944862365723
-4.36507511138916 -2.7159621715545654 -0.33632928133010864
-8.313705444335938 -0.42217159271240234 1.9111331701278687
-11.973063468933105 3.377880096435547 3.993950366973877
-10.36274242401123 -0.46458879113197327 3.077394485473633
-9.904350280761719 0.0371650755405426 2.8164892196655273
-19.33076286315918 -1.5981085300445557 10.394325256347656
-16.84558868408203 0.7620065808296204 9.151191711425781
-15.507142066955566 4.593719482421875 6.005459785461426
-17.753747940063477 -1.5891635417938232 9.335979461669922
-19.381160736083984 -6.589960098266602 10.251501083374023
-16.780332565307617 -1.9860830307006836 6.730124473571777
-20.584365844726562 -9.521778106689453 10.131463050842285
-12.406301498413086 -2.297578811645508 4.240535259246826
-9.732992172241211 3.9650261402130127 2.718958616256714
-19.241073608398438 -1.9211941957473755 10.627391815185547
-12.328909873962402 -2.4521484375 4.196485996246338
-7.014996528625488 -3.9588780403137207 1.1719392538070679
-13.167880058288574 -3.695375442504883 4.674006938934326
-16.823265075683594 3.8561339378356934 7.312384128570557
-17.158079147338867 4.438339710235596 8.579765319824219
-3.4677257537841797 -1.460546851158142 -0.8470758199691772
-8.155247688293457 -3.4263076782226562 2.438690423965454
-13.181797981262207 0.9118198156356812 4.681930065155029
-13.720163345336914 -3.6662986278533936 4.988352298736572
-5.568749904632568 -2.4730803966522217 0.3487713932991028
-8.382405281066895 4.955958366394043 1.9502381086349487
-12.21250057220459 -1.9843388795852661 4.130229473114014
-4.702544212341309 -3.2608115673065186 -0.14425136148929596
-11.436447143554688 4.046489715576172 3.6885228157043457
-4.541990280151367 -2.786496639251709 -0.23563343286514282
-4.827676296234131 -2.7359299659729004 -0.07302842289209366
-18.10110855102539 1.4325364828109741 8.160776138305664
-15.354377746582031 -0.20368018746376038 5.918509006500244
-10.352743148803711 3.154682159423828 3.0717036724090576
-15.2472505569458 -0.5228537321090698 5.857533931732178
-8.061835289001465 -2.9591498374938965 2.207840919494629
-10.346240997314453 4.971750259399414 3.068004846572876
-20.11220359802246 -10.245026588439941 9.274633407592773
-15.606720924377441 -3.926509380340576 6.062134265899658
-11.802264213562012 -1.8017839193344116 3.896733522415161
-15.449051856994629 -4.183230400085449 5.972392559051514
-4.278832912445068 -1.1345115900039673 -0.3854161500930786
-19.414466857910156 -9.965258598327637 9.227668762207031
-10.624497413635254 1.7546820640563965 3.226379632949829
-18.077503204345703 0.5936899185180664 7.7059102058410645
-17.633621215820312 2.5256519317626953 7.4034037590026855
-14.26476764678955 6.1256794929504395 7.267875671386719
-14.033500671386719 0.5278290510177612 5.166698455810547
-13.304783821105957 0.4548484981060028 7.388690948486328
-12.74918270111084 0.25214260816574097 8.372780799865723
-6.598114013671875 3.723310947418213 0.9346634745597839
-3.8460540771484375 -0.5335476994514465 -0.6317411065101624
-8.318927764892578 -2.6162450313568115 2.573566198348999
-3.787886142730713 -2.1044139862060547 -0.66485196352005
-9.261480331420898 5.349703788757324 2.450585126876831
-7.003691673278809 -1.777019739151001 1.1655057668685913
-19.516807556152344 -6.863380432128906 9.734359741210938
-18.891990661621094 -0.09298267215490341 8.037175178527832
-13.70289134979248 4.076417446136475 4.978525638580322
-8.268927574157715 -2.9033541679382324 1.9523624181747437
-10.519837379455566 3.5493109226226807 3.1668100357055664
-10.15774917602539 4.930148124694824 4.400580406188965
-20.026222229003906 -6.780059337615967 8.988101959228516
-8.778057098388672 4.981565952301025 3.5290110111236572
-3.747527599334717 1.8188937902450562 -0.687820553779602
-8.176680564880371 -3.3380064964294434 2.7453863620758057
-22.23250389099121 1.16126549243927 10.777124404907227
-18.458642959594727 -1.8528305292129517 7.685378551483154
-14.319289207458496 -0.6156788468360901 5.3293633460998535
-15.28483772277832 0.4410938322544098 5.878929615020752
-12.340401649475098 0.6106716990470886 4.203030109405518
-2.78330397605896 -0.5267157554626465 -1.2366350889205933
-5.358290672302246 3.2361559867858887 0.22898703813552856
-6.338222026824951 1.0974206924438477 0.7867375612258911
-9.767165184020996 0.19060778617858887 2.7384068965911865
-17.026288986206055 0.3477311432361603 8.312999725341797
-14.894241333007812 2.2466936111450195 5.656611442565918
-17.262924194335938 3.607984781265259 8.645861625671387
-17.206619262695312 -0.9481428265571594 8.391558647155762
-5.731960773468018 1.75900137424469 0.4416700303554535
-18.449174880981445 -1.9850016832351685 8.700401306152344
-7.388680458068848 -3.8699357509613037 2.0839266777038574
-8.7738618850708 3.873941659927368 2.1730446815490723
-12.953532218933105 -2.1535041332244873 4.552006721496582
-5.255622386932373 -3.182539939880371 0.1705474555492401
-15.298152923583984 -0.0072084590792655945 5.886505603790283
-17.60279655456543 3.70499849319458 7.94287109375
-8.839503288269043 -2.028738498687744 2.319833993911743
-7.82213020324707 -3.559969186782837 2.0534369945526123
-6.394744396209717 3.7540249824523926 0.8189110159873962
-11.836566925048828 -2.6321234703063965 3.916256904602051
-13.409533500671387 1.9655605554580688 4.811553001403809
-17.34237289428711 -3.40621018409729 7.05002498626709
-15.671361923217773 2.335390567779541 6.098929405212402
-8.331172943115234 -2.8771133422851562 2.4133825302124023
-5.381135940551758 1.1916881799697876 0.2419886589050293
-5.436117649078369 0.7060288190841675 0.2732831835746765
-13.405677795410156 0.2559976577758789 7.509217262268066
-11.581538200378418 0.17526493966579437 3.7711029052734375
-10.148244857788086 -1.7671372890472412 2.9553062915802
-16.38853645324707 -6.248343467712402 6.507122039794922
-9.034144401550293 -0.5058784484863281 2.3211891651153564
-8.254838943481445 -2.3526992797851562 2.074045181274414
-19.66024398803711 -9.651034355163574 9.657344818115234
-4.837956428527832 2.118076801300049 0.3105289340019226
-17.22806167602539 4.022092819213867 8.63896369934082
-8.639914512634277 5.0253190994262695 3.079667806625366
-10.634332656860352 5.3692240715026855 3.2319793701171875
-20.078960418701172 -6.845993995666504 8.615825653076172
-14.272808074951172 1.73629891872406 5.3029069900512695
-13.911664962768555 -0.12261810898780823 7.321739196777344
-17.834447860717773 2.4461851119995117 7.874733924865723
-6.805095672607422 3.720433473587036 1.0524723529815674
-2.225166082382202 0.22265028953552246 -1.5543104410171509
-17.689823150634766 3.856034278869629 7.372389316558838
-19.172103881835938 -6.934908866882324 8.091458320617676
-16.964513778686523 -2.4630632400512695 6.834956645965576
-5.239179611206055 2.3409650325775146 0.16119122505187988
-17.94217872619629 0.3257119953632355 8.584391593933105
-7.883383274078369 -3.6990556716918945 1.7715198993682861
-9.8924560546875 6.133821487426758 2.809722423553467
-10.045623779296875 2.889646291732788 2.8968992233276367
-10.678833961486816 -2.8849682807922363 3.2573037147521973
-9.31830883026123 1.835949420928955 2.4829301834106445
-10.605225563049316 3.7174301147460938 3.2154111862182617
-19.4173526763916 -1.9521424770355225 10.343692779541016
-19.685808181762695 -9.770408630371094 9.56959056854248
-18.680517196655273 5.424717903137207 8.070900917053223
-7.612340927124023 -3.605491876602173 3.048257827758789
-4.25051736831665 -2.2296793460845947 -0.4015336036682129
-1.872236967086792 -0.04775094985961914 -0.14538976550102234
-17.98814582824707 0.8618274927139282 7.557990074157715
-5.794896125793457 1.8511707782745361 0.4774918854236603
-8.847064971923828 4.945469379425049 2.2147109508514404
-5.591423988342285 0.0055626630783081055 0.36167874932289124
-11.595803260803223 -0.4456680417060852 3.779222011566162
-4.349637508392334 2.3005847930908203 -0.34511423110961914
-10.465951919555664 -2.201324462890625 3.136137008666992
-4.893813133239746 -0.9288536906242371 -0.035384003072977066
-13.944954872131348 1.651727557182312 5.116300582885742
-14.6235990524292 -4.686680793762207 5.502564907073975
-4.928762435913086 -2.697077751159668 -0.015491987578570843
-8.382457733154297 2.1366617679595947 1.9502662420272827
-17.372941970825195 -1.3379954099655151 8.54931926727295
-15.140118598937988 -0.7571640014648438 5.796558856964111
-19.532081604003906 -0.9033442735671997 8.342063903808594
-9.191449165344238 -2.378953218460083 2.4107227325439453
-6.953596115112305 0.49831774830818176 1.1369940042495728
-17.86514663696289 -0.8287487626075745 8.1945219039917
-6.615821838378906 -3.961055040359497 0.9447388648986816
-12.697918891906738 2.7713799476623535 4.406518936157227
-15.929786682128906 2.402043581008911 6.246018409729004
-7.236272811889648 4.285489559173584 1.2978883981704712
-7.697641849517822 -4.116720199584961 1.8168151378631592
-13.537198066711426 1.5605623722076416 4.884216785430908
-6.911523818969727 -1.468459963798523 1.1130456924438477
-7.698827743530273 3.5059621334075928 1.5611618757247925
-10.69335651397705 -1.4826833009719849 3.265570878982544
-8.665510177612305 5.021806240081787 3.1982686519622803
-14.427780151367188 -1.730368971824646 5.391110897064209
-6.481520652770996 3.1292426586151123 0.8683016896247864
-4.055483341217041 1.5313071012496948 -0.5125382542610168
-7.70296573638916 -3.657472848892212 2.3935093879699707
-14.304692268371582 -1.714594841003418 5.321053504943848
-11.586274147033691 3.6025116443634033 3.7738001346588135
-13.493255615234375 1.1413606405258179 4.85920524597168
-20.035964965820312 -6.944735050201416 8.821316719055176
-12.27617359161377 3.162036657333374 4.166472434997559
-18.098352432250977 -2.2231593132019043 12.447519302368164
-7.191787242889404 -4.511223316192627 1.2725635766983032
-17.03516387939453 -1.0732557773590088 6.875169277191162
-16.510997772216797 3.045229434967041 9.252235412597656
-7.55617094039917 3.259986639022827 1.4799655675888062
-16.327699661254883 2.375260829925537 9.346029281616211
-18.408531188964844 -3.731541156768799 12.351221084594727
-15.667215347290039 0.46307674050331116 6.096567630767822
-13.270230293273926 4.819217205047607 5.64431095123291
-19.897563934326172 -9.934004783630371 9.36966609954834
-7.196290969848633 -4.179265975952148 2.0720882415771484
-19.475299835205078 -9.556450843811035 9.723572731018066
-5.9167799949646 1.7924683094024658 0.5468639731407166
-7.450559616088867 -4.336154460906982 1.4198505878448486
-15.634878158569336 -2.4408090114593506 6.07816219329834
-15.741511344909668 -5.734418869018555 6.138853073120117
-4.901788234710693 -2.1173336505889893 -0.0308457612991333
-17.863239288330078 -2.256969690322876 12.272221565246582
-3.3724682331085205 1.43903648853302 -0.9012947082519531
-14.06704044342041 3.0977303981781006 5.185789108276367
-9.424856185913086 5.038746356964111 3.353070020675659
-19.551904678344727 -0.03583219274878502 8.662178993225098
-7.451954364776611 -3.392908811569214 1.4206451177597046
-4.501921653747559 -0.3060415983200073 -0.258439838886261
-17.308382034301758 2.8290812969207764 9.346367835998535
-17.104637145996094 4.03989839553833 8.214526176452637
-17.59532928466797 1.8984147310256958 7.534369468688965
-5.3358049392700195 3.4059629440307617 0.2161882370710373
-13.596317291259766 -2.7452025413513184 4.917863368988037
-16.94745635986328 -0.9326748251914978 9.2782564163208
-14.528630256652832 0.5401040315628052 5.448513984680176
-16.990482330322266 5.283489227294922 7.709686279296875
-16.27377700805664 1.2170617580413818 9.14107894897461
-3.934922695159912 1.3771426677703857 -0.5811595320701599
-6.769914627075195 2.593848466873169 1.032448172569275
-11.059307098388672 -2.096675395965576 3.473860263824463
-9.051837921142578 4.022000312805176 2.3312628269195557
-12.533951759338379 -0.08466112613677979 4.313192367553711
-4.696131229400635 -1.5503699779510498 -0.14789988100528717
-7.125953674316406 3.6957952976226807 1.235095739364624
-17.30607795715332 -1.3744796514511108 9.150091171264648
-7.289208889007568 -1.0662381649017334 1.328014612197876
-6.6181511878967285 -3.711655378341675 0.9460649490356445
-10.775802612304688 0.9052488207817078 3.312497854232788
-11.516565322875977 -0.5141016840934753 3.734121084213257
-6.317280292510986 1.3154911994934082 0.7748184204101562
-7.245662212371826 -4.63308048248291 1.4270058870315552
-1.754274606704712 0.6039427518844604 -0.929643452167511
-7.956766128540039 -5.1103105545043945 1.707970380783081
-7.067373275756836 -1.3382046222686768 1.2017515897750854
-16.685047149658203 2.4492530822753906 9.203636169433594
-11.089041709899902 2.3247017860412598 3.4907870292663574
-19.189308166503906 -1.6704093217849731 10.545132637023926
-18.758846282958984 -1.9468116760253906 9.138616561889648
-17.85116958618164 0.8487085103988647 8.124099731445312
-9.624397277832031 -1.8551084995269775 2.6571462154388428
-11.023056030273438 -1.789097547531128 3.4532275199890137
-13.235931396484375 0.453419029712677 4.712741374969482
-12.554055213928223 4.844206809997559 5.082813262939453
-4.954611301422119 0.2577521800994873 -0.0007796489517204463
-11.756242752075195 3.254990577697754 3.8705410957336426
-7.012662410736084 1.5843592882156372 1.1706132888793945
-7.671065330505371 -4.359897136688232 2.8742496967315674
-18.91070556640625 -1.8725392818450928 10.97901439666748
-16.973623275756836 4.697632312774658 8.723372459411621
-3.9095423221588135 -1.3554050922393799 -0.5956076979637146
-8.618067741394043 -0.19858086109161377 2.0843687057495117
-11.594663619995117 4.185083389282227 3.7785751819610596
-7.262806415557861 -4.277437210083008 1.3129860162734985
-4.587456703186035 2.2089767456054688 0.20912720263004303
-10.031136512756348 -0.6168695092201233 2.8886525630950928
-18.1286678314209 -2.657288074493408 8.350763320922852
-17.683162689208984 1.8089759349822998 7.351933002471924
-5.29163122177124 -1.9935259819030762 0.19104376435279846
-14.923877716064453 -7.974300861358643 6.653665065765381
-17.143394470214844 5.084616184234619 7.6625590324401855
-7.314377307891846 -2.3703768253326416 1.342339277267456
-8.515424728393555 3.820732355117798 2.025949239730835
-8.459860801696777 -2.2891407012939453 2.3619470596313477
-13.1966552734375 -0.1610049158334732 4.6903862953186035
-17.410816192626953 -1.1521538496017456 9.091836929321289
-6.568333625793457 0.20297545194625854 0.9177117943763733
-13.160143852233887 4.781578063964844 6.042048931121826
-13.354827880859375 -1.6052343845367432 4.78041410446167
-13.26651668548584 -1.105159878730774 4.730149745941162
-3.777953624725342 2.1953794956207275 -0.6705017685890198
-7.995691776275635 4.53554105758667 1.730130672454834
-7.314969062805176 -4.542368412017822 1.8007240295410156
-4.76441764831543 2.0374069213867188 0.04567349702119827
-8.162199020385742 -2.945815324783325 2.0049610137939453
-10.835591316223145 5.323553085327148 4.793087959289551
-14.057352066040039 2.969268321990967 5.1802754402160645
-6.515939235687256 4.091086387634277 0.8878914713859558
-12.865426063537598 -1.8596667051315308 4.501859188079834
-11.30566120147705 1.7120403051376343 3.614081382751465
-4.503210544586182 2.3172192573547363 -0.25770410895347595
-8.314041137695312 -3.0130865573883057 2.8337912559509277
-10.066129684448242 -1.348831295967102 2.9085693359375
-17.579442977905273 -0.7586211562156677 8.917598724365234
-15.709354400634766 1.8243036270141602 6.120553970336914
-16.89647674560547 3.4382407665252686 8.737534523010254
-15.538208961486816 1.9075767993927002 6.023141384124756
-20.29966163635254 -4.771708965301514 8.73323917388916
-18.044525146484375 -0.8541139364242554 8.33559799194336
-18.395530700683594 -2.012690544128418 12.120609283447266
-12.519966125488281 -1.513973355293274 4.305231094360352
-13.772406578063965 1.952256441116333 5.018090724945068
-6.196240425109863 3.456294536590576 0.7059270739555359
-14.25091552734375 1.0722825527191162 5.290446758270264
-12.704371452331543 5.016938209533691 5.637684345245361
-17.152082443237305 0.08891057223081589 8.528289794921875
-13.860773086547852 2.7321910858154297 5.068386554718018
-15.110563278198242 -4.960214138031006 5.779733180999756
-17.355880737304688 -2.9801013469696045 7.057712078094482
-5.9317097663879395 1.2413599491119385 0.5553615093231201
-12.678661346435547 2.990332841873169 4.395558834075928
-5.6469316482543945 1.4319349527359009 0.39327237010002136
-6.300257205963135 -2.847454309463501 0.7651280164718628
-4.679745674133301 0.9601032733917236 -0.15722528100013733
-4.739073753356934 0.6117976903915405 -0.12345794588327408
-10.615331649780273 -0.12543509900569916 3.221161127090454
-12.480080604553223 4.940960884094238 5.729089736938477
-6.767312526702881 -1.1764603853225708 1.030964970588684
-3.95225191116333 1.1776922941207886 -0.5712955594062805
-18.77146339416504 -9.798470497131348 8.485663414001465
-11.654594421386719 4.85683012008667 5.1840033531188965
-12.01877498626709 4.852726936340332 5.1140265464782715
-7.161740779876709 -1.2491507530212402 1.2554634809494019
-14.611257553100586 -1.0342744588851929 5.495542526245117
-9.156657218933105 5.009800910949707 3.419583320617676
-5.002680778503418 -0.7558693885803223 0.026580464094877243
-11.85700798034668 4.801859378814697 3.9278950691223145
-8.108880043029785 2.9133026599884033 1.794553279876709
-13.236137390136719 2.136911630630493 4.712859153747559
-3.192779779434204 -1.861972689628601 -1.00357186794281
-8.323318481445312 -0.5413082838058472 1.9166051149368286
-14.596776962280273 1.059370756149292 5.487302303314209
-16.98260498046875 2.7353761196136475 7.360487937927246
-5.3631720542907715 -3.034088373184204 0.23176279664039612
-7.2571330070495605 -0.33297133445739746 1.309757113456726
-6.584033012390137 2.6542420387268066 0.9266481995582581
-17.388423919677734 3.1678481101989746 7.199930667877197
-18.607421875 -9.765799522399902 8.727683067321777
-7.239630699157715 -2.8277101516723633 1.2997958660125732
-11.359580993652344 -0.21712319552898407 3.6447696685791016
-8.292888641357422 -2.937967538833618 2.534069538116455
-6.795947074890137 -2.7855584621429443 1.0472617149353027
-10.507267951965332 3.019658088684082 3.159656524658203
-12.223404884338379 5.134480953216553 4.232694625854492
-17.233627319335938 -0.46482276916503906 6.988131046295166
-12.085766792297363 4.011497974395752 4.058098793029785
-4.646976470947266 -0.1727513074874878 -0.1758776754140854
-15.527239799499512 -1.6459548473358154 6.0168962478637695
-9.394119262695312 4.3793535232543945 2.526080846786499
-8.669326782226562 -2.602572202682495 2.2835030555725098
-16.041784286499023 -2.705775737762451 6.309762001037598
-7.857949733734131 -2.5435025691986084 1.651727318763733
-6.118453502655029 1.7995980978012085 0.6616507768630981
-15.91592025756836 1.5033754110336304 6.238124847412109
-10.47633171081543 5.244326114654541 3.142047643661499
-7.2975544929504395 -3.8035621643066406 2.1248714923858643
-18.109907150268555 -1.3238716125488281 11.993165969848633
-6.35468053817749 -2.5326881408691406 0.7961048483848572
-17.241233825683594 1.2325392961502075 6.992459774017334
-19.82354164123535 -7.014042377471924 11.593619346618652
-8.179305076599121 -3.255270481109619 2.1261613368988037
-3.788503408432007 -1.442598581314087 -0.6644991040229797
-9.344783782958984 -2.22986102104187 2.4979970455169678
-12.355656623840332 -0.29139214754104614 4.211711406707764
-13.012890815734863 -0.0377013236284256 7.859206676483154
-7.657895088195801 -3.5431487560272217 2.5940468311309814
-8.14303207397461 -3.799581289291382 1.8139898777008057
-18.932188034057617 -4.490386009216309 8.193534851074219
-20.97707176208496 -8.985586166381836 9.11880111694336
-17.89765739440918 -6.756178855895996 7.366076469421387
-17.04734230041504 4.214686393737793 8.891678810119629
-10.060744285583496 0.08270624279975891 2.9055047035217285
-7.399087429046631 -4.106446743011475 2.7999274730682373
-17.578704833984375 2.6996562480926514 8.144767761230469
-11.543779373168945 3.18293833732605 3.7496120929718018
-6.664927005767822 -4.133556842803955 0.9726884365081787
-14.313061714172363 -3.640373945236206 5.325815677642822
-7.244973659515381 -4.088164329528809 2.382554292678833
-15.418391227722168 2.270465135574341 5.954945087432861
-17.548070907592773 2.431562662124634 7.405201435089111
-13.045648574829102 1.8919931650161743 4.604438304901123
-8.697928428649902 -2.921262741088867 3.0062460899353027
-13.485278129577637 -3.017035722732544 4.854663372039795
-11.279189109802246 3.7540535926818848 3.5990147590637207
-11.651750564575195 3.085705518722534 3.8110668659210205
-6.732926845550537 -1.4819310903549194 1.0113933086395264
-7.269717693328857 -4.77476692199707 1.6500234603881836
-7.378064155578613 -4.0641770362854 2.348205804824829
-17.416545867919922 2.7638070583343506 7.315618991851807
-4.027735233306885 -0.015254735946655273 -0.5283339023590088
-15.193058967590332 -4.092858791351318 5.826688766479492
-16.748050689697266 1.8419028520584106 9.677281379699707
-17.711036682128906 -8.079971313476562 7.259856700897217
-5.331411361694336 -2.475097894668579 0.2136850506067276
-14.794747352600098 3.5529959201812744 5.599982738494873
-5.281120777130127 3.015718460083008 0.18506264686584473
-15.596447944641113 -6.4156575202941895 6.0562849044799805
-15.873394966125488 0.44781970977783203 6.213921070098877
-8.374692916870117 -3.3554039001464844 2.8712661266326904
-8.235635757446289 5.269542217254639 2.2471821308135986
-11.123025894165039 4.878498554229736 5.109134674072266
-18.70302963256836 -1.897805094718933 11.99385929107666
-9.33134937286377 0.6142258048057556 2.490351676940918
-16.80006217956543 3.216634511947632 9.614323616027832
-10.897538185119629 4.877442836761475 5.554435729980469
-3.209869384765625 -0.028515994548797607 -0.9938436150550842
-10.26709270477295 4.910794258117676 3.022955894470215
-17.01555061340332 -1.3463249206542969 6.864005088806152
-7.348156452178955 4.418534278869629 1.3615692853927612
-16.90399169921875 3.9803624153137207 7.7494120597839355
-5.764135837554932 1.495215892791748 0.45998266339302063
-8.249959945678711 -3.5705883502960205 2.608628511428833
-18.444528579711914 -3.8620004653930664 12.270058631896973
-14.748298645019531 -2.557546854019165 5.57354211807251
-3.162418842315674 -1.1012085676193237 -1.0208505392074585
-3.1132917404174805 1.5386167764663696 -1.0488117933273315
-18.059776306152344 1.577483892440796 7.458354473114014
-17.245731353759766 4.852102756500244 7.900843620300293
-4.8654937744140625 2.1772563457489014 0.593665599822998
-9.438495635986328 -1.8618544340133667 2.5513358116149902
-5.141394138336182 -0.9576354622840881 0.10553193092346191
-17.825817108154297 -0.4727001488208771 8.262250900268555
-8.846890449523926 5.014096736907959 3.2385013103485107
-17.649002075195312 -1.5180178880691528 7.955489158630371
-17.37430191040039 2.028716802597046 7.505904197692871
-11.533188819885254 3.443453550338745 3.743584156036377
-18.11089515686035 -5.539127826690674 10.672021865844727
-5.9057841300964355 -4.121156692504883 0.5406026244163513
-18.1977481842041 1.6058586835861206 8.505139350891113
-9.954058647155762 -1.891456961631775 2.844780921936035
-17.39159393310547 2.9962356090545654 8.282617568969727
-3.9321444034576416 2.2231605052948 -0.5827404260635376
-17.061080932617188 2.468874454498291 7.335190773010254
-3.168889284133911 0.7650541663169861 -1.0171666145324707
-5.4786505699157715 1.036885380744934 0.29749178886413574
-14.314291000366211 3.630314588546753 5.326517581939697
-12.014228820800781 -3.0371651649475098 4.017377853393555
-17.917688369750977 2.4120588302612305 8.39290714263916
-9.74206829071045 3.1220221519470215 2.72412371635437
-6.944403171539307 -1.260759711265564 1.1317602396011353
-12.513572692871094 -2.798260450363159 4.301591873168945
-10.034828186035156 -1.2296323776245117 2.890753746032715
-8.4298677444458 -2.299511194229126 2.1627306938171387
-4.197390079498291 1.3626805543899536 -0.4317695200443268
-17.942548751831055 -2.5922727584838867 7.965171813964844
-19.88202667236328 -9.850932121276855 9.61889934539795
-16.832651138305664 5.026349067687988 6.75990629196167
-5.870697975158691 -2.3233072757720947 0.5206326842308044
-8.547595977783203 -2.477159261703491 2.33286452293396
-3.546428918838501 -1.8299767971038818 -0.8022816181182861
-15.203474998474121 0.756341814994812 5.832618713378906
-4.292694091796875 1.2617803812026978 -0.37752485275268555
-17.148754119873047 4.251511096954346 7.849276065826416
-4.9891037940979 3.1550776958465576 0.01885462924838066
-4.365597724914551 -2.014322519302368 -0.33603227138519287
-5.283287525177002 -2.2350080013275146 0.18629369139671326
-5.487478733062744 0.16612431406974792 0.3025161027908325
-4.9280805587768555 1.8355766534805298 0.5251794457435608
-5.606277942657471 1.831546664237976 0.3701336681842804
-15.640413284301758 -1.4448597431182861 6.08131217956543
-6.416896343231201 3.627696990966797 0.8315191864967346
-18.8303165435791 -6.891660213470459 11.225886344909668
-11.264665603637695 0.5578320026397705 3.5907468795776367
-7.216066360473633 0.7407443523406982 1.2863858938217163
-11.761113166809082 2.218034029006958 3.8733129501342773
-13.632471084594727 4.775092124938965 4.9384446144104
-11.315007209777832 4.874650478363037 4.437310695648193
-5.700219631195068 -0.7160627841949463 0.4236028790473938
-18.644668579101562 -2.5957863330841064 8.891871452331543
-7.1980390548706055 -2.9659345149993896 1.2761223316192627
-16.927650451660156 -5.991736888885498 6.813971996307373
-16.657188415527344 4.1611328125 7.399856090545654
-18.340641021728516 -9.040224075317383 7.618211269378662
-17.827348709106445 -2.7273306846618652 7.82452917098999
-15.880462646484375 3.7431557178497314 6.217944622039795
-12.0195894241333 6.404661178588867 5.466989517211914
-6.2230095863342285 1.9721418619155884 0.7211630940437317
-17.26200294494629 4.271914958953857 8.693601608276367
-7.369189262390137 2.1321635246276855 1.3735381364822388
-10.877784729003906 5.560694694519043 3.3705458641052246
-8.140399932861328 -0.21828290820121765 1.8124918937683105
-13.832608222961426 0.623297929763794 5.052356243133545
-10.65599250793457 3.195936918258667 3.244306802749634
-5.080805778503418 1.508669137954712 0.07104837149381638
-2.41609525680542 -0.9037248492240906 -1.44563889503479
-7.706321716308594 -0.16438493132591248 1.5654258728027344
-8.054448127746582 2.6436498165130615 1.7635713815689087
-15.746698379516602 -0.2058611363172531 6.1418070793151855
-7.064102649688721 -0.3425261974334717 1.1998902559280396
-18.052385330200195 4.444783687591553 7.4541497230529785
-17.244199752807617 0.831918478012085 6.994149208068848
-18.78687286376953 -9.831562995910645 8.669137001037598
-9.496006965637207 0.3312767744064331 2.5840699672698975
-10.0600004196167 -0.2918959856033325 2.905080795288086
-12.11592960357666 2.4150660037994385 4.075265884399414
-11.799586296081543 -0.11306580901145935 3.8952105045318604
-19.185861587524414 -4.089629650115967 8.2324800491333
-17.395370483398438 3.4424822330474854 8.754430770874023
-6.933168888092041 4.761470317840576 1.1253693103790283
-14.676548957824707 -2.7588369846343994 5.532703399658203
-17.577489852905273 -5.882026672363281 10.693307876586914
-13.984576225280762 0.23580168187618256 5.138851642608643
-2.3753042221069336 -0.5161195397377014 -1.4688560962677002
-9.52442455291748 -1.459483027458191 2.6002438068389893
-16.846952438354492 5.457657337188721 6.7680463790893555
-16.30476951599121 -0.6779543161392212 6.459446430206299
-18.967588424682617 -3.1836156845092773 8.979493141174316
-3.165274143218994 -1.442564845085144 -1.0192257165908813
-16.96200942993164 -0.6403502821922302 8.999080657958984
-3.668992757797241 -0.5967442393302917 -0.732521116733551
-18.123653411865234 -2.1713831424713135 12.202435493469238
-13.531704902648926 -1.4497045278549194 4.881087779998779
-17.048999786376953 1.1754379272460938 9.92116641998291
-2.8742284774780273 0.1755940318107605 -1.184880256652832
-8.306933403015137 -3.3520030975341797 2.768258571624756
-10.145697593688965 3.050997734069824 2.95386004447937
-17.580039978027344 -2.8706512451171875 7.185299396514893
-16.701353073120117 3.428598165512085 7.190130233764648
-3.8530075550079346 -1.7625799179077148 -0.6277847290039062
-17.066566467285156 1.9242749214172363 6.893046855926514
-17.565237045288086 -5.5413336753845215 10.86236572265625
-7.430844783782959 -3.9259653091430664 1.7958767414093018
-12.727900505065918 2.4065725803375244 4.423584938049316
-11.131887435913086 2.8043994903564453 3.515174388885498
-8.092089653015137 -0.9796796441078186 1.7849947214126587
-6.5343546867370605 1.7910306453704834 0.8983724117279053
-10.529447555541992 0.39861130714416504 3.17227840423584
-7.535733222961426 -3.355281352996826 1.5611927509307861
-7.497061252593994 -1.2763795852661133 1.4463192224502563
-17.00857162475586 4.58353328704834 8.510282516479492
-12.293807029724121 -1.3600735664367676 4.176507472991943
-12.846659660339355 4.921339988708496 4.491179943084717
-5.731160640716553 -0.13566279411315918 0.44121310114860535
-5.4959025382995605 3.7389378547668457 0.3073109984397888
-3.3023719787597656 1.1860623359680176 -0.9411920309066772
-15.385828971862793 -2.374154567718506 5.936408042907715
-11.991769790649414 -2.3559510707855225 4.0045952796936035
-18.06097984313965 0.8242514133453369 8.101489067077637
-3.5262069702148438 -1.667281150817871 -0.8137927651405334
-4.731446743011475 -0.8107154369354248 -0.12779802083969116
-18.31353759765625 -8.325121879577637 7.602785587310791
-10.288592338562012 5.402318000793457 3.0351927280426025
-16.57302474975586 3.585940361022949 9.146194458007812
-9.5506591796875 -0.530453085899353 2.6151771545410156
-7.714442729949951 -3.717022657394409 2.5380074977874756
-10.571430206298828 5.17340087890625 4.468435287475586
-16.555763244628906 -2.52510666847229 6.602306365966797
-4.94121789932251 -2.491227388381958 -0.008403283543884754
-13.676331520080566 -1.8031936883926392 4.963405132293701
-11.545994758605957 2.091809034347534 3.7508726119995117
-9.027722358703613 -0.17806938290596008 2.3175344467163086
-7.044038772583008 2.965092897415161 1.188472032546997
-13.969329833984375 3.4759533405303955 5.130176067352295
-17.771284103393555 1.386458396911621 8.90523624420166
-12.940170288085938 1.5334032773971558 4.544402599334717
-11.389604568481445 5.101019382476807 3.661860942840576
-12.829228401184082 0.956078052520752 4.481257438659668
-4.784575462341309 -1.8045066595077515 -0.09755988419055939
-20.499731063842773 -6.123312473297119 8.847112655639648
-14.408889770507812 -1.3907177448272705 5.380360126495361
-9.357381820678711 5.006875991821289 2.6777429580688477
-13.07284927368164 4.092774391174316 4.6199212074279785
-8.565417289733887 4.525969505310059 2.054403066635132
-12.93165111541748 -0.4970095753669739 4.539552688598633
-13.441683769226074 5.4690351486206055 6.279171466827393
-6.151292324066162 2.161747694015503 0.6803422570228577
-18.681928634643555 -4.813736438751221 11.37845230102539
-5.00957727432251 1.1535131931304932 0.030506381765007973
-4.697885513305664 -1.3233474493026733 -0.1469019055366516
-14.026671409606934 6.226899147033691 7.653595924377441
-18.262184143066406 -1.920076847076416 8.762954711914062
-3.6718897819519043 -2.3976945877075195 -0.7308740615844727
-16.803464889526367 4.400472164154053 9.000343322753906
-7.996335506439209 -3.29846453666687 1.9814167022705078
-18.291336059570312 0.646418571472168 10.386850357055664
-14.356922149658203 -0.3408457338809967 5.350782871246338
-8.667818069458008 1.3888249397277832 2.1126868724823
-9.065314292907715 5.342433929443359 2.338932991027832
-17.052404403686523 3.3628592491149902 9.012829780578613
-11.538662910461426 4.344682693481445 3.7467007637023926
-13.375556945800781 -0.22973518073558807 7.5353875160217285
-9.63232421875 0.15215659141540527 2.6616580486297607
-8.920228958129883 -0.3911815285682678 2.2563517093658447
-16.46575355529785 0.35813379287719727 6.551076412200928
-19.706045150756836 -5.064784049987793 8.395365715026855
-10.507843971252441 -0.5343277454376221 3.159982204437256
-9.07256031036377 -2.059403657913208 2.3451311588287354
-13.83195686340332 -3.9887278079986572 5.051982879638672
-9.504884719848633 1.4690561294555664 2.5891242027282715
-14.218095779418945 1.4291795492172241 5.271766185760498
-16.736072540283203 0.9591336846351624 9.095036506652832
-11.268950462341309 3.938382387161255 3.5931875705718994
-17.189659118652344 1.341081976890564 8.519600868225098
-16.59211540222168 5.442054748535156 6.623000144958496
-13.958155632019043 2.7298803329467773 5.123815536499023
-5.125412940979004 -1.7183219194412231 0.09643596410751343
-12.31839656829834 -0.6104435920715332 4.1905035972595215
-8.426925659179688 -2.7055909633636475 2.278214693069458
-12.887056350708008 1.243606448173523 4.514171600341797
-8.202189445495605 -1.6581717729568481 1.8476600646972656
-12.56112003326416 1.8931884765625 4.3286566734313965
-7.87649393081665 3.1051743030548096 1.6622849702835083
-4.4454665184021 1.1391693353652954 -0.290570467710495
-9.313304901123047 2.6299571990966797 2.4800820350646973
-7.388903617858887 -0.7109499573707581 1.3847588300704956
-14.206406593322754 -1.6811878681182861 5.265110969543457
-10.482964515686035 2.2435262203216553 3.145822763442993
-7.217437744140625 -4.396556377410889 1.2871637344360352
-5.91444730758667 -3.242628574371338 0.5455349683761597
-13.917490005493164 -3.3729093074798584 5.100667476654053
-13.978203773498535 6.142987251281738 7.71099328994751
-4.662931442260742 3.1192028522491455 -0.1667952835559845
-11.993040084838867 0.28305020928382874 4.005319118499756
-15.025362968444824 3.380601644515991 5.73124361038208
-6.527573585510254 -4.33592414855957 0.8945091962814331
-18.180377960205078 -0.7905921936035156 8.60117244720459
-14.856805801391602 2.03010892868042 5.635305404663086
-15.179845809936523 2.315251111984253 5.8191704750061035
-10.059751510620117 0.3055959641933441 2.904939651489258
-7.557843208312988 -3.7277703285217285 2.4508724212646484
-7.086270809173584 -3.9021542072296143 2.144925355911255
-6.62375545501709 0.33994942903518677 0.9492555856704712
-3.5541820526123047 1.4836130142211914 -0.7978684306144714
-1.3808822631835938 -0.08457914739847183 -0.4859481453895569
-7.757488250732422 -3.570343017578125 2.9706528186798096
-5.660120487213135 1.0217819213867188 0.4007793962955475
-15.412640571594238 -4.611408233642578 5.951667785644531
-5.001495361328125 2.491692304611206 0.25618407130241394
-8.200483322143555 3.747896909713745 1.8466917276382446
-11.183418273925781 2.4846296310424805 3.544503927230835
-5.548001289367676 -1.1374284029006958 0.3369636535644531
-6.3326005935668945 -0.06653758883476257 0.7835376262664795
-6.4810590744018555 -0.24705171585083008 0.8680368065834045
-14.935833930969238 3.8879880905151367 5.680286884307861
-17.840192794799805 -1.9784016609191895 8.066473960876465
-11.410990715026855 0.25436916947364807 3.6740307807922363
-15.277840614318848 -5.054733753204346 5.874943256378174
-11.06209945678711 1.8783636093139648 3.475452184677124
-6.993759632110596 1.4792983531951904 1.1598541736602783
-11.774553298950195 -2.2241854667663574 3.8809614181518555
-11.936260223388672 0.038540229201316833 3.97300124168396
-3.2361903190612793 0.9422829151153564 -0.9788607358932495
-8.615266799926758 -2.5041074752807617 2.5369062423706055
-17.65187644958496 2.0595643520355225 9.13729190826416
-6.838528156280518 -4.1996893882751465 1.0714973211288452
-17.03963851928711 0.22216874361038208 8.512346267700195
-10.783848762512207 2.4963881969451904 3.3170790672302246
-6.882107734680176 1.7139885425567627 1.0963040590286255
-5.907131671905518 3.458627939224243 0.5413718819618225
-18.59349822998047 -1.936538815498352 12.041961669921875
-10.735973358154297 3.88509464263916 3.2898294925689697
-11.36617660522461 0.36414724588394165 3.648524284362793
-7.793913841247559 3.881148099899292 1.6152833700180054
-6.7957634925842285 -2.1918282508850098 1.047157883644104
-17.033557891845703 4.508411407470703 7.933206081390381
-14.112345695495605 6.37700891494751 7.552490234375
-9.682273864746094 -0.23155748844146729 2.690088987350464
-5.488813877105713 1.5553511381149292 0.30327558517456055
-11.50356674194336 -0.07750009000301361 3.726722478866577
-7.431042671203613 -3.965306282043457 1.4087426662445068
-17.726043701171875 -0.6815866827964783 8.225954055786133
-7.517840385437012 4.484734535217285 1.4581485986709595
-4.180484294891357 2.7841365337371826 -0.19400730729103088
-16.746963500976562 4.0499701499938965 7.187918186187744
-9.236870765686035 0.9115432500839233 2.436577081680298
-15.373489379882812 -1.7032241821289062 5.929385662078857
-19.617088317871094 -4.377031326293945 12.974080085754395
-12.886979103088379 -0.1738748848438263 4.514127731323242
-14.250612258911133 -4.1539435386657715 5.290271759033203
-20.560665130615234 -10.621694564819336 9.192561149597168
-9.391220092773438 1.1892187595367432 2.524428606033325
-18.700563430786133 3.063340187072754 9.39028263092041
-7.469608306884766 -4.244017124176025 1.942703127861023
-8.638487815856934 4.011318683624268 2.0959932804107666
-17.304183959960938 3.5315866470336914 8.08130931854248
-12.848029136657715 4.911067008972168 5.764978885650635
-6.531771183013916 2.0436787605285645 0.8969026207923889
-18.947288513183594 -2.038928270339966 11.398406028747559
-8.276873588562012 -3.2596793174743652 1.9779800176620483
-7.814445972442627 3.6550660133361816 1.626968264579773
-7.065550804138184 -1.1195783615112305 1.2007139921188354
-9.923261642456055 3.116039514541626 2.8272550106048584
-10.286567687988281 -0.7252603769302368 3.0340375900268555
-15.341065406799316 0.5590460896492004 5.910931587219238
-3.8986849784851074 1.7496026754379272 -0.6017852425575256
-6.852315425872803 -4.696094512939453 1.079344391822815
-14.346504211425781 6.6281023025512695 6.795648097991943
-7.9876484870910645 -3.791276693344116 1.7255476713180542
-14.945881843566895 -4.0052947998046875 5.686000823974609
-9.680309295654297 1.485445261001587 2.6889712810516357
-17.82687759399414 2.416625738143921 8.899770736694336
-8.33841323852539 -3.7810678482055664 2.630178928375244
-6.959700584411621 3.213622570037842 1.1404694318771362
-13.334391593933105 -1.4085596799850464 4.768782615661621
-10.950193405151367 -6.018923282623291 4.814543724060059
-2.7923147678375244 1.083796739578247 -1.2315044403076172
-14.600116729736328 -7.589655876159668 6.4433369636535645
-17.695493698120117 -1.5210834741592407 7.856391429901123
-12.28159236907959 -0.7584896087646484 4.169555187225342
-10.397128105163574 2.9681739807128906 3.096966505050659
-17.858320236206055 1.8054803609848022 8.597579956054688
-10.313694953918457 -0.08262531459331512 3.0494778156280518
-8.659566879272461 1.9664511680603027 2.107990026473999
-10.189916610717773 -1.5121687650680542 2.9790263175964355
-6.573563575744629 2.383620023727417 0.9206896424293518
-18.590177536010742 -2.6841864585876465 7.785918712615967
-9.542835235595703 -0.1783994734287262 2.6107237339019775
-18.65760040283203 -3.1044704914093018 8.524162292480469
-16.758731842041016 3.6509296894073486 9.548141479492188
-17.79491424560547 1.7222331762313843 8.715081214904785
-9.275325775146484 5.048885822296143 2.458465814590454
-4.926230430603027 1.7990397214889526 0.419654905796051
-18.290237426757812 2.0861728191375732 9.359537124633789
-17.763233184814453 2.5350418090820312 7.3978590965271
-9.95369815826416 -0.3952576220035553 2.844576597213745
-10.643503189086914 5.558614730834961 3.237199068069458
-17.831995010375977 -5.721449375152588 11.09123420715332
-9.725430488586426 -1.2750242948532104 2.7146518230438232
-6.765707969665527 -4.2462592124938965 2.1762354373931885
-13.786775588989258 3.1143178939819336 5.026270389556885
-17.256145477294922 3.2035329341888428 7.504971504211426
-4.983643054962158 -1.0656712055206299 0.015744764357805252
-4.679013729095459 -0.4700794219970703 -0.15764272212982178
-7.836398124694824 -3.4339046478271484 1.8579485416412354
-12.096115112304688 4.87929105758667 4.245270729064941
-11.281028747558594 -2.0001142024993896 3.600059747695923
-16.917356491088867 1.4759111404418945 8.96551513671875
-10.801414489746094 -0.2945404350757599 3.3270750045776367
-15.067133903503418 1.6732758283615112 5.7550177574157715
-8.447728157043457 1.4194248914718628 1.9874162673950195
-12.944707870483398 0.7801665663719177 4.546985626220703
-16.88816261291504 3.1489410400390625 8.971160888671875
-13.09174633026123 -2.558769702911377 4.630674839019775
-8.469521522521973 -3.5005719661712646 2.941668748855591
-7.5548505783081055 0.11103156208992004 1.4792125225067139
-7.8302741050720215 -1.0354634523391724 1.6359758377075195
-6.3556976318359375 0.5847896933555603 0.7966836094856262
-13.550385475158691 5.007871627807617 4.891723155975342
-10.93909740447998 1.7079323530197144 3.4054417610168457
-11.526330947875977 -3.1292591094970703 3.7396786212921143
-17.73737335205078 -0.9270917177200317 8.063364028930664
-7.777254104614258 2.1287834644317627 1.6058000326156616
-16.56124496459961 -4.575723648071289 6.605424880981445
-4.190197944641113 -0.7997773885726929 -0.43586480617523193
-11.346138000488281 -2.7526767253875732 3.6371169090270996
-17.1380672454834 2.521257162094116 7.415859699249268
-11.132560729980469 4.876426696777344 4.6751251220703125
-14.91499137878418 2.6419944763183594 5.668421745300293
-11.909077644348145 -1.6285876035690308 3.9575295448303223
-11.040489196777344 -1.6338615417480469 3.4631495475769043
-7.382622241973877 -4.128205299377441 1.3811814785003662
-6.831636905670166 2.127686023712158 1.0675780773162842
-12.550769805908203 6.220156192779541 5.848870277404785
-13.460308074951172 6.093122482299805 6.301236629486084
-8.647523880004883 2.429082155227661 2.101137161254883
-6.938580513000488 -3.9665279388427734 2.478626012802124
-7.684945106506348 -4.172410488128662 1.971153974533081
-3.2444138526916504 1.9176698923110962 -0.9741795063018799
-14.635357856750488 -0.21764527261257172 5.509261608123779
-4.816507816314697 -2.5296874046325684 -0.07938531786203384
-4.420737266540527 -1.844793438911438 -0.3046482801437378
-17.817766189575195 -1.1484774351119995 9.908047676086426
-2.5379064083099365 -0.926180362701416 -1.376308560371399
-7.95961332321167 -2.9574646949768066 2.4431822299957275
-18.01456069946289 0.6035849452018738 7.5565185546875
-11.350275039672852 1.9525775909423828 3.639474630355835
-3.738337516784668 0.24423760175704956 -0.6930515170097351
-6.766327857971191 2.2348668575286865 1.0304062366485596
-19.04743194580078 -1.7891089916229248 10.914502143859863
-7.461911201477051 1.228087306022644 1.4263139963150024
-18.23775863647461 3.3762168884277344 9.16841983795166
-9.931211471557617 -1.643388271331787 2.831777334213257
-15.006793022155762 0.43778756260871887 5.720671653747559
-4.068358898162842 -1.7218897342681885 -0.5052124857902527
-11.214898109436035 1.3666855096817017 3.562420606613159
-15.441314697265625 -6.425702095031738 5.967989444732666
-16.69202995300293 -5.578920364379883 6.679862976074219
-8.903005599975586 1.6438066959381104 2.246549367904663
-7.728543758392334 -1.8948806524276733 1.578072190284729
-4.280195236206055 0.026669800281524658 -0.38464051485061646
-13.729762077331543 -0.22335372865200043 4.993817329406738
-18.146263122558594 -2.84649658203125 8.44724178314209
-5.962327003479004 4.1142072677612305 0.5727893114089966
-10.592093467712402 2.399273157119751 3.2079355716705322
-12.493999481201172 6.693330764770508 5.7370123863220215
-17.302783966064453 1.9949630498886108 7.421970844268799
-5.394704818725586 1.5841675996780396 0.24971117079257965
-13.225563049316406 2.247147798538208 4.706841468811035
-19.570220947265625 -4.813427925109863 12.030097007751465
-17.473848342895508 3.0635037422180176 9.270892143249512
-19.317874908447266 -2.011301279067993 10.460454940795898
-10.359123229980469 0.47892069816589355 3.075334072113037
-18.049938201904297 -1.0319052934646606 8.355012893676758
-17.561729431152344 -1.138127326965332 9.692100524902344
-9.530523300170898 1.0289514064788818 2.6037161350250244
-8.296223640441895 5.163743495941162 2.231621265411377
-3.4502944946289062 1.8211358785629272 -0.8569976091384888
-18.58026695251465 -1.9230331182479858 12.156590461730957
-8.302661895751953 -2.6120855808258057 2.421319007873535
-10.955090522766113 4.886000633239746 4.541257858276367
-7.257215976715088 1.1420305967330933 1.3098067045211792
-5.708676815032959 -2.3612263202667236 0.428414911031723
-10.920347213745117 3.332017660140991 3.394770622253418
-17.710580825805664 -0.7980375289916992 8.169974327087402
