-10.00654125213623 -4.145254135131836 3.1596615314483643
-11.554405212402344 -4.430925369262695 4.04066801071167
-5.271438121795654 2.3219048976898193 0.4645620584487915
-11.14199161529541 6.581482410430908 3.805936813354492
-5.195446968078613 -0.43499553203582764 0.42130911350250244
-6.906421184539795 -2.735421657562256 1.3951523303985596
-8.605860710144043 -2.0054962635040283 2.362431287765503
-4.714447975158691 1.155187726020813 0.14753656089305878
-9.282414436340332 -4.170709133148193 2.747507333755493
-3.3314645290374756 2.2009530067443848 -0.6396225094795227
-9.231245040893555 -2.6100914478302 2.718384265899658
-2.5793535709381104 -0.4010106325149536 -1.067705512046814
-4.5224409103393555 0.36680683493614197 0.6751875877380371
-9.594741821289062 -6.004777908325195 3.0286448001861572
-3.884716272354126 2.2243475914001465 -0.3247253894805908
-8.490056037902832 -1.8044620752334595 2.2965166568756104
-3.7956254482269287 -2.6213605403900146 -0.37543565034866333
-9.879749298095703 -2.0143680572509766 3.087496042251587
-3.7009236812591553 -0.6758419871330261 2.448758125305176
-6.144352436065674 -2.1906850337982178 0.961401104927063
-14.645818710327148 -7.742783546447754 5.800221920013428
-3.3992600440979004 1.1761023998260498 -0.43534424901008606
-3.6571338176727295 -0.37489616870880127 2.3020269870758057
-9.908249855041504 4.048122406005859 3.1037209033966064
-15.348496437072754 -4.803455829620361 8.989357948303223
-3.0529086589813232 1.772914171218872 -0.6324777603149414
-4.330832481384277 0.5722412467002869 1.0108696222305298
-9.064074516296387 5.668042182922363 2.623237371444702
-2.9184410572052 -0.5109764933586121 -0.8747074007987976
-9.374134063720703 -4.964813709259033 2.799710750579834
-11.940919876098633 -4.098073482513428 4.260662078857422
-9.577005386352539 5.4460248947143555 2.915184497833252
-17.751346588134766 -4.702703475952148 9.101049423217773
-3.6389074325561523 0.32444390654563904 -0.46463409066200256
-7.1356072425842285 -2.7331032752990723 1.5255978107452393
-4.537679195404053 0.7845274806022644 0.6483383178710938
-4.553321838378906 -2.5828640460968018 0.05582650005817413
-5.277707576751709 0.6326918005943298 0.4681292176246643
-17.63117218017578 6.908158302307129 8.232133865356445
-5.10414457321167 -0.7231560945510864 0.3693412244319916
-6.032668113708496 2.251082181930542 0.8978350162506104
-9.795588493347168 3.9445550441741943 3.0395965576171875
-7.1863789558410645 -2.2847626209259033 1.5544967651367188
-3.728696346282959 2.496898651123047 -0.4135288894176483
-12.7161865234375 -3.565979480743408 4.701923847198486
-8.668891906738281 4.260552406311035 2.398308038711548
-19.866626739501953 10.939835548400879 8.771783828735352
-2.5739080905914307 0.8231714963912964 -1.0708024501800537
-7.2247843742370605 2.8028900623321533 1.5763585567474365
-11.89313793182373 4.4239630699157715 4.233469486236572
-16.049474716186523 -3.393566846847534 7.462398052215576
-6.204800605773926 2.829129934310913 0.9958083629608154
-11.083964347839355 -4.313436508178711 3.772905111312866
-3.891467809677124 -1.5018259286880493 -0.3208843171596527
-5.084864616394043 -0.3480776250362396 0.35836777091026306
-7.6869988441467285 -2.81882381439209 1.8394360542297363
-10.456098556518555 -4.765559196472168 3.415539264678955
-5.370731353759766 -2.74124813079834 0.521075963973999
-7.497200012207031 4.737334251403809 1.7314116954803467
-14.699923515319824 -5.826344966888428 5.831017971038818
-3.9978647232055664 -0.9706575870513916 2.1354169845581055
-15.78497314453125 -6.028326988220215 7.361026287078857
-3.1092021465301514 2.0562968254089355 -0.7661290764808655
-8.832945823669434 5.01658821105957 2.491684675216675
-16.34534454345703 -8.598974227905273 6.767548084259033
-13.232523918151855 7.22569465637207 4.995815753936768
-18.110069274902344 9.651604652404785 7.7719950675964355
-12.163633346557617 -2.541116237640381 4.387426376342773
-4.710324764251709 1.579253077507019 0.14519146084785461
-9.787199974060059 6.125226974487305 3.034822463989258
-12.846731185913086 5.583516597747803 4.776231288909912
-4.068188667297363 2.8617172241210938 -0.22029708325862885
-12.316095352172852 -5.684054851531982 4.4742021560668945
-6.199314594268799 2.9431192874908447 0.9926869869232178
-15.074305534362793 -8.202062606811523 6.044106483459473
-3.937025547027588 -0.2169434130191803 1.57493257522583
-5.250134468078613 -0.7505709528923035 0.45243504643440247
-17.872474670410156 -5.288641452789307 9.593307495117188
-8.773911476135254 -4.576170921325684 2.4580790996551514
-16.931964874267578 -8.269981384277344 8.577631950378418
-16.162334442138672 -7.074925899505615 8.005077362060547
-6.045604705810547 2.0315167903900146 0.9051981568336487
-4.862744331359863 3.2080953121185303 0.23194465041160583
-16.556838989257812 -5.906370162963867 8.463878631591797
-12.369616508483887 7.318868637084961 4.504669666290283
-13.020081520080566 -5.434938430786133 4.874892711639404
-4.621918201446533 -0.5028358101844788 0.09487064182758331
-3.6695454120635986 -1.9808883666992188 -0.44719797372817993
-16.110788345336914 -6.111228942871094 7.431502342224121
-7.121899604797363 -3.5763375759124756 1.5177961587905884
-3.810410976409912 1.3015499114990234 1.897679328918457
-7.759876728057861 -4.0684990882873535 1.880916953086853
-9.061847686767578 3.568276882171631 2.62196946144104
-16.97159767150879 -9.617714881896973 7.123997211456299
-12.471487045288086 6.560455322265625 4.562652111053467
-7.610543251037598 3.366649627685547 1.7959232330322266
-4.438641548156738 0.8618999719619751 0.7462682127952576
-4.466772556304932 -0.1430271565914154 0.5845537185668945
-5.369818687438965 1.8088126182556152 0.5205578207969666
-4.879166603088379 3.3212335109710693 0.2412906289100647
-8.444633483886719 -3.060582399368286 2.2706639766693115
-11.937588691711426 -2.549828290939331 4.2587666511535645
-3.845914363861084 -0.2066040337085724 1.801203966140747
-3.9130570888519287 -0.4389885663986206 1.7028112411499023
-5.594310283660889 2.3752193450927734 0.6483328938484192
-8.25384521484375 -3.6247305870056152 2.162071704864502
-4.061479091644287 0.9789741039276123 1.3297722339630127
-5.307952880859375 0.4604654908180237 0.4853441119194031
-2.8227529525756836 -1.0906813144683838 -0.9291703701019287
-3.8120009899139404 1.0314120054244995 1.8443347215652466
-4.086617946624756 -1.7251619100570679 -0.2098105549812317
-9.650485038757324 -5.498514175415039 2.957003116607666
-9.315452575683594 -3.1641650199890137 2.7663114070892334
-5.196016788482666 0.6980969309806824 0.42163336277008057
-4.636984348297119 -1.0576677322387695 0.1034456118941307
-4.7239155769348145 -2.4855823516845703 0.15292353928089142
-3.284147262573242 -0.6346263289451599 -0.6665560007095337
-5.236086845397949 0.5419279932975769 0.44443967938423157
-6.111563682556152 -2.336467742919922 0.942738950252533
-16.05747413635254 -4.008339881896973 7.639556407928467
-16.538066864013672 -6.011519432067871 8.093975067138672
-3.642937421798706 1.0190457105636597 -0.296649307012558
-13.413712501525879 -7.872613430023193 5.098937034606934
-5.771332740783691 3.8676559925079346 0.7490905523300171
-9.198826789855957 -2.2448134422302246 2.6999313831329346
-4.437478065490723 0.8115478754043579 0.6095999479293823
-9.30759048461914 3.8545687198638916 2.7618398666381836
-2.7226169109344482 -0.5645202994346619 -0.9861647486686707
-10.458237648010254 5.8099870681762695 3.4167606830596924
-5.091999530792236 -2.484854221343994 0.3624289035797119
-16.547883987426758 -6.971389293670654 7.959441184997559
-3.575639009475708 0.47486943006515503 2.4001386165618896
-4.41340970993042 -1.9383617639541626 -0.023808704689145088
-6.178208351135254 -3.979295253753662 0.9806709885597229
-4.180798053741455 -1.026824712753296 -0.15620410442352295
-4.20655632019043 2.022219657897949 -0.14154180884361267
-14.758194923400879 -6.065418243408203 8.35223388671875
-8.991693496704102 -2.667900323867798 2.5820369720458984
-7.218113422393799 2.9256889820098877 1.5725605487823486
-3.6194372177124023 1.5569789409637451 -0.3100244104862213
-15.571012496948242 8.950112342834473 6.326825141906738
-12.949676513671875 5.9830451011657715 4.8348259925842285
-16.470048904418945 -5.168976306915283 7.142439365386963
-5.268153190612793 -3.2936975955963135 0.4626900851726532
-17.12807846069336 -6.742785453796387 7.399768829345703
-7.1932525634765625 -1.643379807472229 1.5584094524383545
-4.079834938049316 -0.10605033487081528 1.3156005144119263
-4.285964488983154 -0.30631908774375916 0.94300377368927
-3.295680046081543 0.6944490075111389 -0.6599918007850647
-7.956133842468262 -2.565774917602539 1.9926220178604126
-15.614429473876953 -8.979059219360352 6.351531028747559
-10.5426664352417 -2.525815725326538 3.464811325073242
-5.647773742675781 -1.9785974025726318 0.6787612438201904
-4.32602071762085 1.4785135984420776 1.0199695825576782
-6.093133449554443 -1.289800763130188 0.9322488307952881
-4.01713228225708 -0.0009815171360969543 -0.24935850501060486
-4.295525074005127 -2.6578409671783447 -0.09090545773506165
-3.6358211040496826 0.8830243349075317 2.2543551921844482
-12.470221519470215 4.5960564613342285 4.561930179595947
-17.905031204223633 9.460227966308594 7.655291557312012
-11.16018009185791 6.427240371704102 3.816288709640503
-5.890294075012207 3.138917922973633 0.8167997002601624
-2.707726001739502 -0.0037335455417633057 -0.9946407675743103
-4.363215923309326 0.0165255144238472 0.7524082660675049
-18.208057403564453 8.615854263305664 7.827766418457031
-10.532461166381836 -2.7739477157592773 3.459003210067749
-9.803526878356934 3.600780487060547 3.044114589691162
-4.347389221191406 0.04074714705348015 1.0030782222747803
-6.212957859039307 -1.0406960248947144 1.0004502534866333
-9.167741775512695 5.85580587387085 2.6822428703308105
-2.9394500255584717 0.676572322845459 -0.8627480864524841
-6.18038272857666 3.472242593765259 0.9819108843803406
-13.696484565734863 -6.634711742401123 5.259884834289551
-6.395939826965332 2.349952459335327 1.1046007871627808
-3.8186309337615967 -1.7090359926223755 -0.362341046333313
-3.926720380783081 0.36537688970565796 -0.30081889033317566
-9.377784729003906 -3.6545488834381104 2.8017895221710205
-16.078737258911133 -3.720641851425171 7.4239373207092285
-11.085198402404785 -2.760356903076172 3.7736077308654785
-3.8621745109558105 -0.1416867971420288 1.753626823425293
-4.319887161254883 2.7373597621917725 -0.07703710347414017
-17.778491973876953 -4.3447794914245605 9.083048820495605
-8.092551231384277 -3.881296157836914 2.0702669620513916
-13.852738380432129 -2.7846481800079346 8.778645515441895
-16.64560890197754 -5.946554660797119 7.86649227142334
-10.499958992004395 -3.774836540222168 3.440502882003784
-3.6442744731903076 -1.135553240776062 -0.46158039569854736
-15.956503868103027 -7.5501017570495605 6.853720664978027
-16.86888885498047 -3.3199429512023926 7.3353447914123535
-15.613675117492676 5.807604789733887 6.8921217918396
-4.502259254455566 0.24422816932201385 0.5704031586647034
-3.476623773574829 -0.39494335651397705 -0.5570014119148254
-6.103550910949707 3.4360854625701904 0.9381798505783081
-6.280737400054932 3.170152187347412 1.0390303134918213
-5.083345890045166 -3.4645042419433594 0.3575025796890259
-17.759151458740234 -4.427194118499756 7.67269229888916
-8.61452579498291 -2.3851335048675537 2.367361307144165
-3.41715669631958 2.2384259700775146 -0.5908467769622803
-13.518155097961426 6.862896919250488 5.158389091491699
-8.96885871887207 -5.146912097930908 2.569037437438965
-5.899401664733887 -3.713613271713257 0.8219813108444214
-2.4221315383911133 -0.09609748423099518 -1.1571928262710571
-5.926251411437988 2.695878028869629 0.8372651934623718
-13.972562789916992 7.842961311340332 5.417027950286865
-9.197882652282715 -3.070608377456665 2.6993942260742188
-13.731969833374023 -3.5676987171173096 5.280082702636719
-6.508318901062012 -2.746410846710205 1.1685620546340942
-17.128393173217773 -9.015119552612305 7.53763484954834
-3.765449047088623 0.8136374950408936 1.925163745880127
-5.352723598480225 -2.023906946182251 0.510826587677002
-6.2044782638549805 3.2107393741607666 0.995624840259552
-4.707870960235596 0.24903641641139984 0.1437927484512329
-16.52495765686035 -7.787684917449951 7.670563220977783
-4.455239772796631 -2.9226510524749756 -3.6258427371649304e-07
-14.339725494384766 -7.091182231903076 5.62600040435791
-6.517840385437012 2.7509636878967285 1.1739835739135742
-2.6383626461029053 1.4809433221817017 -1.034118890762329
-17.38880157470703 -5.327574253082275 8.181791305541992
-3.7737319469451904 0.057372137904167175 1.9217901229858398
-16.67546272277832 -5.739870548248291 7.877369403839111
-4.665329456329346 -2.1455156803131104 0.11957899481058121
-3.8215172290802 1.4094535112380981 -0.1950063705444336
-17.1328182220459 9.232017517089844 7.215766906738281
-9.205696105957031 -1.7997453212738037 2.703843116760254
-5.802195072174072 -1.4324588775634766 0.7666541337966919
-5.2571120262146 1.039696455001831 0.45640745759010315
-12.176114082336426 5.258229732513428 4.394532680511475
-3.9374499320983887 1.3028730154037476 1.6440836191177368
-16.318344116210938 -3.336319923400879 7.540742874145508
-4.4118499755859375 -0.9848716259002686 -0.02469542995095253
-15.949106216430664 -6.870420455932617 8.143682479858398
-14.723304748535156 -2.8440568447113037 9.732966423034668
-17.081172943115234 -7.855738639831543 9.012383460998535
-4.487466335296631 0.34032830595970154 0.5619836449623108
-5.545263767242432 -1.1128848791122437 0.6204147934913635
-16.661104202270508 -8.135164260864258 8.462575912475586
-14.366704940795898 -8.408683776855469 5.641356468200684
-16.971288681030273 -3.517674684524536 7.416691780090332
-11.85998821258545 -2.9212138652801514 4.214598178863525
-16.372150421142578 -3.1931018829345703 7.341732501983643
-16.336101531982422 -7.548339366912842 8.08080005645752
-4.455911636352539 1.4914456605911255 0.8232993483543396
-4.384596824645996 2.5091512203216553 -0.04020531848073006
-4.601022243499756 1.1180354356765747 0.08297822624444962
-3.1448519229888916 1.0266811847686768 -0.7458374500274658
-4.568896293640137 0.2487219274044037 0.06469111144542694
-16.448911666870117 -5.856223106384277 7.5557427406311035
-13.555423736572266 -7.7767791748046875 5.179596424102783
-13.202131271362305 -4.455068111419678 4.978512287139893
-6.464844703674316 -1.223180890083313 1.1438171863555908
-9.617279052734375 -3.681715726852417 2.9381041526794434
-3.8003382682800293 1.3166536092758179 -0.37275177240371704
-8.561532020568848 -2.7676098346710205 2.3371992111206055
-3.012500047683716 -0.9734758138656616 -0.8211705088615417
-4.7352705001831055 3.0815863609313965 0.1593894362449646
-9.644086837768555 -5.4913010597229 3.1190528869628906
-4.091059684753418 0.827206015586853 1.2646125555038452
-15.001885414123535 -5.689096450805664 8.750956535339355
-9.363367080688477 -5.251467227935791 2.7935822010040283
-9.2306489944458 -4.380467891693115 2.7180440425872803
-9.871343612670898 -3.198064088821411 3.0827114582061768
-12.393245697021484 -5.752228260040283 4.51811408996582
-7.551544189453125 -3.8666484355926514 1.7623391151428223
-11.979757308959961 -5.2699713706970215 4.282766342163086
-3.22747540473938 -0.9299766421318054 -0.6988112926483154
-2.3070123195648193 -0.01574377715587616 -1.2227152585983276
-3.9052443504333496 -0.10990168899297714 1.6578513383865356
-3.372673511505127 1.417325496673584 -0.4757903814315796
-15.133736610412598 -4.682358264923096 8.927702903747559
-3.5726842880249023 0.714411199092865 2.4182028770446777
-4.8070454597473145 0.07744471728801727 0.20024153590202332
-11.094820022583008 -6.764070510864258 3.7790818214416504
-16.723051071166992 -7.341950416564941 8.903486251831055
-4.993008136749268 -1.5691174268722534 0.3060850203037262
-6.231900691986084 -3.7308974266052246 1.0112309455871582
-6.712142467498779 -1.2971729040145874 1.2845736742019653
-13.828265190124512 -5.664056301116943 5.334890842437744
-7.961942195892334 -2.484443426132202 1.9959278106689453
-3.574960708618164 -0.7754154205322266 -0.5010314583778381
-4.5918288230896 3.1118242740631104 0.07774566859006882
-12.170018196105957 6.0719895362854 4.391063690185547
-16.322267532348633 -6.814699172973633 7.563809871673584
-14.084235191345215 6.390966415405273 5.480587959289551
-4.604061603546143 -0.0316605418920517 0.08470699936151505
-4.008831024169922 -0.2899588942527771 1.477222204208374
-14.134811401367188 -4.544993877410889 5.50937032699585
-2.812761068344116 -1.3792357444763184 -0.9348559975624084
-4.479272842407227 -0.0033616721630096436 0.013680831529200077
-13.27408218383789 4.894963264465332 5.019468307495117
-10.361976623535156 4.737523078918457 3.361971139907837
-2.4800870418548584 0.37410402297973633 -1.1242071390151978
-5.097160339355469 2.4551801681518555 0.3653680086135864
-14.851451873779297 -5.80796480178833 8.490811347961426
-7.256453990936279 -1.9324208498001099 1.5943819284439087
-7.844320774078369 -2.589097738265991 1.9289796352386475
-13.605374336242676 -7.297276973724365 5.208027362823486
-12.39742374420166 -5.446219444274902 4.5204925537109375
-14.496698379516602 -6.219882011413574 5.7153472900390625
-3.835294723510742 0.4302651882171631 1.7619826793670654
-10.308280944824219 -1.9226257801055908 3.3314049243927
-4.9502854347229 -0.36387351155281067 0.28176847100257874
-4.31579065322876 2.2414915561676025 -0.07936800271272659
-14.483842849731445 -2.7836434841156006 9.802865028381348
-13.256295204162598 7.900144100189209 5.009345531463623
-9.72571849822998 -3.886070966720581 2.9998245239257812
-8.713913917541504 3.9141762256622314 2.423933744430542
-2.420644521713257 0.8595255017280579 -1.1580394506454468
-16.22374153137207 -8.955249786376953 6.69833517074585
-2.7567226886749268 0.38841360807418823 -0.9667510390281677
-13.509977340698242 -3.0626978874206543 5.1537299156188965
-8.528228759765625 4.250158786773682 2.318247079849243
-1.028035044670105 0.1782192438840866 -0.6614777445793152
-8.584033012390137 -4.30156135559082 2.350006103515625
-14.07734489440918 8.28590202331543 5.476666450500488
-12.612971305847168 -3.308009386062622 4.643176555633545
-4.567537784576416 0.9907910823822021 0.4554672837257385
-12.637227058410645 5.3558573722839355 4.656986236572266
-17.587541580200195 7.041635990142822 8.395983695983887
-16.92795753479004 -5.447686195373535 8.442056655883789
-6.876450061798096 -1.1734364032745361 1.3780936002731323
-6.844932556152344 4.113338470458984 1.3601564168930054
-13.068876266479492 -3.6540606021881104 4.902667045593262
-11.418281555175781 -5.185570240020752 3.963188886642456
-6.614841461181641 -1.1371129751205444 1.2291927337646484
-4.3042144775390625 -1.0912916660308838 -0.08595886826515198
-5.7076215744018555 2.783053159713745 0.7128269672393799
-16.167688369750977 -7.235203742980957 7.155704498291016
-2.611337900161743 -1.328878402709961 -1.0495022535324097
-8.603157997131348 -3.5841455459594727 2.360891580581665
-15.355745315551758 -3.960972547531128 6.204296588897705
-12.358695030212402 -7.315609931945801 4.498448371887207
-12.501174926757812 -6.603395462036133 4.579545021057129
-9.515650749206543 6.040446758270264 2.8802638053894043
-9.122756004333496 -3.826050043106079 2.656633138656616
-16.139543533325195 -8.356657028198242 7.712818622589111
-1.1529737710952759 0.26434144377708435 -0.5283632278442383
-5.513143539428711 3.7436349391937256 0.602135956287384
-6.012084007263184 3.7845468521118164 0.886119544506073
-15.049656867980957 -4.850175380706787 9.209029197692871
-4.706425189971924 3.22835111618042 0.14297115802764893
-4.30099630355835 -2.9151692390441895 -0.08779165893793106
-4.647949695587158 -0.16767075657844543 0.10968691855669022
-8.751398086547852 -3.568706512451172 2.445266008377075
-4.964444637298584 0.8259537816047668 0.2898286283016205
-10.785604476928711 5.171066761016846 3.60308837890625
-13.866488456726074 -6.783522605895996 5.3566460609436035
-16.5506534576416 -5.015224933624268 7.93673038482666
-4.5274200439453125 0.14852885901927948 0.678931474685669
-9.736809730529785 -5.291719436645508 3.031451463699341
-4.03745174407959 2.1560702323913574 -0.23779147863388062
-12.634319305419922 -6.3273468017578125 4.655326843261719
-14.207457542419434 -2.7405545711517334 9.204160690307617
-13.115654945373535 5.63167667388916 4.929296493530273
-9.016366958618164 -2.7846529483795166 2.5960805416107178
-8.814139366149902 4.648346900939941 2.4809796810150146
-16.378629684448242 -3.370391845703125 9.470766067504883
-12.866215705871582 -4.056456089019775 4.787317276000977
-10.943497657775879 5.335371971130371 3.692958116531372
-3.522298574447632 2.1700685024261475 -0.5310046672821045
-5.674022197723389 -1.3228920698165894 0.693701446056366
-16.650745391845703 -7.59590482711792 7.888312816619873
-17.229480743408203 -4.607279300689697 7.883589744567871
-6.212611675262451 3.7503490447998047 1.0002557039260864
-11.922647476196289 -4.6199421882629395 4.2502617835998535
-3.2455639839172363 0.9760006666183472 -0.6632018089294434
-1.218293309211731 0.22245566546916962 -0.48321935534477234
-6.242924690246582 2.6837213039398193 1.0175081491470337
-16.27696418762207 -3.4381072521209717 7.201156139373779
-6.620008945465088 -1.2935150861740112 1.232134222984314
-8.20071792602539 3.6121625900268555 2.131836414337158
-4.099883079528809 -2.329814910888672 -0.2022595852613449
-9.139491081237793 -3.024367094039917 2.66615891456604
-2.086599588394165 -0.10475321114063263 -1.348170518875122
-4.691694259643555 -3.159585952758789 0.13458490371704102
-6.370387554168701 3.639352798461914 1.090057373046875
-7.197920799255371 -4.210676193237305 1.5610642433166504
-9.096251487731934 -2.5217602252960205 2.6415493488311768
-5.141313552856445 -0.07394478470087051 0.3904981017112732
-18.286046981811523 9.822980880737305 7.87215518951416
-16.168357849121094 -5.025978088378906 8.078818321228027
-16.710298538208008 -4.503778457641602 8.354413032531738
-4.957888603210449 1.6604253053665161 0.2860969305038452
-18.7108154296875 7.284133434295654 10.09149169921875
-8.887463569641113 -1.9992913007736206 2.5227115154266357
-5.420531749725342 -2.064480781555176 0.5494202375411987
-7.416800022125244 4.395199298858643 1.6856497526168823
-13.327219009399414 5.435750961303711 5.049713134765625
-6.280154705047607 -2.802279472351074 1.0386962890625
-2.2821178436279297 0.22915343940258026 -1.2368849515914917
-16.054052352905273 -3.209956407546997 6.736274242401123
-14.510457992553711 -5.425815582275391 5.723178863525391
-4.314903736114502 -1.8097434043884277 -0.07987554371356964
-6.555906295776367 -4.157135009765625 1.1956470012664795
-11.191568374633789 4.135668754577637 3.834153890609741
-18.979692459106445 8.252605438232422 9.523580551147461
-6.339343547821045 3.913728952407837 1.0723869800567627
-5.932157516479492 -1.4918161630630493 0.8406252861022949
-4.910717487335205 -0.2180991768836975 0.2592470645904541
-3.3873374462127686 2.074542760848999 -0.6078203916549683
-7.012359619140625 -4.31588888168335 1.4554481506347656
-15.442148208618164 -4.308328628540039 6.253474235534668
-15.218000411987305 -4.098437786102295 8.95633602142334
-11.551716804504395 -3.0092110633850098 4.039137840270996
-4.48755407333374 -0.6871733665466309 0.7209126949310303
-16.625030517578125 -4.660876750946045 8.251381874084473
-4.074739456176758 0.6644893884658813 1.2885929346084595
-3.6606369018554688 -0.0653030276298523 -0.45226582884788513
-8.333319664001465 -4.342488765716553 2.207305908203125
-3.8632500171661377 1.1551367044448853 1.7495908737182617
-16.28597068786621 -7.699387073516846 7.203361988067627
-10.356647491455078 3.802708625793457 3.3589377403259277
-15.217763900756836 -4.962762355804443 9.107401847839355
-16.691987991333008 8.976064682006836 6.964856147766113
-8.215229988098145 -4.387629985809326 2.140092372894287
-10.057939529418945 3.811615467071533 3.188920736312866
-11.150994300842285 5.5540900230407715 3.8110592365264893
-12.833130836486816 7.513506889343262 4.768491744995117
-5.196078300476074 1.505273699760437 0.4216687083244324
-9.442061424255371 5.3610029220581055 2.838378429412842
-16.97458267211914 -4.332446098327637 7.1899590492248535
-4.0636444091796875 1.032033920288086 -0.22288313508033752
-10.550407409667969 -2.91974139213562 3.469217300415039
-6.031387805938721 3.0877456665039062 0.8971059918403625
-4.902584552764893 -3.1105539798736572 0.25461748242378235
-4.79745626449585 -0.01716487854719162 0.19478319585323334
-10.228349685668945 -5.599160671234131 3.446281909942627
-4.569502830505371 -0.9598636031150818 0.06503641605377197
-1.3153538703918457 -0.15014463663101196 -0.416990727186203
-6.474822044372559 -1.5878530740737915 1.14949631690979
-2.240920305252075 -0.4397321939468384 -1.2603341341018677
-3.592580556869507 -0.18419241905212402 2.434821367263794
-6.847361087799072 -2.2859134674072266 1.3615363836288452
-7.370133876800537 4.715390682220459 1.6590876579284668
-8.701969146728516 4.550827503204346 2.4171364307403564
-14.660508155822754 5.9598708152771 5.808587551116943
-8.833541870117188 -1.8792396783828735 2.4920215606689453
-4.04569149017334 -0.820237934589386 -0.23310396075248718
-5.446436405181885 -2.2233150005340576 0.564164936542511
-5.002081871032715 -0.7432819604873657 0.31124982237815857
-4.619303226470947 1.7246978282928467 0.09338396787643433
-5.470361709594727 -3.183314561843872 0.5777817368507385
-11.047176361083984 5.444508075714111 3.7519690990448
-10.207223892211914 5.510737895965576 3.2738893032073975
-7.5734076499938965 -3.51240611076355 1.7747832536697388
-4.253019332885742 -2.184629440307617 -0.11509808897972107
-7.041873931884766 -4.732834339141846 1.4722472429275513
-11.729169845581055 -4.792556285858154 4.140138626098633
-3.683739185333252 1.2386415004730225 2.194796562194824
-7.714231967926025 -3.9187328815460205 1.8549368381500244
-16.32949447631836 -5.009573459625244 8.090033531188965
-10.256040573120117 4.630562782287598 3.301673412322998
-17.79528045654297 7.690751552581787 8.361800193786621
-15.263484954833984 -4.828670501708984 9.194095611572266
-3.4414470195770264 0.9758427143096924 -0.43338602781295776
-11.356084823608398 5.772488594055176 3.927792549133301
-2.959491491317749 0.9208159446716309 -0.8513413071632385
-6.367984771728516 -2.3413214683532715 1.0886865854263306
-3.663159132003784 -0.460296630859375 -0.45083087682724
-6.8295111656188965 -2.6677963733673096 1.3513767719268799
-7.867801189422607 -2.450093984603882 1.9423460960388184
-18.42926597595215 -9.800662994384766 8.279462814331055
-3.2565059661865234 0.018756523728370667 -0.6822888255119324
-12.713095664978027 -7.020031452178955 4.700164794921875
-5.8302178382873535 -3.966379165649414 0.7826038002967834
-3.9335639476776123 -1.9985463619232178 -0.29692310094833374
-4.837616443634033 1.7844029664993286 0.21764124929904938
-4.550833225250244 0.023192912340164185 0.054410532116889954
-4.776437282562256 -0.24781490862369537 0.18281862139701843
-7.842418193817139 -3.5385167598724365 1.9278974533081055
-17.18335723876953 -4.777642250061035 7.841353416442871
-8.287494659423828 -2.7674901485443115 2.1812245845794678
-12.333514213562012 5.77665376663208 4.484121799468994
-10.137977600097656 -3.416731119155884 3.23447322845459
-4.214678764343262 0.9579383134841919 1.0010316371917725
-16.55550193786621 -4.794469356536865 8.093271255493164
-16.612503051757812 -9.413836479187012 6.9196085929870605
-16.333768844604492 -2.990734815597534 7.31239652633667
-4.409635066986084 -0.8617795705795288 -0.02595682628452778
-4.809771537780762 2.0935451984405518 0.20179259777069092
-3.5198476314544678 0.8872601389884949 -0.5324001908302307
-6.7719268798828125 4.0253520011901855 1.3186033964157104
-2.9466969966888428 1.2319653034210205 -0.8333086371421814
-7.951889991760254 2.8332605361938477 1.9902091026306152
-6.178863525390625 -2.8019466400146484 0.9810435771942139
-15.73356819152832 -6.110231876373291 6.764548301696777
-14.758691787719727 -2.73695969581604 9.342374801635742
-4.201934337615967 2.3342535495758057 -0.14417335391044617
-4.202491283416748 -2.5800347328186035 -0.14385740458965302
-13.616194725036621 -6.266783237457275 5.2141852378845215
-4.154087066650391 0.7424992918968201 -0.17140673100948334
-4.123872756958008 -0.7312324643135071 1.523635745048523
-3.7178843021392822 -0.22544153034687042 2.1015090942382812
-5.549368858337402 2.548318386077881 0.6227532625198364
-10.398748397827148 -3.231682777404785 3.3828964233398438
-3.553314447402954 1.1342806816101074 -0.347660094499588
-4.549643039703369 1.5154937505722046 0.053734052926301956
-16.766582489013672 -5.69246768951416 7.007308483123779
-8.661177635192871 -4.478794574737549 2.393914222717285
-9.014361381530762 -3.844578266143799 2.594937801361084
-12.119948387145996 -2.603602170944214 4.3625617027282715
-9.87746524810791 -3.0398378372192383 3.0861949920654297
-10.41703987121582 -5.143672466278076 3.5589985847473145
-10.594837188720703 4.500733375549316 3.4945085048675537
-4.584911346435547 -0.10997097194194794 0.0738074779510498
-3.0538296699523926 1.3841216564178467 -0.631953775882721
-9.013248443603516 -2.5562705993652344 2.5943055152893066
-9.765909194946289 -3.1445178985595703 3.022700309753418
-11.545495986938477 -6.958642959594727 4.035594940185547
-4.708550453186035 -0.9394933581352234 0.14417871832847595
-8.04316234588623 -4.380358695983887 2.0421559810638428
-12.77771282196045 5.83742094039917 4.736948490142822
-17.030405044555664 -7.952990531921387 8.62288761138916
-5.860594749450684 2.54923152923584 0.7998958230018616
-13.221501350402832 7.783708572387695 4.989542007446289
-10.86716079711914 -4.58488130569458 3.649505615234375
-2.945782423019409 -0.7640255689620972 -0.8591453433036804
-3.266319751739502 -1.388219952583313 -0.6767029762268066
-15.271873474121094 -5.460304260253906 9.236712455749512
-7.421760559082031 2.879307985305786 1.688472867012024
-5.283726215362549 2.14560604095459 0.4715564548969269
-8.350471496582031 -1.4336730241775513 2.217069387435913
-6.7072367668151855 3.2948453426361084 1.281782627105713
-10.557204246520996 -4.965366363525391 3.4730851650238037
-5.965979099273682 3.7176859378814697 0.8598782420158386
-12.910382270812988 -7.161938667297363 4.812454700469971
-11.173711776733398 -2.163046360015869 3.8239874839782715
-7.935798168182373 4.709869861602783 1.9810510873794556
-8.411833763122559 -2.682295083999634 2.2519946098327637
-8.71485710144043 3.7864344120025635 2.424471855163574
-4.468206405639648 -0.3218528926372528 0.6480209231376648
-7.664925575256348 5.017123222351074 1.8268768787384033
-7.4921393394470215 2.786153554916382 1.7285298109054565
-4.6852006912231445 0.08194392174482346 0.13089047372341156
-16.421483993530273 -5.3972039222717285 7.108059406280518
-5.178999900817871 0.4058683216571808 0.4119473993778229
-16.126596450805664 -7.917794704437256 8.08041763305664
-5.214886665344238 1.74386465549469 0.4323742091655731
-2.8645310401916504 1.2104967832565308 -0.7595251798629761
-3.5103893280029297 0.9523700475692749 -0.3720921277999878
-2.6779346466064453 0.8425511121749878 -1.0115951299667358
-3.2326624393463135 -0.4323054254055023 -0.695859432220459
-2.8934414386749268 -1.3899084329605103 -0.888934314250946
-6.676377296447754 -1.9271637201309204 1.2642168998718262
-5.642822265625 -1.0622447729110718 0.6759431958198547
-17.386962890625 7.379612445831299 7.360418796539307
-10.00561809539795 5.843064785003662 3.1591403484344482
-3.319965124130249 1.0902647972106934 -0.4804762601852417
-4.529330253601074 2.3389625549316406 0.04217265173792839
-7.14132833480835 -2.032644271850586 1.5288556814193726
-9.329985618591309 5.263613700866699 2.7745871543884277
-4.002695560455322 1.3019450902938843 1.4251976013183594
-4.144794464111328 0.5780139565467834 1.162307620048523
-13.657666206359863 -7.352357387542725 5.237790107727051
-8.19540023803711 -3.5787782669067383 2.1288058757781982
-15.69924259185791 -3.3281009197235107 7.423776149749756
-14.7004976272583 -2.8468377590179443 5.831346035003662
-8.471667289733887 4.2022385597229 2.286052703857422
-12.57514476776123 6.6708478927612305 4.621652126312256
-2.9354875087738037 1.7187291383743286 -0.7918354868888855
-15.097984313964844 -4.97184944152832 9.256256103515625
-9.083320617675781 -4.163080215454102 2.634188413619995
-11.532722473144531 -5.873426914215088 4.028326511383057
-4.587704181671143 -2.8727312088012695 0.07539503276348114
-13.754840850830078 7.531805038452148 5.293105125427246
-4.713076591491699 -0.4034726917743683 0.1467561423778534
-14.672769546508789 -8.52091121673584 5.815562725067139
-9.893250465393066 5.748074531555176 3.095184087753296
-10.150325775146484 4.524736404418945 3.241504669189453
-9.786015510559082 -2.3497750759124756 3.034144639968872
-4.026789665222168 1.0609921216964722 1.403356909751892
-4.806497573852539 1.9395109415054321 0.19992858171463013
-9.124926567077637 -2.203000545501709 2.657869815826416
-8.542430877685547 -3.754488468170166 2.3263275623321533
-4.510038375854492 -0.16261710226535797 0.03119153156876564
-6.43546199798584 3.6093432903289795 1.127095341682434
-5.240696907043457 0.36747661232948303 0.4470646381378174
-4.842609405517578 2.795881986618042 0.22048324346542358
-8.915620803833008 -4.860348701477051 2.53873610496521
-17.54391860961914 -8.072640419006348 8.800615310668945
-3.675161838531494 -1.5804173946380615 -0.4439999759197235
-17.406179428100586 -5.498168468475342 8.22125244140625
-3.347398281097412 -1.510212779045105 -0.630554735660553
-5.914699554443359 -3.1589515209198 0.8306881785392761
-3.5041446685791016 -1.7363483905792236 -0.5413389205932617
-9.392528533935547 -3.4290010929107666 2.8101818561553955
-8.88504695892334 -4.1516642570495605 2.5213356018066406
-16.692035675048828 -7.952396869659424 6.964878082275391
-10.82302188873291 -3.1847727298736572 3.6243841648101807
-10.30705451965332 6.272700786590576 3.3307108879089355
-4.537558078765869 -0.3455614745616913 0.4986226558685303
-5.229754447937012 -0.3430507183074951 0.44083529710769653
-16.48150062561035 -8.158195495605469 7.953920364379883
-16.150203704833984 -5.722261428833008 6.721975326538086
-10.65543270111084 -2.1694226264953613 3.5289957523345947
-13.551392555236816 -7.925457000732422 5.177302360534668
-3.798459768295288 0.19734026491641998 1.8538984060287476
-16.401914596557617 -5.214024066925049 8.044882774353027
-10.952224731445312 -1.9258524179458618 3.697922706604004
-6.078328609466553 2.7972617149353027 0.9238238334655762
-9.208359718322754 -3.758049249649048 2.7053568363189697
-6.907710552215576 -4.573674201965332 1.39588463306427
-16.68407440185547 -7.990801811218262 7.044826507568359
-12.597888946533203 7.587240695953369 4.634596347808838
-4.0481462478637695 0.2630591094493866 -0.2317049205303192
-5.363399505615234 -2.3606224060058594 0.5169020295143127
-12.48973560333252 7.404662609100342 4.5730390548706055
-16.23932456970215 -8.291135787963867 7.272193431854248
-16.789329528808594 -9.087047576904297 7.386416912078857
-5.350510120391846 1.7296119928359985 0.5095676779747009
-6.372180461883545 -3.6446571350097656 1.091074824333191
-10.117597579956055 5.937144756317139 3.2228777408599854
-5.716383457183838 -1.6381746530532837 0.717812716960907
-13.420373916625977 7.2212934494018555 5.1027350425720215
-9.086777687072754 4.198873996734619 2.6361589431762695
-14.846019744873047 -5.922661304473877 5.914172172546387
-8.646181106567383 4.502450466156006 2.385382890701294
-14.178523063659668 -2.915590763092041 9.233795166015625
-11.791528701782227 6.2504096031188965 4.1756367683410645
-14.573272705078125 -7.633305072784424 5.758931636810303
-8.080964088439941 -3.48891019821167 2.063671588897705
-3.2921574115753174 1.4002865552902222 -0.49630412459373474
-11.98878288269043 7.039400577545166 4.287909030914307
-6.71891975402832 4.3933892250061035 1.2884331941604614
-3.0464093685150146 -0.5464341044425964 -0.8018692135810852
-14.782635688781738 -5.894981384277344 8.381988525390625
-9.254533767700195 -3.001803398132324 2.731638193130493
-17.12008285522461 8.269165992736816 7.208518028259277
-12.258370399475098 5.709400653839111 4.441351413726807
-8.436629295349121 -4.647668361663818 2.2661073207855225
-5.71748685836792 -2.7604949474334717 0.7184401154518127
-5.085947036743164 1.4806849956512451 0.35898393392562866
-4.424371719360352 -1.0819001197814941 -0.017568740993738174
-4.783101558685303 -1.7944201231002808 0.18661163747310638
-13.98923397064209 -6.787074565887451 5.426510334014893
-6.037331581115723 -2.189058780670166 0.9004879593849182
-5.445161819458008 2.6148464679718018 0.5634410381317139
-4.132173538208008 -2.786346912384033 -0.18388168513774872
-6.585177898406982 3.168806791305542 1.212311029434204
-8.999211311340332 4.973572254180908 2.5863189697265625
-15.129692077636719 -5.179166316986084 9.008965492248535
-17.073341369628906 -8.285948753356934 7.265511512756348
-17.243484497070312 -3.311210870742798 7.3376874923706055
-4.332947731018066 -1.9399456977844238 -0.06960484385490417
-11.687027931213379 -6.038325309753418 4.116151809692383
-16.219844818115234 -7.925670146942139 7.979504585266113
-4.47752046585083 -0.49274101853370667 0.6128031611442566
-4.572322845458984 -0.1863613724708557 0.46490582823753357
-4.1824541091918945 2.7736613750457764 -0.1552603393793106
-7.563076972961426 -4.770285129547119 1.768902063369751
-6.790297031402588 2.493499755859375 1.3290594816207886
-3.7385547161102295 1.0286462306976318 2.0124738216400146
-8.823321342468262 -4.890042304992676 2.4862027168273926
-6.8080153465271 -4.46251106262207 1.3391406536102295
-6.6573333740234375 -3.4913244247436523 1.2533764839172363
-8.964690208435059 -2.435821533203125 2.5666677951812744
-3.319257974624634 -0.917081356048584 -0.6465715765953064
-7.743667125701904 3.100538730621338 1.8716936111450195
-5.125797271728516 -1.9266600608825684 0.3816654682159424
-8.485025405883789 3.7409257888793945 2.293656826019287
-15.762304306030273 -8.541498184204102 6.435697078704834
-2.362593173980713 0.29486283659935 -1.1910820007324219
-6.7115044593811035 3.822741985321045 1.2842133045196533
-7.127589225769043 3.9774374961853027 1.52103853225708
-3.7186119556427 0.37896886467933655 -0.4192684292793274
-9.91279125213623 -5.179197788238525 3.1644039154052734
-4.180725574493408 1.0339281558990479 1.120279312133789
-4.084445953369141 2.3328452110290527 -0.21104417741298676
-16.832822799682617 -5.1578779220581055 7.132326126098633
-3.7922661304473877 -0.08976717293262482 1.899227261543274
-4.512937068939209 0.7158284187316895 0.6931713223457336
-4.1200432777404785 0.06465081125497818 1.2248657941818237
-6.543776988983154 2.598926544189453 1.1887454986572266
-10.599969863891602 -3.4852981567382812 3.497427225112915
-18.067874908447266 7.620278358459473 8.362373352050781
-3.638158082962036 0.09863650798797607 2.251572608947754
-4.8470611572265625 1.1609928607940674 0.2230171114206314
-6.275903701782227 -2.2543933391571045 1.036277174949646
-16.027421951293945 -5.033136367797852 8.417512893676758
-3.5514109134674072 0.12643827497959137 2.503396511077881
-8.470598220825195 -4.205209732055664 2.2854411602020264
-14.582368850708008 7.910000324249268 5.764113903045654
-11.289388656616211 -2.627746105194092 3.8898274898529053
-2.707270383834839 0.22709789872169495 -0.9948995113372803
-6.096429347991943 3.581474781036377 0.9341267347335815
-2.166801929473877 -0.6617960333824158 -1.3025215864181519
-7.777160167694092 3.8492860794067383 1.8907575607299805
-16.432662963867188 -6.340836048126221 7.238229751586914
-8.75173282623291 -2.4976212978363037 2.445457696914673
-2.485273599624634 0.9786244630813599 -1.1212539672851562
-9.024175643920898 -2.9335248470306396 2.600525140762329
-16.593124389648438 -7.435325622558594 8.920278549194336
-17.6949520111084 -7.065655708312988 9.303707122802734
-8.279962539672852 -2.3775253295898438 2.1769371032714844
-3.756680727005005 -0.3568970561027527 2.037482738494873
-3.824615001678467 0.14191314578056335 1.8008019924163818
-7.382617473602295 -1.6426362991333008 1.6661903858184814
-2.8574447631835938 0.30804628133773804 -0.9094229936599731
-5.101813316345215 -1.6556127071380615 0.36801376938819885
-16.18515396118164 -7.349404335021973 8.064132690429688
-16.37906265258789 -6.135288238525391 7.729528427124023
-19.06266975402832 8.118338584899902 9.015493392944336
-4.284483432769775 0.8464858531951904 1.1076924800872803
-6.662787437438965 -3.7424986362457275 1.2564809322357178
-7.651574611663818 -4.421021461486816 1.8192731142044067
-8.608461380004883 5.519957542419434 2.3639140129089355
-3.879409074783325 1.475043773651123 2.0009186267852783
-4.298330307006836 -1.6064808368682861 -0.08930881321430206
-16.364133834838867 -8.864668846130371 6.778243064880371
-16.334089279174805 -8.216976165771484 7.665804862976074
-3.9691014289855957 -0.03359878808259964 1.5186437368392944
-17.061426162719727 -7.857846260070801 8.627361297607422
-3.2064638137817383 1.6327168941497803 -0.5450779795646667
-12.238749504089355 -5.616002559661865 4.430178642272949
-15.249425888061523 -4.523746967315674 6.14378023147583
-13.901387214660645 5.569729328155518 5.3765153884887695
-7.97206449508667 -4.534285545349121 2.001688241958618
-16.447420120239258 -6.404977321624756 8.265860557556152
-16.520015716552734 -7.3065266609191895 7.987752437591553
-6.281651973724365 -2.921178102493286 1.039548397064209
-11.9255952835083 -3.8215432167053223 4.2519402503967285
-3.9599297046661377 1.409132719039917 1.5493011474609375
-11.305760383605957 -5.93968391418457 3.899144411087036
-16.047273635864258 -7.2446088790893555 7.204926490783691
-5.674036502838135 2.6029300689697266 0.6937111020088196
-2.568457841873169 -0.9498463869094849 -1.0739086866378784
-16.19345474243164 -6.740351676940918 7.366755962371826
-15.696144104003906 9.0227689743042 6.398046970367432
-7.739374160766602 -1.5575792789459229 1.8692480325698853
-15.691505432128906 -8.985519409179688 6.395400047302246
-3.9174342155456543 -1.2446397542953491 -0.3061046898365021
-6.165838241577148 2.48565411567688 0.9736325740814209
-14.942599296569824 -5.304075241088867 9.076069831848145
-10.029142379760742 -3.1022369861602783 3.1725265979766846
-3.619459390640259 -0.6114705801010132 -0.4757046103477478
-2.924360513687134 -1.5194722414016724 -0.8713381290435791
-13.524524688720703 -6.485673427581787 5.162010192871094
-8.774117469787598 -3.7998101711273193 2.458197832107544
-17.960376739501953 6.837219715118408 8.231188774108887
-8.4210205078125 -1.464856505393982 2.257223129272461
-3.580012559890747 0.05180223286151886 -0.4981570839881897
-4.391119956970215 1.7592570781707764 -0.036493293941020966
-3.9711410999298096 -0.6107200384140015 1.6585729122161865
-16.290328979492188 -7.829503536224365 7.70034122467041
-7.297702312469482 4.053844928741455 1.6178616285324097
-14.516962051391602 -3.5829062461853027 5.726881504058838
-18.555761337280273 7.281641483306885 10.052908897399902
-18.013134002685547 -5.485862731933594 8.10908031463623
-5.10864782333374 1.0226634740829468 0.3719050884246826
-2.809372901916504 1.2283778190612793 -0.9367824792861938
-15.487897872924805 -6.680079936981201 6.279512405395508
-6.551623344421387 -1.7157307863235474 1.1932092905044556
-4.483974456787109 1.1662330627441406 0.5425494909286499
-2.7442636489868164 0.9781593680381775 -0.9738419651985168
-2.3893990516662598 0.6454697251319885 -1.1758222579956055
-7.410939693450928 -2.8207767009735107 1.6823097467422485
-16.238780975341797 -9.091919898986816 6.706895351409912
-2.912128210067749 -0.3548300266265869 -0.878300130367279
-4.796740531921387 -2.5283915996551514 0.1943746954202652
-6.554719924926758 2.355968713760376 1.1949739456176758
-5.072911739349365 -1.5589834451675415 0.35156509280204773
-9.560687065124512 -1.7130045890808105 2.9058942794799805
-17.583084106445312 -6.3303022384643555 9.409255981445312
-16.32986068725586 -7.221056938171387 7.183532238006592
-8.975993156433105 4.513864040374756 2.573103427886963
-9.9049654006958 4.93174409866333 3.101850986480713
-4.2079176902771 0.01865413784980774 -0.14076882600784302
-3.22131085395813 1.7848660945892334 -0.702320396900177
-6.30380916595459 3.3175790309906006 1.0521619319915771
-8.015485763549805 -3.2386293411254883 2.026402711868286
-3.734226942062378 1.4122388362884521 2.1467840671539307
-11.7864408493042 -6.147402286529541 4.172736167907715
-12.258279800415039 6.891972064971924 4.441299915313721
-6.767736911773682 3.3680777549743652 1.316218376159668
-10.90937328338623 -6.5485358238220215 3.673530340194702
-7.710925579071045 3.2225453853607178 1.853057861328125
-8.058320045471191 -3.3842613697052 2.0507824420928955
-10.858966827392578 -6.66507625579834 3.644840955734253
-4.805721282958984 -1.5233564376831055 0.1994856297969818
-8.245346069335938 -3.005624294281006 2.1572346687316895
-4.244016170501709 -1.245298981666565 -0.12022212892770767
-6.264556884765625 -3.2537598609924316 1.0298187732696533
-8.320548057556152 -1.97011399269104 2.2000367641448975
-9.159563064575195 -5.714865684509277 2.677582263946533
-4.907528877258301 -1.7259037494659424 0.2574329972267151
-16.32078742980957 -5.22212553024292 8.03907585144043
-4.3978962898254395 1.8785836696624756 -0.03263574838638306
-7.151998996734619 3.505276918411255 1.5349299907684326
-5.147664546966553 1.7580243349075317 0.394112765789032
-6.168393611907959 2.311791181564331 0.9750869274139404
-5.010891437530518 1.3638705015182495 0.3162645399570465
-4.715666770935059 1.98092782497406 0.14823171496391296
-11.405976295471191 5.826689720153809 3.9561901092529297
-4.739203453063965 0.9266173243522644 0.16162633895874023
-3.1905102729797363 -1.8883657455444336 -0.7198519706726074
-9.601373672485352 -3.9299819469451904 2.9290506839752197
-5.9483819007873535 -3.0813729763031006 0.8498594760894775
-9.779746055603027 5.651576519012451 3.030579090118408
-6.445544242858887 -2.613072395324707 1.132832646369934
-2.233412504196167 -0.7970833778381348 -1.2646071910858154
-4.6816487312316895 2.217905282974243 0.12886936962604523
-7.500044822692871 3.3856117725372314 1.733029842376709
-8.945096015930176 4.925742149353027 2.5555176734924316
-8.265467643737793 3.924734115600586 2.168689012527466
-16.03847312927246 -6.016965866088867 7.165626525878906
-16.69440460205078 -5.614393711090088 8.770100593566895
-5.4576849937438965 2.2855732440948486 0.5705697536468506
-4.685044288635254 1.4254802465438843 0.13080056011676788
-18.554964065551758 10.32840633392334 8.025217056274414
-4.3741068840026855 -0.21744981408119202 0.7564728856086731
-6.839504718780518 -4.224164009094238 1.3570643663406372
-11.535781860351562 4.620992660522461 4.03007173538208
-11.618881225585938 -4.320792198181152 4.077365398406982
-6.659745216369629 4.462014675140381 1.2547529935836792
-3.647225856781006 -0.2826877236366272 2.3020641803741455
-3.6308696269989014 0.46377232670783997 2.2436916828155518
-5.513734340667725 -1.6567168235778809 0.602469801902771
-8.360431671142578 4.1075005531311035 2.22274112701416
-10.107641220092773 -4.997043132781982 3.21720552444458
-4.9152069091796875 -2.7559168338775635 0.261801540851593
-9.17624568939209 -3.41206955909729 2.687079429626465
-15.483023643493652 -8.901695251464844 6.276737689971924
-11.505498886108398 5.934360027313232 4.0128350257873535
-5.499023914337158 -1.0525758266448975 0.5940961837768555
-4.677361965179443 1.3990060091018677 0.463559091091156
