-9.62857723236084 -1.900747299194336 2.4856128692626953
-13.63032054901123 -0.7610986232757568 5.078322887420654
-8.419092178344727 -2.7819042205810547 1.7972044944763184
-12.966033935546875 0.08124388009309769 6.506911277770996
-3.584885358810425 0.838056206703186 -0.9543044567108154
-7.124478816986084 -1.079893708229065 1.060343623161316
-11.657828330993652 -3.7768394947052 3.640611410140991
-14.636138916015625 -6.79325008392334 5.335791110992432
-8.677165985107422 -0.9285478591918945 1.944093942642212
-9.717859268188477 -3.1200642585754395 2.5364303588867188
-11.855323791503906 4.598138332366943 5.19957971572876
-10.991047859191895 -6.1436967849731445 3.261096239089966
-6.038139820098877 3.0401699542999268 0.4420279860496521
-2.5628433227539062 -0.2977551221847534 -1.5360246896743774
-11.943560600280762 -6.9563446044921875 3.80324125289917
-8.35783863067627 0.014441132545471191 1.7623423337936401
-9.871337890625 0.8377687931060791 2.6237881183624268
-10.292048454284668 4.471693992614746 2.8632476329803467
-5.958828449249268 -2.5264272689819336 0.3968835175037384
-3.496690273284912 0.8088184595108032 -1.0045026540756226
-7.779783725738525 4.3079681396484375 1.4333282709121704
-5.8483099937438965 -0.7775256633758545 0.33398011326789856
-12.472512245178223 2.922414779663086 4.104312896728516
-4.225567817687988 0.25171148777008057 -0.5896435976028442
-10.522019386291504 -1.3471548557281494 2.99413800239563
-11.62061595916748 2.498246192932129 3.8778693675994873
-3.7363758087158203 -2.3860232830047607 -0.8680802583694458
-9.503950119018555 3.1208810806274414 2.4146814346313477
-16.330862045288086 -6.689119815826416 6.300384521484375
-14.2068452835083 0.6438875198364258 5.091450214385986
-4.093859672546387 -1.0456430912017822 -0.6646088361740112
-11.250121116638184 2.6905338764190674 4.8551130294799805
-5.985840320587158 -3.4289557933807373 0.41225743293762207
-10.927539825439453 3.411919116973877 3.224951982498169
-10.638890266418457 6.3299760818481445 3.060662031173706
-9.155003547668457 2.5609469413757324 2.216069459915161
-10.227030754089355 2.6405107975006104 2.826240062713623
-8.673081398010254 5.7060394287109375 1.9417717456817627
-5.457794189453125 -2.5811707973480225 0.11170779913663864
-3.5919153690338135 1.6838771104812622 -0.11704498529434204
-9.256284713745117 -3.3406834602355957 2.2737131118774414
-5.3950934410095215 -3.5564639568328857 0.07601965218782425
-7.468484401702881 -4.4136834144592285 1.2561416625976562
-14.246867179870605 1.5987969636917114 5.114229679107666
-11.69936752319336 -2.6533069610595703 3.6642544269561768
-8.586230278015137 3.1662673950195312 1.8923373222351074
-8.90282917022705 -2.4455618858337402 2.0725347995758057
-6.586310863494873 1.1832842826843262 0.754032552242279
-10.2015380859375 -4.3696441650390625 2.8117268085479736
-13.558430671691895 -6.871148109436035 4.722384929656982
-2.0551881790161133 0.18425242602825165 -0.649053692817688
-10.675390243530273 4.054134368896484 4.083749771118164
-17.12027359008789 -7.345540523529053 6.749698162078857
-19.245132446289062 -10.891478538513184 7.959112644195557
-12.17384147644043 -2.2705769538879395 3.9343137741088867
-13.725690841674805 1.8265225887298584 4.81758975982666
-6.4015212059021 -2.4381043910980225 0.6488533020019531
-10.770851135253906 2.5068519115448 3.1357691287994385
-19.159870147705078 -10.575944900512695 7.910582542419434
-12.546624183654785 0.04905137047171593 5.556796550750732
-5.103328227996826 -0.9144638776779175 -0.0900445282459259
-3.964942693710327 -2.285933256149292 -0.7379859685897827
-8.321932792663574 -5.094094276428223 1.7419025897979736
-14.84010124206543 -3.834871292114258 5.4518818855285645
-13.078985214233398 0.5703557729721069 7.428499221801758
-11.907736778259277 0.3713035583496094 3.7828545570373535
-10.218818664550781 4.074621677398682 2.8215675354003906
-7.278293609619141 -4.6747355461120605 1.147889256477356
-10.229262351989746 -0.1476588249206543 2.8275091648101807
-8.3597993850708 3.7990365028381348 1.7634596824645996
-11.460001945495605 -3.7596583366394043 3.5280137062072754
-5.455008506774902 2.600153923034668 0.11012422293424606
-7.203524589538574 1.6993908882141113 1.105334997177124
-6.834963321685791 3.2590854167938232 0.8955606818199158
-6.49910306930542 0.32706940174102783 0.7043959498405457
-10.58749771118164 -4.007229804992676 3.0314066410064697
-15.48697280883789 -4.3896708488464355 5.820065021514893
-4.149557590484619 -2.4863131046295166 -0.6329074501991272
-11.077742576599121 -2.023155689239502 3.310441493988037
-11.663721084594727 3.676663398742676 5.097157001495361
-19.496767044067383 -10.831270217895508 8.102336883544922
-16.441802978515625 -2.8305344581604004 6.363529682159424
-15.832409858703613 -4.822933673858643 6.5108232498168945
-16.0518856048584 -4.643764019012451 6.752334117889404
-9.903286933898926 4.592751502990723 2.6419730186462402
-17.877655029296875 10.25479793548584 7.180787563323975
-8.69743537902832 -2.2883822917938232 1.9556305408477783
-6.318202972412109 0.6642929315567017 0.6014326214790344
-14.222447395324707 1.4873121976852417 6.677012920379639
-8.534392356872559 0.7678300142288208 1.862831950187683
-10.675237655639648 2.6980783939361572 3.0813488960266113
-13.630228996276855 -1.2579617500305176 6.259989261627197
-5.472598075866699 -3.3222925662994385 0.12013306468725204
-8.696175575256348 1.6161378622055054 1.9549155235290527
-13.40014362335205 -0.4014524519443512 5.021694183349609
-6.340297222137451 3.1038849353790283 0.6140086054801941
-14.100465774536133 -2.3730194568634033 5.030900478363037
-13.446792602539062 -1.1568167209625244 6.106940746307373
-11.216530799865723 0.1188344955444336 3.3894381523132324
-8.151311874389648 1.710917592048645 1.644791841506958
-10.773765563964844 -4.518477439880371 3.1374239921569824
-11.964707374572754 -5.247905254364014 3.815279006958008
-10.337301254272461 3.3074069023132324 3.772585153579712
-10.852789878845215 1.04252028465271 3.182405948638916
-7.546819686889648 3.2200822830200195 1.3007315397262573
-10.417167663574219 2.9890427589416504 4.080465316772461
-9.725834846496582 0.613602876663208 2.5409719944000244
-8.219012260437012 -0.28141260147094727 1.6833244562149048
-12.672235488891602 -1.1893991231918335 4.217987537384033
-8.008598327636719 0.6936194896697998 1.5635629892349243
-12.860671997070312 0.050055716186761856 6.620607376098633
-12.151256561279297 -2.605447292327881 3.9214584827423096
-8.225456237792969 0.12505221366882324 1.6869933605194092
-9.674009323120117 0.4386177062988281 2.5114736557006836
-14.3195161819458 -7.786842346191406 5.155576229095459
-10.403640747070312 -3.8901758193969727 2.9267594814300537
-12.737548828125 6.106910228729248 4.255165100097656
-16.376005172729492 -8.011184692382812 6.326079368591309
-3.6440460681915283 1.4015929698944092 -0.36377134919166565
-10.997390747070312 5.797529697418213 3.2647111415863037
-11.684575080871582 6.575323581695557 3.655839204788208
-15.197243690490723 -4.886323928833008 5.655158042907715
-11.162541389465332 4.1227264404296875 3.3587098121643066
-6.494248390197754 -3.653947114944458 0.7016305923461914
-7.486855983734131 -1.2374279499053955 1.266600251197815
-7.175906181335449 -4.379504680633545 1.089613437652588
-3.7436881065368652 0.6688080430030823 -0.4397487938404083
-7.928366661071777 0.1951512098312378 1.5178967714309692
-9.481860160827637 -0.02267289161682129 2.402106523513794
-10.49222183227539 2.170161247253418 2.9771790504455566
-10.461275100708008 3.618248462677002 3.9235520362854004
-6.4354095458984375 -2.648937463760376 0.6681414842605591
-7.979564666748047 0.3796565532684326 1.5470370054244995
-10.793527603149414 -3.5717079639434814 3.1486732959747314
-7.157878875732422 4.855912208557129 1.0793564319610596
-10.499177932739258 4.343535900115967 3.8768534660339355
-3.833423614501953 1.1760942935943604 0.020646393299102783
-6.119737148284912 -0.8927732110023499 0.4884697496891022
-12.192008972167969 -1.451003074645996 3.9446544647216797
-7.8095598220825195 -1.622826099395752 1.4502737522125244
-12.769672393798828 -1.7067878246307373 4.273446559906006
-8.79050064086914 1.032179355621338 2.0086026191711426
-11.93571662902832 -0.37738746404647827 7.391181468963623
-11.057994842529297 3.7076802253723145 3.2992048263549805
-6.43646240234375 -0.09785336256027222 0.6687421202659607
-17.133657455444336 -6.503334999084473 6.757316589355469
-10.978775978088379 3.139406204223633 4.700669288635254
-6.677545547485352 1.8797407150268555 0.8059607744216919
-10.940045356750488 2.6824774742126465 4.278836250305176
-10.75287914276123 2.694354772567749 4.651641368865967
-9.285904884338379 -0.6610605716705322 2.2905731201171875
-9.897533416748047 -0.23186564445495605 2.638697385787964
-7.350036144256592 4.628207206726074 1.1887271404266357
-7.041502475738525 -0.06931644678115845 1.0131152868270874
-11.26656436920166 3.2717478275299072 4.867710590362549
-8.155515670776367 2.3533525466918945 1.6471856832504272
-10.47780704498291 5.299610137939453 4.063673496246338
-8.056710243225098 2.5092315673828125 1.5909478664398193
-11.047811508178711 2.033832311630249 3.293407678604126
-8.263838768005371 0.540772557258606 1.7088394165039062
-17.544294357299805 -9.515864372253418 6.991037845611572
-11.283576011657715 6.445960521697998 3.427600860595703
-2.6333725452423096 0.2637282609939575 -1.495880365371704
-6.897089958190918 2.5473432540893555 0.9309207797050476
-11.813016891479492 1.1693106889724731 3.728943347930908
-5.279037952423096 -0.26862576603889465 0.009965017437934875
-4.064838886260986 2.4487805366516113 -0.6811258792877197
-7.451247215270996 -2.4118590354919434 1.2463313341140747
-13.055501937866211 -0.7066036462783813 6.325578689575195
-10.310803413391113 3.4862046241760254 4.0878586769104
-12.79886531829834 -1.87582266330719 4.290062427520752
-13.34033203125 0.6104474067687988 4.598251819610596
-13.728860855102539 -1.1378849744796753 5.656383991241455
-6.8404765129089355 -3.3841919898986816 0.8986953496932983
-7.112251281738281 -3.7662205696105957 1.0533822774887085
-7.261066913604736 4.695417881011963 1.1380884647369385
-8.970359802246094 -3.4475319385528564 2.110970973968506
-8.787715911865234 3.3402464389801025 2.0070183277130127
-12.230963706970215 4.490912437438965 3.966830015182495
-11.084711074829102 6.273728847503662 3.314410924911499
-15.556315422058105 -2.5622217655181885 5.859532833099365
-10.071640968322754 5.0193400382995605 2.737797260284424
-4.821035861968994 2.738952398300171 -0.2507172226905823
-9.675713539123535 -3.9809303283691406 2.5124409198760986
-13.108048439025879 6.49463415145874 4.466044902801514
-6.339876174926758 2.5550429821014404 0.6137687563896179
-13.126185417175293 0.6830909848213196 4.933941841125488
-3.100564479827881 1.100404977798462 -1.2299668788909912
-12.9855375289917 -0.4003727436065674 5.535810470581055
-12.459787368774414 -3.4481465816497803 4.097066879272461
-9.301515579223633 4.139747142791748 2.299459934234619
-9.4887056350708 3.5288193225860596 2.4060044288635254
-5.624667644500732 3.751755714416504 0.20669032633304596
-11.222270965576172 -1.4167077541351318 3.392704486846924
-8.070508003234863 4.522477626800537 1.598801851272583
-6.695484638214111 3.496596574783325 0.8161724805831909
-9.161722183227539 2.3542068004608154 2.219892740249634
-16.103477478027344 -1.827357530593872 6.170965671539307
-11.056049346923828 2.8741161823272705 3.298095941543579
-6.232621192932129 3.089292287826538 0.5527219772338867
-11.615440368652344 1.516622543334961 5.142589569091797
-3.0069997310638428 0.01007699966430664 -1.2832218408584595
-6.346518039703369 0.9483805298805237 0.6175488829612732
-9.688379287719727 4.022572994232178 2.519653558731079
-10.76944637298584 2.8530526161193848 3.611534833908081
-10.933229446411133 6.993167400360107 3.2281925678253174
-7.369359970092773 -1.9868881702423096 1.1997230052947998
-18.096302032470703 -7.559089183807373 7.563961505889893
-3.5672011375427246 1.7945061922073364 -0.11265420913696289
-11.616232872009277 6.730985641479492 3.61694073677063
-3.8094537258148193 -2.205510377883911 -0.8264865279197693
-10.342920303344727 5.431766510009766 2.892202377319336
-10.565267562866211 4.833144187927246 3.018756628036499
-9.449435234069824 -3.945035934448242 2.383648633956909
-6.97184944152832 -4.6727118492126465 0.973469078540802
-12.034078598022461 -0.22665439546108246 7.43923282623291
-14.819366455078125 -8.244627952575684 5.771461009979248
-10.998214721679688 3.1420581340789795 3.265179395675659
-5.497422218322754 -0.8131611943244934 0.1342633068561554
-10.161492347717285 3.522110939025879 2.7889373302459717
-9.166504859924316 3.5630013942718506 2.830993890762329
-12.6376953125 1.1105451583862305 4.198329448699951
-7.180698871612549 3.1691620349884033 1.0923445224761963
-8.472932815551758 2.3106231689453125 1.82785165309906
-9.164002418518066 -0.3528463840484619 2.2211897373199463
-20.04900550842285 -10.742976188659668 8.416656494140625
-4.583071708679199 0.4229812026023865 -0.3861616551876068
-12.850764274597168 0.374666690826416 4.319602966308594
-6.221360683441162 -4.273106575012207 0.5463095307350159
-2.83583927154541 0.016135573387145996 -1.3806427717208862
-13.573448181152344 -1.0460882186889648 4.730935573577881
-9.026300430297852 -0.7531993389129639 2.142812728881836
-4.254458427429199 0.6911302208900452 -0.14012235403060913
-15.365378379821777 -7.033845901489258 5.750853538513184
-13.157604217529297 1.312839388847351 4.494247913360596
-9.873477935791016 4.850865364074707 2.6250078678131104
-6.449073314666748 -1.5140416622161865 0.675919771194458
-15.05289363861084 -6.772934913635254 5.572995662689209
-13.849224090576172 -5.564825057983398 4.887898921966553
-10.271232604980469 -2.8643016815185547 2.8513965606689453
-6.117377758026123 -0.6165264844894409 0.4871266186237335
-11.410466194152832 2.232028007507324 3.728231191635132
-15.129535675048828 1.1383920907974243 5.616622447967529
-16.554039001464844 -4.098857879638672 7.009288787841797
-12.9692964553833 0.45833736658096313 7.36469841003418
-10.7080659866333 -2.7996232509613037 3.1000313758850098
-7.68834924697876 3.367910385131836 1.3812862634658813
-2.724747657775879 1.0994873046875 -1.4438724517822266
-10.385882377624512 2.844959259033203 2.916654348373413
-5.9101338386535645 0.07045617699623108 0.369168758392334
-10.221977233886719 -1.5786089897155762 2.82336163520813
-12.697518348693848 3.382108211517334 5.678935527801514
-10.865397453308105 3.672875165939331 3.1895837783813477
-8.008333206176758 -5.2781171798706055 1.5634093284606934
-3.102490186691284 -1.7921628952026367 -1.228872299194336
-8.474137306213379 -4.452795505523682 1.8285335302352905
-10.314815521240234 -3.8333821296691895 2.87620210647583
-5.742386817932129 3.586012125015259 0.2736925482749939
-5.396344184875488 0.3435758054256439 0.0767330452799797
-6.976637363433838 3.2997798919677734 0.9761976003646851
-6.606784820556641 -0.34150588512420654 0.7656850814819336
-13.163351058959961 -1.6834619045257568 4.497518539428711
-11.972722053527832 -4.035082817077637 3.819841146469116
-4.456935882568359 3.006129264831543 -0.45795321464538574
-13.007729530334473 -1.2740447521209717 7.516480922698975
-10.210944175720215 5.317293167114258 2.817084550857544
-4.052310943603516 -2.6580257415771484 -0.6882588863372803
-11.791236877441406 -1.8350751399993896 3.716545343399048
-6.733274936676025 -3.5581674575805664 0.8376789689064026
-10.506051063537598 3.3533122539520264 3.4845964908599854
-11.645490646362305 7.05692720413208 3.6335928440093994
-4.86973762512207 -2.3849220275878906 -0.22299960255622864
-3.157162666320801 1.5193727016448975 -1.197752833366394
-13.153926849365234 0.08586496114730835 4.492154598236084
-11.364689826965332 2.412322998046875 3.867915391921997
-7.650490760803223 -4.283780574798584 1.359735131263733
-11.998868942260742 -2.5561304092407227 3.8347227573394775
-12.472062110900879 1.0786628723144531 4.104055404663086
-6.42526388168335 0.5013922452926636 0.6623684763908386
-3.7086403369903564 1.1382355690002441 -0.8838656544685364
-3.730670690536499 -2.0367319583892822 -0.8713278770446777
-12.782722473144531 2.9062747955322266 5.727431774139404
-5.017501354217529 -0.5573935508728027 -0.1388956755399704
-16.05475425720215 -7.310822010040283 6.143231391906738
-11.37982177734375 2.73142409324646 3.48237943649292
-9.69826889038086 1.1713871955871582 2.5252809524536133
-5.083639621734619 2.9251136779785156 -0.10124941170215607
-13.572853088378906 0.8781944513320923 4.730597972869873
-3.5443642139434814 1.1083598136901855 -0.9773672819137573
-8.595914840698242 -0.9518833160400391 1.8978475332260132
-10.151832580566406 -1.6507847309112549 2.7834372520446777
-11.054328918457031 1.528409481048584 3.297117233276367
-13.652987480163574 8.270171165466309 4.776211738586426
-12.280684471130371 -3.8165433406829834 3.9951250553131104
-3.8110363483428955 -0.5713995695114136 -0.825585126876831
-10.707469940185547 3.0208277702331543 3.57177734375
-11.506237983703613 1.568181037902832 4.603858470916748
-13.379103660583496 -1.6150227785110474 7.037716865539551
-13.691996574401855 -1.2942745685577393 5.932389736175537
-19.800952911376953 -6.722674369812012 8.275472640991211
-6.794289588928223 -3.7804112434387207 0.8724068999290466
-7.795049667358398 0.18002533912658691 1.442016363143921
-19.097021102905273 10.853466987609863 7.874820709228516
-12.243524551391602 -0.3843398094177246 3.9739763736724854
-6.2591776847839355 -3.270550012588501 0.5678346753120422
-10.645751953125 -4.54035758972168 3.0645623207092285
-14.364973068237305 -3.0010006427764893 5.181451320648193
-12.512259483337402 5.315262794494629 4.126935958862305
-3.7525031566619873 -0.495292603969574 -0.8588998913764954
-10.652546882629395 4.275173187255859 4.514989852905273
-15.750582695007324 -2.0741617679595947 5.970105171203613
-7.7079901695251465 -1.3211508989334106 1.3924635648727417
-4.609613418579102 -2.2485573291778564 -0.3710560202598572
-10.896347045898438 -0.39345717430114746 3.2071967124938965
-7.855224609375 0.5743703842163086 1.4762663841247559
-12.555184364318848 0.25334763526916504 5.131880283355713
-10.016449928283691 -1.914726972579956 2.706380605697632
-10.709592819213867 4.362001895904541 3.100903272628784
-3.9227113723754883 -2.3749306201934814 -0.762022852897644
-11.56690502166748 -2.5099411010742188 3.5888607501983643
-10.142581939697266 -3.8161845207214355 2.7781710624694824
-7.090855121612549 4.0759406089782715 1.0412079095840454
-9.89398193359375 4.745710372924805 2.6366777420043945
-3.70390248298645 0.005948305130004883 -0.8865628242492676
-4.625874042510986 2.884397029876709 -0.361799031496048
-6.604705333709717 -3.0266597270965576 0.7645002603530884
-12.907172203063965 -0.6827607154846191 6.519371509552002
-7.565094947814941 -2.2587037086486816 1.3111305236816406
-7.76734733581543 -2.0578789710998535 1.42624831199646
-10.507293701171875 -0.12379264831542969 2.98575758934021
-8.074755668640137 4.317680358886719 1.6012195348739624
-6.052030086517334 1.659169316291809 0.4499334394931793
-13.74048137664795 -4.665334701538086 4.8260064125061035
-5.792538166046143 3.6735055446624756 0.30223843455314636
-13.374974250793457 -1.3333494663238525 4.617969036102295
-3.6916682720184326 -1.5315557718276978 -0.893527090549469
-9.54825496673584 3.9175829887390137 2.4398982524871826
-9.494399070739746 -6.025097370147705 2.409240961074829
-11.810029983520508 -3.0826666355133057 3.727240800857544
-7.229542255401611 -1.2068264484405518 1.1201430559158325
-10.949424743652344 -1.985504150390625 3.2374064922332764
-2.9398908615112305 -0.46794795989990234 -1.3214197158813477
-7.488731861114502 4.4849324226379395 1.2676692008972168
-2.0592150688171387 -0.14366920292377472 -0.6471646428108215
-4.870332717895508 3.2344961166381836 -0.22265878319740295
-17.36095428466797 -3.362051248550415 6.886689186096191
-10.334284782409668 -1.6083285808563232 2.8872854709625244
-6.873899459838867 -1.2188587188720703 0.9177196621894836
-5.443808078765869 -2.3706517219543457 0.10374709218740463
-10.701834678649902 4.214054107666016 3.096487045288086
-4.335639476776123 -2.285731077194214 -0.5269944071769714
-10.363077163696289 -0.7852067947387695 2.903672695159912
-10.91944694519043 0.8576524257659912 3.2203450202941895
-8.79762077331543 1.95844304561615 2.012655019760132
-6.693615913391113 -2.206705331802368 0.8151065111160278
-13.56060791015625 -7.00154972076416 4.723625659942627
-9.528114318847656 1.094184398651123 2.428433418273926
-16.798656463623047 -4.072402477264404 6.707627296447754
-13.042649269104004 0.3711484670639038 7.036167144775391
-10.974638938903809 1.4674484729766846 6.015283584594727
-10.658551216125488 3.9748942852020264 4.254754066467285
-12.779050827026367 0.22819112241268158 5.475342750549316
-11.749683380126953 6.844246864318848 3.6928977966308594
-7.938350200653076 -4.157834529876709 1.5235769748687744
-11.557060241699219 -2.7750308513641357 3.583256959915161
-3.6711015701293945 -2.1897194385528564 -0.9052330851554871
-4.716281890869141 3.306795597076416 -0.31033942103385925
-10.764113426208496 2.704158306121826 3.9793362617492676
-7.646756172180176 1.4953848123550415 1.3576115369796753
-11.974589347839355 3.985504150390625 3.8209071159362793
-14.5162935256958 -1.2475485801696777 5.267579555511475
-6.114500522613525 -3.6863203048706055 0.48548775911331177
-10.776328086853027 -2.6016921997070312 3.1388843059539795
-7.468428134918213 -0.6850684881210327 1.256110668182373
-12.280383110046387 -0.2767503559589386 6.891773223876953
-9.61359691619873 2.2530791759490967 2.477088212966919
-11.535096168518066 0.2633788585662842 3.570756673812866
-13.6493558883667 -2.5886971950531006 4.774139404296875
-10.421650886535645 -2.8686439990997314 2.9370102882385254
-10.682409286499023 -0.08073067665100098 3.0854294300079346
-8.809606552124023 -4.342123985290527 2.019475221633911
-9.152478218078613 3.9483108520507812 3.7145185470581055
-11.649114608764648 -4.939718723297119 3.6356518268585205
-13.087370872497559 -7.268189430236816 4.454268932342529
-12.558969497680664 -1.2358440160751343 4.153519630432129
-3.5463523864746094 1.4946117401123047 -0.9762352705001831
-12.858550071716309 -3.728696823120117 4.324032306671143
-11.685498237609863 1.0755980014801025 3.656362295150757
-5.71970272064209 -2.246596097946167 0.26077955961227417
-9.328394889831543 1.4072904586791992 2.314758539199829
-9.906656265258789 0.652094841003418 2.643890380859375
-4.092566967010498 1.7679604291915894 0.167913556098938
-6.798814296722412 -0.26344209909439087 0.8749834299087524
-6.340970993041992 -2.5277388095855713 0.6143901944160461
-12.583821296691895 -2.562037944793701 4.167664051055908
-3.2758684158325195 -1.3503497838974 -1.130189299583435
-11.614625930786133 2.2917542457580566 3.616024971008301
-13.288039207458496 0.5316116809844971 6.9724860191345215
-4.142701625823975 0.335060715675354 -0.6368087530136108
-10.602920532226562 -1.680095911026001 3.04018497467041
-9.0159330368042 3.865910530090332 2.1369130611419678
-6.051792144775391 1.2508431673049927 0.4497976303100586
-9.63519287109375 5.533996105194092 2.4893815517425537
-10.234123229980469 5.737020015716553 3.492694854736328
-12.500186920166016 -1.062414526939392 4.120062351226807
-10.550727844238281 -2.826467990875244 3.010477066040039
-13.340493202209473 -3.3016860485076904 4.598341941833496
-17.714216232299805 -2.4473373889923096 7.087756156921387
-11.907444953918457 -0.7266216278076172 3.7826883792877197
-10.874858856201172 -4.438169002532959 3.194965124130249
-10.504558563232422 -6.654314041137695 2.984198570251465
-3.0256216526031494 0.8162062168121338 -1.2726235389709473
-9.76668643951416 4.482058048248291 2.5642249584198
-14.680627822875977 8.695245742797852 5.361119270324707
-9.866064071655273 -0.5275912284851074 2.62078595161438
-11.674836158752441 -2.042834758758545 3.6502928733825684
-11.882689476013184 6.956207752227783 3.768601179122925
-7.030599117279053 -2.854116201400757 1.0069079399108887
-3.2638707160949707 1.5179483890533447 -1.1370176076889038
-3.4851458072662354 0.7086817026138306 -1.011073112487793
-9.096487045288086 3.552793502807617 2.942481756210327
-12.246794700622559 4.1801252365112305 3.975839376449585
-7.851924419403076 3.3522090911865234 1.4743891954421997
-17.532814025878906 -6.994527816772461 6.9845051765441895
-5.085486888885498 -1.8465441465377808 -0.10020001977682114
-7.991520404815674 -4.566976070404053 1.5538406372070312
-12.527831077575684 1.2517694234848022 4.13579797744751
-8.709163665771484 -3.844467878341675 1.9623053073883057
-4.107351303100586 -1.4709681272506714 -0.656930148601532
-7.591757774353027 -4.41709041595459 1.3263050317764282
-9.830829620361328 -4.654782295227051 2.600729465484619
-8.007584571838379 -4.236219882965088 1.5629842281341553
-4.838842391967773 -3.127993583679199 -0.24058471620082855
-12.08028793334961 -0.3690863847732544 3.8810665607452393
-12.38829517364502 -6.023985385894775 4.0563740730285645
-8.202221870422363 -3.270695686340332 1.6737674474716187
-12.321001052856445 -0.9400457143783569 4.018074035644531
-4.007966041564941 0.35727858543395996 -0.7134969830513
-13.516534805297852 1.6886049509048462 4.698543071746826
-12.3104248046875 2.301832914352417 5.533830165863037
-9.791617393493652 1.660172462463379 2.578413486480713
-9.831876754760742 1.020882248878479 2.6013271808624268
-10.239810943603516 -3.0261738300323486 2.833512306213379
-9.152361869812012 -4.4999494552612305 2.214562177658081
-2.7707788944244385 0.18850469589233398 -1.4176726341247559
-4.281098365783691 0.42300963401794434 -0.5580369830131531
-9.698014259338379 -1.621324062347412 2.5251352787017822
-16.520967483520508 -8.015379905700684 6.408586502075195
-13.393564224243164 -7.741508960723877 4.628547191619873
-10.154472351074219 2.594005823135376 2.7849411964416504
-12.510968208312988 -4.780729293823242 4.126196384429932
-7.637979030609131 0.7363966107368469 1.352615237236023
-8.907511711120605 1.1837692260742188 2.075201988220215
-10.865732192993164 -4.582045078277588 3.1897706985473633
-6.199462890625 -3.163966417312622 0.5338464379310608
-9.08102035522461 5.262814044952393 2.1739606857299805
-9.782835960388184 1.8392927646636963 2.5734148025512695
-13.861547470092773 -7.195276260375977 4.894911766052246
-9.154165267944336 -0.6960179805755615 2.215589761734009
-5.117640018463135 2.621648073196411 -0.08189745247364044
-15.933009147644043 -2.7767436504364014 6.073938369750977
-11.054317474365234 1.9901808500289917 4.714365005493164
-13.630301475524902 -6.635873794555664 4.763293266296387
-7.83373498916626 -4.035330772399902 1.4640332460403442
-10.405350685119629 -2.9988255500793457 2.9277331829071045
-8.2697114944458 -0.4706019163131714 1.7121810913085938
-8.829465866088867 3.5608859062194824 3.4296464920043945
-8.693604469299316 -5.508831977844238 1.9534485340118408
-10.152334213256836 -6.59753942489624 2.7837212085723877
-10.02061939239502 4.4179487228393555 2.708756923675537
-10.87326717376709 2.9252846240997314 3.392916679382324
-9.938971519470215 4.906535625457764 2.662285089492798
-9.126412391662598 -1.3944175243377686 2.199793815612793
-11.483160972595215 4.906277656555176 5.067301273345947
-18.61492347717285 -10.087316513061523 7.600413799285889
-5.9615020751953125 -1.6577541828155518 0.398405522108078
-4.02377986907959 -1.0933129787445068 -0.7044978141784668
-10.744516372680664 3.766676902770996 3.769186019897461
-8.791662216186523 1.2470122575759888 2.0092639923095703
-11.872078895568848 4.39892053604126 5.209117412567139
-9.775032997131348 -1.7989928722381592 2.5689728260040283
-6.347988128662109 3.610703706741333 0.6183860898017883
-11.74471664428711 1.8696367740631104 3.771644353866577
-12.462459564208984 -4.184155464172363 4.098587512969971
-8.075592994689941 3.913114309310913 1.6016960144042969
-5.468891143798828 3.7693560123443604 0.11802635341882706
-4.588071346282959 -3.017354726791382 -0.3833172619342804
-11.852093696594238 1.3918818235397339 3.751185655593872
-4.875514030456543 0.0674845278263092 -0.21971070766448975
-13.746113777160645 -8.172557830810547 4.82921028137207
-4.688075065612793 -0.6236076354980469 -0.32639652490615845
-7.427604675292969 -2.7541885375976562 1.2328740358352661
-8.468273162841797 -5.26242733001709 1.8251954317092896
-7.510827541351318 -3.574117660522461 1.2802423238754272
-7.028569221496582 3.5009474754333496 1.0057557821273804
-7.747142791748047 -4.27294921875 1.4147465229034424
-10.003581047058105 -4.966255187988281 2.699054479598999
-5.490199089050293 -0.42331477999687195 0.1301528662443161
-17.281532287597656 9.404594421386719 6.841487407684326
-13.332507133483887 -3.103307008743286 4.59379768371582
-6.925952911376953 2.0435426235198975 0.947348415851593
-2.8028647899627686 0.9749102592468262 -1.3994097709655762
-12.990994453430176 -0.6026414632797241 5.9588093757629395
-16.00914764404297 -5.117483139038086 6.423419952392578
-20.53563690185547 -6.856786251068115 8.693636894226074
-6.091101169586182 3.6907925605773926 0.47217273712158203
-9.605790138244629 -0.054486989974975586 2.472644090652466
-4.245359897613525 -1.0323171615600586 -0.5783788561820984
-12.057780265808105 -2.1269795894622803 3.8682544231414795
-8.80062484741211 2.192936420440674 2.0143649578094482
-13.146272659301758 0.043824922293424606 6.104559421539307
-11.214488983154297 -2.752467155456543 3.3882744312286377
-8.805522918701172 4.253723621368408 2.01715350151062
-9.572638511657715 4.795920372009277 4.390317440032959
-5.828429222106934 -2.767042398452759 0.3226638436317444
-13.667585372924805 -2.1595993041992188 4.784515857696533
-6.968042850494385 4.418645858764648 0.9713061451911926
-3.1244215965270996 -1.42908775806427 -1.2163891792297363
-6.69322395324707 -2.9267027378082275 0.8148822784423828
-12.203791618347168 -4.71394681930542 3.951359510421753
-8.693212509155273 -3.443467378616333 1.9532265663146973
-9.1638822555542 5.348720550537109 2.221122980117798
-7.855179309844971 2.2735207080841064 1.4762415885925293
-7.334488391876221 -0.9450349807739258 1.179875373840332
-8.517045021057129 -3.4200310707092285 1.852955937385559
-9.728075981140137 3.4536845684051514 2.542248249053955
-3.6600112915039062 2.1705660820007324 -0.9115440249443054
-12.031920433044434 -1.4025697708129883 3.8535361289978027
-8.071423530578613 3.183326005935669 1.5993223190307617
-11.083163261413574 -3.614617109298706 3.3135266304016113
-3.496400833129883 -1.8997348546981812 -1.0046683549880981
-9.673937797546387 0.7720606327056885 2.51143217086792
-6.107359886169434 -2.1470272541046143 0.48142409324645996
-6.103137016296387 0.9824821949005127 0.47902196645736694
-5.550508499145508 -3.5244991779327393 0.16447813808918
-11.171695709228516 -6.698574066162109 3.36391544342041
-12.808155059814453 -4.950732231140137 4.295348644256592
-11.234128952026367 1.789563775062561 4.756490707397461
-4.670891284942627 3.1288981437683105 -0.33617573976516724
-4.969435691833496 -1.1358710527420044 -0.16625328361988068
-7.3915019035339355 4.988447189331055 1.212329387664795
-10.14591121673584 5.260488033294678 2.7800700664520264
-6.716427326202393 2.954460620880127 0.8280923962593079
-13.463859558105469 -8.274600982666016 4.668557643890381
-11.591235160827637 2.1885111331939697 4.322571754455566
-10.19908618927002 1.168531894683838 2.8103346824645996
-8.267463684082031 -3.209893226623535 1.7109007835388184
-13.309242248535156 0.4980284571647644 6.858332633972168
-11.331676483154297 1.7070800065994263 4.6627912521362305
-13.07373046875 -1.3736432790756226 7.595792293548584
-10.931736946105957 -3.681272268295288 3.227339029312134
-6.063107490539551 -1.205146312713623 0.45623722672462463
-14.533492088317871 -6.6159443855285645 5.277365684509277
-6.7504401206970215 2.6926069259643555 0.8474517464637756
-9.800341606140137 -0.3148362636566162 2.5833780765533447
-12.806026458740234 1.1431326866149902 4.2941389083862305
-10.785603523254395 6.779446125030518 3.144167900085449
-4.361653804779053 0.3682520389556885 -0.5121868252754211
-14.083852767944336 -4.51315450668335 5.021444320678711
-5.910767555236816 2.7893388271331787 0.36953067779541016
-13.325971603393555 -0.39108338952064514 5.861927032470703
-8.052797317504883 -3.346616268157959 1.5887181758880615
-3.456411838531494 -1.1601232290267944 -1.0274291038513184
-18.531309127807617 -10.611692428588867 7.552823066711426
-9.635201454162598 2.4873478412628174 2.4893858432769775
-4.830903053283691 -2.686086416244507 -0.24510318040847778
-3.310777425765991 -1.043567180633545 -1.1103198528289795
-9.125014305114746 1.0472475290298462 2.1989994049072266
-11.84418773651123 -3.6636712551116943 3.746683120727539
-15.97215747833252 -7.659432888031006 6.096218109130859
-12.296426773071289 0.9565213918685913 4.004087924957275
-7.8823561668396 4.613648891448975 1.4917103052139282
-4.965871810913086 -2.681229591369629 -0.16828294098377228
-6.598249912261963 1.9348405599594116 0.7608279585838318
-7.6992692947387695 -5.038837432861328 1.387497901916504
-10.589295387268066 -0.29745006561279297 3.0324292182922363
-6.367043972015381 0.8295339941978455 0.6292309165000916
-10.082991600036621 3.519561290740967 4.19625997543335
-10.67237663269043 1.4940177202224731 3.079719066619873
-11.143732070922852 3.8974592685699463 3.348003625869751
-9.251622200012207 3.3315184116363525 5.487704753875732
-18.536788940429688 10.655683517456055 7.555949687957764
-2.7269294261932373 -0.8507016897201538 -1.4426311254501343
-10.012444496154785 2.5032529830932617 2.7041027545928955
-12.399224281311035 2.971754550933838 7.0046539306640625
-5.612434387207031 3.2492294311523438 0.19972681999206543
-6.309338569641113 2.6418421268463135 0.5963876843452454
-12.548171997070312 -7.454113483428955 4.147371768951416
-6.260051727294922 3.4537394046783447 0.5683350563049316
-4.46085262298584 2.626595973968506 -0.4557243585586548
-3.521315813064575 1.4200598001480103 -0.19327044486999512
-5.7918500900268555 -1.7203541994094849 0.3018440902233124
-10.572782516479492 4.524513244628906 3.023033618927002
-6.607165336608887 -0.23684650659561157 0.765902042388916
-13.735695838928223 0.8856001496315002 6.996586799621582
-9.51668643951416 -3.996734142303467 2.4219272136688232
-11.873579025268555 -4.683592319488525 3.763411521911621
-10.464104652404785 -5.682728290557861 2.9611737728118896
-3.80306339263916 0.6548534631729126 -0.8301224708557129
-12.181211471557617 -0.6842330694198608 3.938509225845337
-10.224924087524414 -1.0633163452148438 2.8250389099121094
-4.995092868804932 2.533278703689575 -0.15164825320243835
-13.470198631286621 6.88118839263916 4.672171592712402
-11.221580505371094 2.7687482833862305 3.3923137187957764
-10.420573234558105 3.6539294719696045 4.1356987953186035
-3.2446093559265137 1.978731632232666 -1.1479800939559937
-8.04564380645752 -0.41193926334381104 1.58464777469635
-13.145872116088867 -1.0237535238265991 6.721334934234619
-4.268067359924316 -2.0014896392822266 -0.565455436706543
-10.682621955871582 3.0593607425689697 3.484869956970215
-9.514622688293457 -2.829923629760742 2.42075252532959
-8.97787857055664 -3.248706340789795 2.115251064300537
-11.294899940490723 2.0756521224975586 4.8805999755859375
-6.618486404418945 -2.2560813426971436 0.7723448276519775
-10.996517181396484 -2.1656033992767334 3.2642111778259277
-13.788507461547852 -0.8720900416374207 5.044477462768555
-9.924211502075195 4.059092044830322 2.6538844108581543
-9.972757339477539 1.2909877300262451 2.681513547897339
-10.232131004333496 4.6956562995910645 3.7176082134246826
-5.95394229888916 -0.19355973601341248 0.3941035270690918
-7.175858020782471 -1.3928954601287842 1.0895872116088867
-11.407092094421387 0.9867582321166992 3.49790096282959
-6.380655288696289 -1.0409847497940063 0.6369773745536804
-13.859563827514648 6.19561767578125 4.8937883377075195
-9.034268379211426 3.764119863510132 2.1473500728607178
-9.39100170135498 3.3460168838500977 2.3503923416137695
-4.259915351867676 -2.460951089859009 -0.5700951814651489
-3.9122724533081055 0.5399500131607056 -0.7679630517959595
-4.306138038635254 0.5446791648864746 -0.5437855124473572
-8.908288955688477 -1.9249005317687988 2.0756430625915527
-8.210126876831055 -2.158329725265503 1.6782667636871338
-9.892525672912598 1.788860559463501 2.635847568511963
-6.376315116882324 -4.216071605682373 0.634506344795227
-4.0965447425842285 0.1535789966583252 -0.6630804538726807
-10.306599617004395 -0.3030123710632324 2.8715267181396484
-10.043763160705566 4.706340312957764 2.7219293117523193
-6.983596324920654 -0.23191356658935547 0.9801576733589172
-13.485559463500977 0.9886617064476013 7.672063827514648
-6.612111568450928 0.5940710306167603 0.7687177062034607
-5.930304050445557 1.946115493774414 0.3806503713130951
-10.824259757995605 -1.9485671520233154 3.166166305541992
-8.47293758392334 -4.623625755310059 1.8278512954711914
-5.337825298309326 -2.697617292404175 0.04342450201511383
-11.339001655578613 -4.641219139099121 3.4591429233551025
-9.618525505065918 -4.636735439300537 2.4798905849456787
-14.635207176208496 1.3530298471450806 5.335263252258301
-11.592432975769043 0.6974484920501709 3.6033923625946045
-10.627861022949219 5.8736748695373535 3.054384231567383
-12.991541862487793 -6.279518127441406 4.399725914001465
-6.399197578430176 -0.7696288228034973 0.6475322842597961
-11.409571647644043 1.8277212381362915 4.38888692855835
-9.761323928833008 4.635019779205322 2.561171770095825
-8.416440963745117 2.1486093997955322 1.7956973314285278
-9.190191268920898 -0.032721757888793945 2.2360947132110596
-7.352996826171875 2.145153284072876 1.1904116868972778
-7.46277379989624 4.088289737701416 1.2528947591781616
-5.545033931732178 2.6785459518432617 0.16136452555656433
-6.927611351013184 0.8211637139320374 0.9482920169830322
-3.5245394706726074 -1.5540666580200195 -0.9886526465415955
-10.373140335083008 5.648107528686523 2.9094035625457764
-10.088415145874023 -4.433966159820557 2.747340679168701
-11.801955223083496 3.0120105743408203 5.169203758239746
-16.78880500793457 9.690680503845215 6.561042308807373
-2.9988150596618652 1.5851120948791504 -1.2878799438476562
-8.434993743896484 -5.580036640167236 1.8062540292739868
-3.5974860191345215 1.346906304359436 -0.11387455463409424
-6.864333629608154 -0.43956613540649414 0.9122751951217651
-13.374780654907227 -0.9350210428237915 4.61785888671875
-11.009020805358887 -3.5585761070251465 3.271327018737793
-9.972918510437012 -3.61447811126709 2.681602954864502
-10.57970142364502 3.902010202407837 3.0269718170166016
-11.940082550048828 -1.1049160957336426 3.801265001296997
-12.019034385681152 -6.222892761230469 3.8461997509002686
-3.5671091079711914 0.6039729714393616 -0.11369609832763672
-2.5912256240844727 0.8079216480255127 -1.5198705196380615
-4.058997631072998 -1.219070315361023 -0.6844518780708313
-6.854179859161377 0.2949455976486206 0.9064967632293701
-9.855931282043457 -5.296004295349121 2.6150171756744385
-9.7382173538208 -2.0269713401794434 2.5480172634124756
-9.982844352722168 1.9200446605682373 2.687255620956421
-16.259754180908203 -8.263322830200195 6.259909629821777
-13.83950424194336 -6.845020294189453 4.882365703582764
-3.8770055770874023 1.5771284103393555 0.045221030712127686
-7.710844993591309 1.5912268161773682 1.3940894603729248
-7.584808349609375 -3.0189766883850098 1.322351336479187
-8.475303649902344 -2.406738758087158 1.8291981220245361
-14.514726638793945 -6.242021560668945 5.266685962677002
-3.013209819793701 -1.548181414604187 -1.2796880006790161
-2.9583451747894287 0.48423612117767334 -1.310915231704712
-20.23165512084961 -10.219743728637695 8.520618438720703
-6.57805061340332 0.4459095597267151 0.7493303418159485
-11.091269493103027 2.5804076194763184 4.422172546386719
-12.126035690307617 -3.8519628047943115 3.9071033000946045
-10.769331932067871 5.9582414627075195 3.1349050998687744
-9.367921829223633 1.1542208194732666 2.3372559547424316
-6.180389881134033 -2.086057424545288 0.522990882396698
-11.291801452636719 -2.325474977493286 3.432278871536255
-11.390461921691895 2.472072124481201 3.488435745239258
-11.89747142791748 7.181545734405518 3.777014970779419
-10.979143142700195 6.310992240905762 3.2543251514434814
-14.338254928588867 -1.5199171304702759 5.556159019470215
-12.969058990478516 1.0771907567977905 4.386934280395508
-8.114874839782715 0.427129864692688 1.6240530014038086
-13.897249221801758 -4.429034233093262 4.915233612060547
-9.16157341003418 -4.676517963409424 2.2198054790496826
-10.198709487915039 2.4157607555389404 2.810120105743408
-13.930370330810547 -8.296590805053711 5.170445919036865
-15.121943473815918 -2.946256637573242 5.612298965454102
-13.221123695373535 -0.8030792474746704 6.146668434143066
-11.09914779663086 2.231328010559082 4.586945056915283
-13.274347305297852 -0.16125810146331787 4.560695171356201
-11.378531455993652 2.2848103046417236 3.481645345687866
-9.628061294555664 3.8445181846618652 2.485321521759033
-9.889860153198242 0.13706159591674805 2.6343302726745605
-11.832606315612793 4.787652969360352 3.7400951385498047
-9.936955451965332 3.4534153938293457 4.107691287994385
-7.355501174926758 3.950434684753418 1.1918377876281738
-9.874755859375 5.355085849761963 4.1346211433410645
-14.397586822509766 0.08594206720590591 5.200015068054199
-9.438582420349121 0.11762619018554688 2.377474308013916
-6.933292388916016 -3.9885916709899902 0.9515239596366882
-14.090547561645508 -4.383050918579102 5.025253772735596
-12.730928421020508 0.5013121366500854 4.2513957023620605
-4.452766418457031 2.913921356201172 -0.4603272080421448
-9.029085159301758 5.903069019317627 2.1444005966186523
-11.12222957611084 5.567655563354492 3.3357653617858887
-7.2079033851623535 4.622063636779785 1.107828974723816
-12.621091842651367 -5.343043804168701 4.188876152038574
-10.440105438232422 -3.1345648765563965 2.947514295578003
-11.657506942749023 -5.124813556671143 3.6404285430908203
-11.728963851928711 5.521982669830322 3.6811037063598633
-6.22245979309082 2.643969774246216 0.5469383597373962
-8.994582176208496 2.176516056060791 2.124760389328003
-11.707467079162598 6.486883640289307 3.6688685417175293
-13.320931434631348 -0.7739107608795166 4.5872087478637695
-13.319222450256348 -0.6570116281509399 5.440454006195068
-17.03409194946289 -2.3348939418792725 6.700646877288818
-5.375345706939697 -1.6222985982894897 0.06478002667427063
-5.186963081359863 3.546405076980591 -0.04244004935026169
-3.4681358337402344 1.1621055603027344 -1.0207542181015015
-9.07868480682373 3.5776541233062744 2.172631025314331
-8.141012191772461 0.2788839340209961 1.6389299631118774
-11.28435230255127 -0.03801131248474121 3.428039789199829
-8.0997953414917 -5.337790012359619 1.6154680252075195
-7.91652250289917 -1.6796767711639404 1.511155128479004
-12.526670455932617 0.8416830897331238 4.135136127471924
-3.9063355922698975 1.4630069732666016 -0.746027946472168
-9.416132926940918 3.465395212173462 2.4680099487304688
-3.5764517784118652 -2.334307909011841 -0.9591060876846313
-16.09408950805664 -4.35125732421875 6.5867509841918945
-8.550260543823242 -1.5888645648956299 1.8718620538711548
-5.004920959472656 -2.8874969482421875 -0.14605702459812164
-8.285175323486328 -1.349623441696167 1.7209831476211548
-17.94951057434082 -6.903476238250732 7.221679210662842
-8.736358642578125 -0.6772880554199219 1.9777851104736328
-7.106761932373047 2.0285730361938477 1.0502604246139526
-13.315495491027832 -3.690211534500122 4.584113597869873
-3.591136932373047 1.8408434391021729 -0.9507461786270142
-10.059030532836914 -3.761317729949951 2.7306158542633057
-8.339975357055664 3.9232497215270996 1.752174973487854
-4.922136306762695 3.465501070022583 -0.19317294657230377
-7.783952236175537 4.015535354614258 1.4357014894485474
-11.7121000289917 3.798488140106201 3.6715049743652344
-9.551103591918945 -4.163845062255859 2.441516160964966
-5.148598670959473 0.30894914269447327 -0.06427758187055588
-12.531831741333008 -0.7478213906288147 7.558201313018799
-6.2063493728637695 2.48085618019104 0.5377684235572815
-10.413507461547852 -5.31327486038208 2.9323742389678955
-17.05939292907715 9.938772201538086 6.715052127838135
-10.30455493927002 1.733081579208374 2.8703646659851074
-9.633724212646484 4.373701095581055 2.4885458946228027
-5.219338893890381 -0.3626828193664551 -0.024014625698328018
-13.102727890014648 -7.9882121086120605 4.463009834289551
-14.164402961730957 1.1147626638412476 6.7681450843811035
-8.876405715942383 2.9953508377075195 2.0574984550476074
-4.660493850708008 0.2729671001434326 -0.3420945703983307
-11.646378517150879 1.8212753534317017 4.285329818725586
-4.6977081298828125 -2.8454830646514893 -0.3209146559238434
-9.754075050354004 -4.32444953918457 2.5570428371429443
-9.959074974060059 3.51457142829895 2.673727035522461
-3.3454580307006836 -1.85373055934906 -1.0905808210372925
-5.619375228881836 -1.4729580879211426 0.2036752998828888
-13.18634033203125 -6.307934761047363 4.51060152053833
-13.62758731842041 0.4430261254310608 4.761751174926758
-12.367894172668457 1.1253488063812256 4.044765472412109
-6.7043585777282715 -2.44350004196167 0.8212210536003113
-11.04244327545166 -2.7523727416992188 3.2903501987457275
-11.640851020812988 -1.7998113632202148 3.6309502124786377
-11.76566219329834 -0.3399477005004883 3.7019896507263184
-11.053141593933105 -4.991381645202637 3.296438694000244
-8.244474411010742 0.84834885597229 1.6978176832199097
-7.881293296813965 1.9058128595352173 1.4911046028137207
-10.523090362548828 1.802336573600769 2.9947495460510254
-10.34676742553711 -2.6870334148406982 2.8943891525268555
-6.225701808929443 3.792881488800049 0.548784077167511
-4.304665565490723 2.9765822887420654 -0.5446220636367798
-2.9802446365356445 -1.0253078937530518 -1.2984509468078613
-20.62101936340332 -7.509923458099365 8.742234230041504
-4.6923112869262695 -1.0017480850219727 -0.3239855468273163
-14.26433277130127 -8.178190231323242 5.289857864379883
-13.43925952911377 0.7151415944099426 4.654559135437012
-10.756263732910156 -2.501873731613159 3.1274635791778564
-3.1681065559387207 -0.8261156678199768 -1.1915256977081299
-8.936695098876953 5.634059429168701 2.0918142795562744
-12.526286125183105 -4.891352653503418 4.134915351867676
-3.7315220832824707 -1.714415431022644 -0.8708431124687195
-12.36042308807373 1.308730125427246 4.040512561798096
-19.08523941040039 -10.366323471069336 7.868106842041016
-9.765955924987793 0.43031859397888184 2.5638067722320557
-12.720433235168457 -0.850464940071106 4.245421409606934
-9.984880447387695 -4.070283889770508 2.6884117126464844
-12.674466133117676 7.332954406738281 4.219261169433594
-10.10220718383789 6.576000690460205 2.7551944255828857
-11.733983993530273 -1.5658562183380127 3.6839585304260254
-4.817545413970947 0.24042236804962158 -0.25270524621009827
-12.601371765136719 -3.7465760707855225 4.177652835845947
-3.687156915664673 -0.18671822547912598 -0.8960937261581421
-10.604086875915527 6.129432201385498 3.668325901031494
-9.858434677124023 -2.508852958679199 2.6164426803588867
-13.881124496459961 -8.273824691772461 4.90605354309082
-11.871891975402832 -5.270817756652832 3.7624499797821045
-7.921089172363281 3.891136646270752 1.5137561559677124
-3.932936668395996 -1.2908028364181519 -0.756202220916748
-8.98998737335205 -0.1547226905822754 2.122145175933838
-8.26230239868164 2.939312696456909 1.7079659700393677
