-8.138581275939941 4.711130619049072 1.9340862035751343
-12.787409782409668 -4.990231990814209 4.580080509185791
-10.710763931274414 3.7813124656677246 5.936389446258545
-10.496065139770508 -3.9447929859161377 3.275904655456543
-7.999300003051758 3.221212863922119 2.482203483581543
-10.906757354736328 0.5397263765335083 5.034468650817871
-3.953397512435913 -2.3611888885498047 -0.4480200707912445
-10.642067909240723 -4.165867328643799 3.3590054512023926
-6.30458927154541 2.276879072189331 0.8902225494384766
-8.758875846862793 -1.4586622714996338 2.2871391773223877
-4.788698196411133 -1.0041621923446655 0.027412844821810722
-7.978216171264648 3.402503252029419 1.842809796333313
-12.306100845336914 3.3225154876708984 7.845832347869873
-5.762438774108887 2.3765182495117188 0.5816437602043152
-12.071349143981934 -6.556117057800293 4.172515392303467
-9.366292953491211 4.166421413421631 4.238420009613037
-16.97991943359375 9.19748592376709 7.506110668182373
-11.37474536895752 -0.8381032943725586 5.490361213684082
-6.16032075881958 -0.7550824284553528 2.4109280109405518
-8.549822807312012 4.2960004806518555 3.1193172931671143
-6.251485824584961 -0.8129245042800903 2.252485752105713
-4.975109577178955 -1.8276256322860718 0.13351377844810486
-16.92379379272461 3.880417585372925 7.70327091217041
-19.34886360168457 -6.472914218902588 11.921039581298828
-6.497406482696533 -0.24915088713169098 0.9999673366546631
-12.781432151794434 5.663950443267822 6.856385707855225
-21.789793014526367 -3.6893792152404785 11.265329360961914
-10.872201919555664 -0.2884954810142517 6.531101703643799
-8.398789405822754 -3.810744047164917 2.082186698913574
-14.891300201416016 7.7882914543151855 5.777568340301514
-9.706111907958984 1.5529284477233887 4.468198299407959
-20.23414421081543 10.088371276855469 9.455965042114258
-9.718046188354492 -1.9450331926345825 2.8330767154693604
-9.573005676269531 5.967248916625977 2.75052547454834
-19.604660034179688 -3.1012141704559326 9.32008171081543
-5.675121307373047 3.8456695079803467 0.5319454073905945
-8.014573097229004 4.556796550750732 2.6476337909698486
-5.833920478820801 -3.9397716522216797 0.6223264932632446
-10.894013404846191 -0.15953534841537476 5.028510570526123
-7.10116720199585 3.5777273178100586 1.343614935874939
-13.356186866760254 7.780041694641113 4.903820037841797
-5.5048017501831055 -2.9542465209960938 0.43500128388404846
-3.359846353530884 -1.9564191102981567 -0.7858549952507019
-13.32724380493164 -7.102639675140381 4.887340068817139
-11.647872924804688 -6.6411356925964355 3.931483507156372
-21.938989639282227 -3.774144411087036 11.025409698486328
-5.897378921508789 -1.526703119277954 0.6584464311599731
-19.728336334228516 -7.102247714996338 10.994343757629395
-6.349451065063477 -0.3255378305912018 4.303253650665283
-8.350295066833496 -3.4470298290252686 2.054584264755249
-9.673616409301758 4.663084506988525 3.308628559112549
-16.281248092651367 -5.717248439788818 6.568687438964844
-8.228641510009766 3.192009449005127 2.4915378093719482
-5.720021724700928 -0.18755391240119934 2.4813499450683594
-17.54332160949707 -8.647220611572266 7.2870259284973145
-11.647271156311035 -1.028836965560913 3.9311437606811523
-20.642642974853516 -0.418344646692276 13.989500999450684
-15.376441955566406 3.1971852779388428 8.082873344421387
-8.382229804992676 3.1545135974884033 2.251293659210205
-6.150572299957275 1.3953434228897095 0.8025586009025574
-6.4306535720825195 1.1407265663146973 0.9619749188423157
-8.190494537353516 0.34342628717422485 2.9266469478607178
-3.4938430786132812 -0.5750191807746887 -0.7095871567726135
-6.80253267288208 -3.4843287467956543 1.1736369132995605
-2.558072090148926 -0.35009366273880005 -1.2422032356262207
-12.286169052124023 -3.9198360443115234 4.29478645324707
-8.694487571716309 3.063518762588501 2.7875924110412598
-14.391061782836914 -5.874934196472168 5.492839813232422
-12.989203453063965 -3.9263734817504883 4.694937705993652
-6.998198986053467 2.3197193145751953 1.285008192062378
-4.383883476257324 -1.3061431646347046 -0.20299860835075378
-7.900658130645752 3.5468850135803223 1.7986650466918945
-11.05545711517334 -2.314237356185913 3.594297170639038
-5.369015216827393 0.27611613273620605 3.029034376144409
-19.87723159790039 -10.698309898376465 8.61543083190918
-11.07052993774414 1.5643352270126343 5.5099778175354
-7.418148517608643 0.3516473174095154 1.5240318775177002
-10.069283485412598 3.4958577156066895 4.486267566680908
-17.25714111328125 2.712271213531494 9.329139709472656
-12.941134452819824 5.49025297164917 7.0849928855896
-5.127438545227051 -0.7259084582328796 0.2202153503894806
-21.409957885742188 -4.780200958251953 10.462987899780273
-8.278804779052734 -2.421049118041992 2.013895034790039
-12.227783203125 3.536998987197876 4.261559009552002
-6.03738260269165 2.7696125507354736 0.7381339073181152
-10.186078071594238 0.8417437672615051 3.099468946456909
-12.651286125183105 -6.620119571685791 4.5026021003723145
-10.052117347717285 -2.66170334815979 3.0232207775115967
-8.418482780456543 -1.5794310569763184 2.0933966636657715
-9.172093391418457 1.1265158653259277 3.0556347370147705
-3.9510538578033447 0.2823832333087921 -0.44935324788093567
-19.695650100708008 -10.486035346984863 8.512077331542969
-9.783951759338379 3.7863032817840576 4.871778964996338
-6.76219367980957 3.4697771072387695 1.150680661201477
-19.422998428344727 -2.557431221008301 8.973433494567871
-13.582571029663086 -6.867598533630371 5.032666206359863
-8.935738563537598 -2.5130691528320312 2.3878049850463867
-11.18912124633789 -1.0269553661346436 4.858357906341553
-7.0470871925354 -3.3841142654418945 1.3128317594528198
-10.594551086425781 4.0692009925842285 5.9687933921813965
-7.256435394287109 1.2226449251174927 1.4319885969161987
-10.745575904846191 0.3144162893295288 6.9266862869262695
-3.7808868885040283 -0.9617686867713928 -0.5462082624435425
-20.293121337890625 -10.122200965881348 8.98141098022461
-8.272289276123047 -1.0428322553634644 2.010185718536377
-19.458106994628906 -7.494997501373291 10.739787101745605
-6.382767200469971 0.11820884048938751 0.9347185492515564
-19.620325088500977 -3.5592503547668457 8.887701988220215
-6.225764274597168 -3.284834146499634 0.8453547954559326
-10.768819808959961 3.0997087955474854 4.587716579437256
-13.707501411437988 3.725529909133911 7.945932388305664
-20.50112533569336 -2.9305226802825928 11.366806030273438
-10.697942733764648 3.471017599105835 5.868517875671387
-8.982593536376953 3.3049514293670654 4.116903305053711
-5.552913188934326 0.813051700592041 0.46238642930984497
-16.815780639648438 -2.7458558082580566 6.872931957244873
-6.983518600463867 -4.010512351989746 1.276650309562683
-11.881892204284668 -5.199222564697266 4.064682960510254
-2.229544162750244 -0.6562749743461609 -1.4291954040527344
-5.499753475189209 0.865664541721344 2.9900050163269043
-10.092133522033691 3.3991222381591797 4.55281400680542
-13.761008262634277 -4.006017684936523 5.134230136871338
-8.429506301879883 -0.7360033988952637 2.0996711254119873
-4.817353248596191 0.3015625774860382 0.043723274022340775
-6.78132963180542 -1.0819451808929443 1.2444965839385986
-5.381782531738281 2.625335931777954 0.36498314142227173
-7.153613567352295 3.9371232986450195 1.3734664916992188
-21.11102294921875 -7.060778617858887 10.991191864013672
-11.417059898376465 -0.42183658480644226 5.535540580749512
-3.024324893951416 -1.5839694738388062 -0.9768255352973938
-5.889986991882324 0.6254027485847473 2.6458089351654053
-7.3714141845703125 -0.557624340057373 1.4974315166473389
-3.916609048843384 -0.8325725197792053 -0.4689590036869049
-9.709490776062012 -6.048563003540039 2.828205108642578
-17.560571670532227 -7.872519493103027 7.29684591293335
-16.912979125976562 -3.5447044372558594 7.104141712188721
-17.530635833740234 4.206142902374268 8.973591804504395
-7.178230285644531 0.9044025540351868 1.3874773979187012
-17.99815559387207 -9.61577320098877 7.545907020568848
-5.934743404388428 -0.9632387161254883 0.6797129511833191
-16.82099151611328 -4.747497081756592 6.958566665649414
-3.662025213241577 -2.3441243171691895 -0.6138619184494019
-10.860459327697754 0.5019075870513916 3.483309268951416
-8.071196556091309 -2.729123592376709 1.8957303762435913
-5.942073822021484 3.9829790592193604 0.6838890314102173
-8.615107536315918 -3.195374011993408 2.205310344696045
-16.302263259887695 -3.6840415000915527 7.2169342041015625
-12.40843391418457 -1.111572265625 4.4383440017700195
-7.305012226104736 -1.5688600540161133 1.4596377611160278
-20.019758224487305 -10.671602249145508 9.261393547058105
-7.328915119171143 -1.3337393999099731 1.4732416868209839
-8.684643745422363 3.1729724407196045 2.8793153762817383
-14.067238807678223 8.38542366027832 5.308533668518066
-7.724370002746582 1.7735155820846558 1.6983259916305542
-8.053617477416992 3.1456429958343506 2.053267002105713
-5.840550899505615 0.4643794298171997 1.753434419631958
-10.831568717956543 5.981813430786133 3.4668684005737305
-18.918825149536133 -2.589539051055908 8.680868148803711
-9.716651916503906 1.6668322086334229 4.3032145500183105
-10.912663459777832 0.34294480085372925 4.967588901519775
-10.900574684143066 -6.042784214019775 3.506139039993286
-7.428069114685059 -0.17518137395381927 2.532029628753662
-19.677831649780273 -5.922730445861816 8.501938819885254
-13.353196144104004 -7.634763717651367 4.947125434875488
-4.0634660720825195 -2.7146077156066895 -0.3853726089000702
-6.024433612823486 0.6804332137107849 1.5542773008346558
-10.116394996643066 3.746584892272949 5.966291904449463
-7.2701334953308105 3.3871841430664062 1.4397865533828735
-8.755903244018555 5.155976295471191 2.2854514122009277
-9.578046798706055 -1.342185378074646 2.753391981124878
-17.212310791015625 2.6713740825653076 8.025191307067871
-10.611549377441406 3.5285518169403076 4.83622932434082
-7.491475582122803 3.33306884765625 1.5657685995101929
-8.45764446258545 5.200941562652588 2.1156890392303467
-5.6123223304748535 -1.3953559398651123 0.4961990416049957
-5.215097904205322 2.014953136444092 0.27011045813560486
-5.618490219116211 -0.1384907066822052 0.49971067905426025
-4.939323902130127 -2.6230788230895996 0.11314476281404495
-9.20749568939209 4.483834743499756 3.221186637878418
-12.059953689575195 3.6193065643310547 7.4310832023620605
-3.9276621341705322 -2.6136837005615234 -0.46266892552375793
-13.230649948120117 -3.815329074859619 4.832361221313477
-9.012810707092285 4.334471225738525 2.4316751956939697
-8.8997802734375 -0.7363877892494202 5.078621864318848
-3.2924885749816895 0.716132640838623 -0.824191689491272
-11.810982704162598 -2.7389416694641113 4.024323463439941
-11.721774101257324 -5.128427982330322 3.9735465049743652
-17.50751495361328 3.178814172744751 7.7450761795043945
-7.6704182624816895 -2.3950912952423096 1.667615294456482
-20.671329498291016 -4.034574508666992 9.067413330078125
-8.254229545593262 3.837265968322754 2.911304473876953
-20.01849937438965 -10.344266891479492 8.810248374938965
-10.4574556350708 -3.6644041538238525 3.2539286613464355
-9.144930839538574 -4.531627655029297 2.5068719387054443
-5.496890068054199 3.7137036323547363 0.4305001497268677
-15.953042030334473 -5.015896320343018 6.3818793296813965
-10.879626274108887 4.205082416534424 6.020498752593994
-8.73940658569336 4.966892242431641 2.2760610580444336
-16.394607543945312 -8.714231491088867 6.633208274841309
-10.115047454833984 -3.921743392944336 3.0590386390686035
-13.710086822509766 -7.785249710083008 5.350100517272949
-4.820727348327637 -1.8628708124160767 0.045643359422683716
-1.5247565507888794 0.27819451689720154 -0.4745403230190277
-11.651243209838867 -5.064655303955078 3.933403253555298
-9.141763687133789 -2.9055588245391846 2.5050690174102783
-10.101970672607422 -1.3915225267410278 3.0515966415405273
-11.680941581726074 -4.097246170043945 3.950305938720703
-10.41992473602295 0.8427601456642151 4.679127216339111
-10.75131893157959 -2.581361770629883 3.421189069747925
-11.153054237365723 -3.8250699043273926 3.6498453617095947
-4.261832237243652 -2.338507890701294 -0.27246782183647156
-5.722777366638184 0.13796253502368927 0.5590677261352539
-10.537919998168945 -5.251255512237549 3.2997255325317383
-3.1036791801452637 1.7544034719467163 -0.9316577911376953
-14.092277526855469 -6.931509494781494 5.322778224945068
-9.410552024841309 3.4246022701263428 3.190774917602539
-9.197157859802246 -2.6410653591156006 2.5365986824035645
-8.534147262573242 -5.237316131591797 2.1592278480529785
-14.742608070373535 -4.4109368324279785 5.692931175231934
-3.1455609798431396 0.895739734172821 -0.40285494923591614
-9.102476119995117 -5.001232624053955 2.4827072620391846
-6.9016618728637695 1.933082938194275 3.9845006465911865
-20.67900848388672 -5.2145490646362305 12.022665977478027
-5.5246076583862305 -0.8483442068099976 0.4462740123271942
-19.119539260864258 -3.028237819671631 12.864256858825684
-20.483074188232422 -9.239426612854004 9.340225219726562
-7.613409042358398 -0.6177763938903809 1.6351687908172607
-14.613669395446777 -4.834990501403809 5.619543552398682
-20.48159408569336 -2.748837471008301 10.567201614379883
-19.623987197875977 -3.8273160457611084 8.799947738647461
-5.611514568328857 -3.700392723083496 0.49573883414268494
-10.61911392211914 3.1913418769836426 5.887065410614014
-18.019954681396484 2.519712209701538 8.916133880615234
-7.558495998382568 0.28838640451431274 1.6039146184921265
-10.325178146362305 -2.4815239906311035 3.178640127182007
-13.6367826461792 3.5864484310150146 7.85275936126709
-17.504911422729492 2.458909511566162 8.255964279174805
-8.712140083312988 -2.2377068996429443 2.260537624359131
-5.844247341156006 0.7771932482719421 2.3033788204193115
-16.488544464111328 -4.666409492492676 6.827966213226318
-7.599254131317139 -3.807579278945923 1.6271108388900757
-12.515395164489746 -3.984066963195801 4.425257682800293
-8.005992889404297 3.1568732261657715 1.8586196899414062
-5.902871131896973 -0.8233968615531921 0.6615726947784424
-8.197287559509277 -1.990403413772583 1.9674975872039795
-4.178028583526611 -0.5172167420387268 -0.3201664984226227
-11.287530899047852 -6.888314723968506 3.7263853549957275
-19.537555694580078 -1.6553831100463867 13.426584243774414
-13.243460655212402 -7.969748497009277 4.8396525382995605
-13.155739784240723 3.427795648574829 5.966078758239746
-7.331042766571045 -2.4607601165771484 1.4744524955749512
-9.715599060058594 -3.4832797050476074 2.831681728363037
-14.777438163757324 -4.001374244689941 5.71275520324707
-8.065910339355469 0.36909231543540955 2.780221700668335
-8.374390602111816 -1.7687301635742188 2.068300485610962
-11.968295097351074 5.353675842285156 6.228148460388184
-9.944169044494629 -6.362252712249756 2.9617772102355957
-9.030058860778809 3.0563297271728516 3.1179752349853516
-9.134978294372559 -5.695981025695801 2.5012059211730957
-7.568817138671875 4.879639148712158 1.6097906827926636
-20.038055419921875 -10.870267868041992 8.890325546264648
-8.309073448181152 3.9099514484405518 2.0311262607574463
-6.174956798553467 0.6582770943641663 1.986386775970459
-9.943230628967285 3.8685085773468018 4.996486186981201
-8.066033363342285 -1.0325675010681152 1.8927913904190063
-9.175597190856934 -0.7443769574165344 3.9528160095214844
-7.075754165649414 1.2667548656463623 1.329149842262268
-10.219324111938477 3.2651374340057373 4.599471092224121
-10.481942176818848 3.7042324542999268 5.971242904663086
-13.583748817443848 -4.0600786209106445 5.033339023590088
-10.145636558532715 -2.3869247436523438 3.076448678970337
-14.196098327636719 3.418928623199463 8.25939655303955
-9.587660789489746 -3.5222532749176025 2.7588634490966797
-13.222217559814453 3.0324203968048096 8.044997215270996
-5.816937446594238 2.58123517036438 0.6126635670661926
-5.44773006439209 -0.2849317789077759 0.40251782536506653
-6.829202651977539 -3.1451256275177 1.1888169050216675
-10.615690231323242 -3.737750291824341 3.34399151802063
-13.444958686828613 -2.751540184020996 4.954341888427734
-2.8712880611419678 0.8210509419441223 -1.0639281272888184
-16.4171142578125 8.91598892211914 6.846251964569092
-7.567902088165283 4.711154460906982 1.6092708110809326
-7.09190034866333 -0.5460652709007263 1.3383394479751587
-14.296138763427734 -3.8311727046966553 5.438813209533691
-8.440276145935059 -4.505173206329346 2.105800151824951
-9.653505325317383 -2.869581937789917 2.796339511871338
-12.280333518981934 -3.099649429321289 4.2914652824401855
-9.405351638793945 2.7951016426086426 2.968738079071045
-3.4328596591949463 1.4853883981704712 -0.13356037437915802
-4.244748592376709 -2.8795320987701416 -0.28219112753868103
-5.375258445739746 1.7733254432678223 0.36126893758773804
-6.987946033477783 1.004986047744751 1.2791717052459717
-4.787933826446533 2.629577875137329 0.026979712769389153
-19.367992401123047 -10.414640426635742 8.80226993560791
-4.8603715896606445 -0.006107956171035767 0.06820801645517349
-10.46083927154541 3.408421039581299 4.466822624206543
-2.982323169708252 -0.8859522938728333 -1.0007323026657104
-6.040802478790283 -0.08540517091751099 0.7400803565979004
-3.7881572246551514 -2.01029896736145 -0.5420711636543274
-11.936984062194824 5.51186990737915 6.284844875335693
-9.2048978805542 4.275699615478516 3.1266531944274902
-11.385541915893555 -2.9057369232177734 3.782172679901123
-21.9465389251709 -4.163107395172119 10.934526443481445
-9.557865142822266 3.371107816696167 4.165328025817871
-6.267486095428467 3.339921712875366 0.8691046833992004
-4.314726829528809 -1.5047423839569092 -0.24236156046390533
-18.582075119018555 -5.830749034881592 11.716348648071289
-9.320693969726562 4.634740352630615 3.3018648624420166
-20.848346710205078 -5.164078712463379 11.684639930725098
-9.47204875946045 5.997934818267822 2.693063497543335
-20.053133010864258 -7.039409637451172 10.566634178161621
-4.881577014923096 -1.4330236911773682 0.08027723431587219
-13.23404598236084 3.3900463581085205 8.240076065063477
-10.328368186950684 -0.7280259132385254 4.627013683319092
-6.244199275970459 2.6305925846099854 0.8558495044708252
-19.89911651611328 -10.436639785766602 9.382794380187988
-19.08615493774414 -2.0087311267852783 9.221844673156738
-19.747642517089844 -3.69709849357605 9.321972846984863
-11.903454780578613 -2.5529658794403076 4.076956748962402
-13.685745239257812 3.297278642654419 8.039674758911133
-5.982609748840332 0.47462454438209534 1.411375880241394
-5.567442417144775 1.2008750438690186 0.4706559181213379
-10.707915306091309 -5.380604267120361 3.3964831829071045
-8.21064281463623 -0.4935549199581146 2.303246259689331
-10.222475051879883 -4.84633731842041 3.1201820373535156
-2.4851431846618652 0.9600827097892761 -1.2837142944335938
-8.758039474487305 -5.020446300506592 2.2866623401641846
-14.532574653625488 -3.914930820465088 5.573385715484619
-9.739945411682129 4.478844165802002 3.7296671867370605
-6.321288108825684 0.6350712180137634 2.0595924854278564
-21.866832733154297 -3.8785400390625 11.145742416381836
-15.841279029846191 -4.376804828643799 6.318268299102783
-3.3368892669677734 -1.5587828159332275 -0.7989208102226257
-7.772467136383057 -0.2673463523387909 1.7257006168365479
-5.785886287689209 -2.188497304916382 0.5949865579605103
-3.1585731506347656 -1.3265739679336548 -0.9004138112068176
-4.169521808624268 -2.2198681831359863 -0.3250076472759247
-16.551860809326172 8.424860000610352 6.945125102996826
-5.499290466308594 1.0080184936523438 0.43186596035957336
-7.648105621337891 4.338372707366943 1.6549185514450073
-12.45216178894043 -4.349708080291748 4.389266490936279
-4.239760398864746 0.8338055610656738 -0.2850287854671478
-8.553112030029297 4.655562877655029 2.8468713760375977
-5.99709939956665 -3.385676145553589 0.7152040600776672
-7.575026035308838 0.0945335403084755 2.3651983737945557
-9.867384910583496 5.295722961425781 2.918078899383545
-14.420124053955078 3.301325559616089 8.226011276245117
-8.059831619262695 -0.5059519410133362 3.3358185291290283
-11.31629753112793 -2.2095065116882324 3.74276065826416
-9.455806732177734 -3.5574073791503906 2.6838152408599854
-8.534882545471191 3.0168282985687256 2.673703670501709
-8.34407901763916 4.644064903259277 2.051050901412964
-7.771388530731201 -2.5680344104766846 1.7250863313674927
-14.93409538269043 4.329428672790527 7.1951823234558105
-8.922891616821289 -3.328678607940674 2.3804919719696045
-12.47449779510498 -1.3434908390045166 6.862823486328125
-6.827966690063477 -1.8642053604125977 1.1881135702133179
-6.6221466064453125 2.1154346466064453 2.4440338611602783
-12.090829849243164 -1.2364565134048462 5.552687644958496
-4.1770920753479 0.5185075402259827 -0.32069846987724304
-20.205413818359375 -2.7225418090820312 10.618302345275879
-18.810688018798828 -2.135226011276245 8.567394256591797
-7.860220432281494 4.242737293243408 2.6563503742218018
-12.68575382232666 5.624464511871338 6.8191633224487305
-5.444469451904297 3.433079719543457 0.4006628692150116
-10.933631896972656 3.176927089691162 4.732004165649414
-6.945799350738525 0.4440518915653229 1.2551823854446411
-19.50129508972168 -2.817474842071533 12.794804573059082
-12.096412658691406 -6.992595672607422 4.1867804527282715
-10.62421989440918 -0.31364959478378296 6.959563732147217
-9.8817720413208 -5.840106964111328 2.9262630939483643
-14.102980613708496 -7.973560333251953 5.451916217803955
-14.77004337310791 -6.146361351013184 5.708545684814453
-16.993497848510742 3.9460701942443848 8.217479705810547
-15.966373443603516 -5.3363871574401855 6.389468669891357
-9.285258293151855 4.82659912109375 3.2299938201904297
-13.372177124023438 -4.840660095214844 4.9129157066345215
-12.240703582763672 -2.7945032119750977 4.268909454345703
-11.4374361038208 0.2599511742591858 5.695496082305908
-7.842167377471924 -1.7174687385559082 1.7653716802597046
-10.13415813446045 -2.8436217308044434 3.069915771484375
-15.22236442565918 3.0270884037017822 8.896186828613281
-5.70824670791626 -3.369664430618286 0.5507962703704834
-11.09743881225586 0.2685031592845917 6.295307159423828
-8.367412567138672 4.420970916748047 2.5923049449920654
-10.417414665222168 -2.5302486419677734 3.2311394214630127
-5.942331314086914 1.3935418128967285 2.307800054550171
-13.830925941467285 7.594192028045654 5.17402982711792
-2.736588716506958 1.3980928659439087 -1.1405954360961914
-15.074769973754883 3.697139024734497 8.033222198486328
-12.232250213623047 2.7488064765930176 5.372974395751953
-4.716663360595703 0.11634382605552673 -0.013587645255029202
-10.415916442871094 3.8879289627075195 5.950869560241699
-3.9635298252105713 -1.8328344821929932 -0.44225218892097473
-3.1006760597229004 -1.6765992641448975 -0.9333680868148804
-13.704947471618652 3.1167051792144775 8.154211044311523
-8.088130950927734 -4.456788539886475 1.9053677320480347
-6.130010604858398 1.3426120281219482 1.4532719850540161
-8.23998737335205 3.770473003387451 2.4772932529449463
-6.178396701812744 0.9603314399719238 0.8183956742286682
-3.368230104446411 -1.046378493309021 -0.7810817360877991
-7.683272838592529 -4.675728797912598 1.674931526184082
-20.270498275756836 -6.703827381134033 10.346426963806152
-4.901468276977539 1.6770961284637451 0.09160048514604568
-19.158206939697266 -7.1222076416015625 11.288187980651855
-8.555754661560059 4.414820194244385 2.8326549530029297
-14.426170349121094 3.1161491870880127 8.326388359069824
-19.142061233520508 -6.406698703765869 11.710209846496582
-20.600126266479492 -10.53209114074707 9.415396690368652
-6.758589267730713 0.581791877746582 2.049635171890259
-14.26968002319336 -3.5575671195983887 5.423753261566162
-4.903685569763184 1.176093578338623 0.09286283701658249
-6.085127353668213 1.2767918109893799 2.378387212753296
-5.7534871101379395 -2.7619197368621826 0.5765472054481506
-17.72579574584961 3.4429755210876465 9.077813148498535
-19.389850616455078 -2.030771017074585 9.044319152832031
-6.708304405212402 1.6848851442337036 1.1200059652328491
-19.195661544799805 -7.257646083831787 11.422323226928711
-9.187939643859863 -0.5844957828521729 3.9779090881347656
-9.790206909179688 3.8926312923431396 5.030683994293213
-16.270265579223633 9.34184455871582 6.562442302703857
-6.787001609802246 0.5683697462081909 2.190760374069214
-8.885453224182129 -0.7984773516654968 5.232608318328857
-8.85335922241211 -2.0962717533111572 2.3409171104431152
-10.547636985778809 3.316551923751831 5.955449104309082
-11.440886497497559 -4.876176357269287 3.8136720657348633
-7.665445327758789 3.6152586936950684 2.108393669128418
-6.130143165588379 1.9824633598327637 1.5851093530654907
-19.238222122192383 -5.961477279663086 10.639216423034668
-19.80777359008789 -7.3039374351501465 10.995569229125977
-20.720460891723633 -4.6254963874816895 11.68506145477295
-5.887155055999756 0.05641207844018936 2.5825610160827637
-11.124143600463867 3.617030143737793 6.790578365325928
-11.12330150604248 3.8239808082580566 5.989035129547119
-4.774227142333984 2.2019596099853516 0.019178425893187523
-20.535877227783203 -0.6392661929130554 14.111780166625977
-7.397304058074951 1.7166435718536377 1.5121686458587646
-9.653848648071289 -3.3338911533355713 2.796536684036255
-11.295655250549316 -0.4874515235424042 5.7299957275390625
-12.398896217346191 7.220094680786133 4.358953952789307
-4.03071403503418 -1.4828540086746216 -0.40401363372802734
-7.255449295043945 -1.0372551679611206 1.4314266443252563
-8.929460525512695 4.183435440063477 3.0728225708007812
-10.274394035339355 3.1118075847625732 4.726550102233887
-18.92134666442871 -3.3308959007263184 8.071367263793945
-8.688291549682617 3.385850429534912 2.2986555099487305
-17.253372192382812 8.787615776062012 7.410033702850342
-10.739983558654785 -1.3946905136108398 3.4147377014160156
-10.647420883178711 1.4727164506912231 4.80861234664917
-7.774021148681641 3.192004442214966 1.7265874147415161
-7.632991790771484 2.1095001697540283 1.6463154554367065
-7.459416389465332 -1.7460190057754517 1.547519564628601
-6.266388893127441 -0.6713429093360901 2.2603797912597656
-13.41262435913086 -4.390659332275391 4.935939311981201
-12.415409088134766 -6.247285842895508 4.368346214294434
-8.12341594696045 3.774038076400757 3.0433835983276367
-8.785111427307129 -2.4328601360321045 2.3020713329315186
-7.266942977905273 -3.7467339038848877 1.437967300415039
-8.533220291137695 -2.171760082244873 2.1587026119232178
-18.08092498779297 -2.13905930519104 7.593020439147949
-10.349859237670898 3.8075966835021973 5.249704360961914
-20.137483596801758 -0.42182037234306335 14.184866905212402
-11.544584274291992 -4.0270280838012695 3.8726954460144043
-8.475899696350098 3.5922207832336426 3.1234817504882812
-6.476659297943115 1.691148042678833 2.543408155441284
-9.665703773498535 -0.801289975643158 2.8032846450805664
-8.331795692443848 2.9819016456604004 2.1650896072387695
-7.075479984283447 3.823781967163086 1.328994870185852
-19.446577072143555 -5.926490783691406 10.41482925415039
-12.907608985900879 7.014385223388672 4.648500442504883
-19.290904998779297 -5.720818519592285 10.624469757080078
-7.375208854675293 -0.6649675965309143 1.49959135055542
-17.17918586730957 -5.909233093261719 7.079771518707275
-12.215862274169922 -6.190760612487793 4.254769325256348
-8.439841270446777 3.313997268676758 3.0607781410217285
-11.129894256591797 0.5235100388526917 3.6366662979125977
-19.427261352539062 -2.863225221633911 9.077783584594727
-5.3949456214904785 -2.9557271003723145 0.37247323989868164
-6.957557201385498 2.7866275310516357 1.2618752717971802
-5.4510602951049805 -1.3613253831863403 0.4044131636619568
-5.925228118896484 -2.8460168838500977 0.6742971539497375
-6.764615058898926 2.023176908493042 1.1520566940307617
-13.38872241973877 -6.044679164886475 4.922332286834717
-7.380163669586182 3.4988350868225098 1.5024129152297974
-11.285922050476074 -4.407005786895752 3.7254714965820312
-5.851708889007568 -3.2745656967163086 0.6324508190155029
-6.290016174316406 -2.817349433898926 0.8819253444671631
-8.98044204711914 4.072385311126709 2.413252592086792
-6.008312702178955 0.586367130279541 1.4875991344451904
-17.502897262573242 3.3160648345947266 9.188319206237793
-5.935568809509277 2.2326886653900146 0.6801847815513611
-4.2294816970825195 0.051601260900497437 -0.2908792197704315
-10.781713485717773 2.93559193611145 3.4384920597076416
-6.594598293304443 2.8611199855804443 2.686243772506714
-7.082862854003906 0.1688956916332245 1.333195447921753
-9.076667785644531 3.262075424194336 4.273494243621826
-5.1004815101623535 1.5823748111724854 0.2048732489347458
-11.291698455810547 0.03034893609583378 5.885624885559082
-11.914080619812012 3.7812013626098633 7.340575695037842
-4.448737144470215 -0.27295395731925964 -0.16608290374279022
-16.9077205657959 9.416131973266602 7.186899662017822
-11.021234512329102 -1.7047983407974243 3.5748190879821777
-3.9691083431243896 -2.0070273876190186 -0.4390779733657837
-7.162832260131836 -3.2810635566711426 1.3787107467651367
-9.513391494750977 0.2085793912410736 4.241628170013428
-3.0005786418914795 1.5696640014648438 -0.580845057964325
-6.703699111938477 0.1451040655374527 1.1173855066299438
-7.445056438446045 1.0993902683258057 1.539347529411316
-21.18576431274414 -4.744122505187988 11.036733627319336
-5.751554012298584 -0.8391633629798889 0.5754470229148865
-7.827102184295654 -0.7471848726272583 1.7567977905273438
-21.310997009277344 -4.797951698303223 10.46937084197998
-8.405548095703125 3.1891071796417236 2.7616219520568848
-5.405591011047363 -2.762847423553467 0.37853315472602844
-15.805031776428223 3.7445993423461914 8.549970626831055
-12.076310157775879 3.765977382659912 7.317852020263672
-20.716209411621094 -2.9800844192504883 11.312739372253418
-15.765621185302734 -6.810635566711426 6.275204181671143
-12.317376136779785 -7.1631293296813965 4.312548637390137
-1.4665473699569702 -0.07950236648321152 -0.5158564448356628
-5.820950984954834 -2.433403968811035 0.6149451732635498
-5.747598648071289 -0.49830132722854614 0.5731958150863647
-19.173995971679688 -6.1155171394348145 11.304147720336914
-7.117411136627197 -0.7458094358444214 1.3528597354888916
-10.69267749786377 -0.17376092076301575 6.879458904266357
-9.72532844543457 -2.1005589962005615 2.8372204303741455
-13.003273963928223 3.128530979156494 5.95547342300415
-4.38431978225708 -1.828338623046875 -0.20274919271469116
-11.35258960723877 4.775686740875244 6.34923791885376
-2.9280099868774414 -0.014564752578735352 -1.0316442251205444
-7.249326229095459 0.8458279371261597 1.4279427528381348
-9.520256042480469 -5.027746677398682 2.7204971313476562
-9.284477233886719 -0.725975751876831 4.405725955963135
-5.261430740356445 -1.7596335411071777 0.2964802086353302
-8.339180946350098 5.371559143066406 2.048262357711792
-3.937065601348877 -1.1361520290374756 -0.4573151469230652
-14.477113723754883 -6.043443202972412 5.541818618774414
-4.968755722045898 -0.9843810200691223 0.1298971176147461
-11.893004417419434 -1.427629828453064 4.071009159088135
-3.1810996532440186 1.065060019493103 -0.887592613697052
-13.708581924438477 -7.959376811981201 5.1043877601623535
-10.598779678344727 -4.682575702667236 3.3343663215637207
-7.631720066070557 -0.32493534684181213 2.2555606365203857
-13.132570266723633 -6.8474578857421875 4.7765374183654785
-10.284746170043945 3.7553391456604004 5.809144020080566
-20.155963897705078 -9.765482902526855 8.814298629760742
-7.974282741546631 5.0076904296875 1.840572476387024
-20.369985580444336 -6.596604824066162 10.199910163879395
-9.484992980957031 4.379870414733887 4.199409484863281
-16.43333625793457 -4.516005039215088 6.904675483703613
-8.09308910369873 5.277629375457764 1.90819251537323
-3.8473939895629883 2.6676394939422607 -0.5083515048027039
-6.261556148529053 3.655585765838623 0.8657299280166626
-9.251239776611328 -0.79864102602005 4.59227991104126
-11.667223930358887 3.3532378673553467 3.942502737045288
-13.514629364013672 -3.0746665000915527 4.993995666503906
-8.321255683898926 -1.280318260192871 2.0380568504333496
-5.831469535827637 4.010404109954834 0.6209350228309631
-6.658477783203125 -4.032199382781982 1.091644525527954
-15.494114875793457 4.646689414978027 7.759215831756592
-5.71334981918335 -3.868664503097534 0.553699791431427
-13.208712577819824 -5.8933305740356445 4.819875240325928
-9.870654106140137 -1.967872977256775 2.9199371337890625
-3.7898402214050293 -0.0793195366859436 -0.5411116480827332
-4.093094825744629 -2.8575069904327393 -0.3685073256492615
-8.298677444458008 -2.259366512298584 2.025207042694092
-18.511791229248047 -7.428184986114502 7.838256359100342
-11.522775650024414 7.064209938049316 3.8602874279022217
-3.360701560974121 -0.4379701018333435 -0.7853679060935974
-16.47490692138672 8.69615364074707 7.1630024909973145
-11.3557767868042 -0.2688039243221283 5.687153339385986
-7.9965386390686035 4.547836780548096 1.8532379865646362
-16.368167877197266 -3.7828025817871094 6.6253342628479
-15.24545955657959 -6.839108943939209 5.979141712188721
-7.787959575653076 -4.621026039123535 1.7345176935195923
-10.890015602111816 3.6572771072387695 6.718807697296143
-16.96125030517578 -9.10292911529541 6.955726146697998
-15.026443481445312 7.920868396759033 5.854489803314209
-6.1602325439453125 1.716027855873108 1.6366671323776245
-12.205470085144043 -2.0177571773529053 4.248856544494629
-6.703586101531982 3.2592813968658447 1.1173219680786133
-5.3732476234436035 -0.5960603952407837 0.3601233959197998
-4.3270134925842285 -0.9848995804786682 -0.23536598682403564
-11.210390090942383 -4.659778118133545 3.6824800968170166
-5.000463485717773 -0.6846222281455994 0.14794398844242096
-10.804677963256836 4.325936794281006 5.157963752746582
-3.7800092697143555 -2.4802637100219727 -0.5467090606689453
-5.355437755584717 -3.0737950801849365 0.3499862253665924
-5.6887922286987305 -3.5188207626342773 0.5397232174873352
-14.884515762329102 3.4872941970825195 8.338861465454102
-6.747195720672607 4.040831565856934 1.1421434879302979
-5.702019214630127 -0.31290245056152344 0.5472522974014282
-14.345341682434082 4.408545017242432 7.663520812988281
-18.980459213256836 -2.3597662448883057 8.203194618225098
-12.09464168548584 -3.6021220684051514 4.185773849487305
-11.28771686553955 0.7160957455635071 6.0895185470581055
-9.08128547668457 3.75787615776062 2.470649480819702
-6.494443416595459 -1.4675168991088867 0.9982810616493225
-10.3928804397583 -5.628554821014404 3.2171733379364014
-10.085487365722656 -2.2460577487945557 3.0422141551971436
-12.4713773727417 7.275423526763916 4.400208473205566
-7.664291858673096 3.298862934112549 1.6641321182250977
-20.47088623046875 10.397607803344727 9.639758110046387
-5.961812496185303 4.134159564971924 0.6951229572296143
-20.69584846496582 -4.9953837394714355 11.729070663452148
-18.03428840637207 -6.79157829284668 7.566473484039307
-18.71771240234375 -2.533396005630493 7.955463409423828
-7.744390487670898 -3.0596563816070557 1.7097188234329224
-19.16576385498047 -7.829990386962891 8.210482597351074
-6.8426618576049805 -2.21262526512146 1.196478247642517
-5.004923343658447 -0.5736903548240662 0.15048345923423767
-12.622589111328125 3.421203374862671 4.486273765563965
-18.305089950561523 -2.6736855506896973 7.720609664916992
-7.673623561859131 -3.309865713119507 1.6694401502609253
-2.851231813430786 1.1694331169128418 -1.0753445625305176
-9.534452438354492 -3.1855568885803223 2.7285780906677246
-12.243857383728027 -7.106654167175293 4.270702362060547
-10.398429870605469 -3.4411683082580566 3.220331907272339
-11.276881217956543 -1.0659791231155396 4.885981559753418
-18.913925170898438 -3.4491782188415527 12.892467498779297
-5.698086261749268 0.5334101915359497 0.5450149774551392
-19.96327018737793 -7.179347991943359 11.262165069580078
-5.621860027313232 3.3915903568267822 0.501629650592804
-13.559903144836426 -7.981017112731934 5.219767093658447
-11.378682136535645 -0.5200859308242798 5.574755668640137
-20.41341209411621 -2.330866575241089 10.437586784362793
-14.073969841003418 -8.04100227355957 5.67824649810791
-10.056313514709473 -2.794344663619995 3.025608777999878
-16.828371047973633 -8.97381591796875 6.880094051361084
-7.183300495147705 -3.7812373638153076 1.390359878540039
-16.658323287963867 9.026666641235352 6.807440757751465
-7.642236709594727 -0.41897207498550415 1.6515765190124512
-12.761167526245117 5.365086078643799 7.008127689361572
-6.474394798278809 2.453573703765869 0.9868706464767456
-6.951174736022949 -2.9792768955230713 1.258240818977356
-2.766306161880493 0.246934711933136 -1.1236822605133057
-10.717674255371094 0.07126971334218979 6.905897617340088
-3.91210675239563 -0.5386742949485779 -0.471520334482193
-19.931482315063477 -4.59568452835083 12.398871421813965
-8.573003768920898 -3.939697265625 2.181344985961914
-9.828814506530762 5.526957035064697 2.906987428665161
-18.78974723815918 -6.057699203491211 11.630370140075684
-21.11493492126465 -3.474733829498291 11.189468383789062
-11.302929878234863 -4.752707004547119 3.7351512908935547
-11.842730522155762 5.197608470916748 6.105447292327881
-3.400902509689331 0.2885703444480896 -0.7624852657318115
-7.283951759338379 -3.502084493637085 1.4476490020751953
-16.103391647338867 -3.683436870574951 7.282776832580566
-3.228778600692749 0.8167662024497986 -0.24971836805343628
-15.307437896728516 5.634771347045898 7.320118427276611
-3.8487555980682373 -1.664309024810791 -0.5075803995132446
-4.128055095672607 0.3282196819782257 -0.3486092686653137
-12.044866561889648 -3.0948374271392822 4.157444000244141
-5.973748683929443 2.0584425926208496 0.7019157409667969
-10.673238754272461 2.9282784461975098 3.3767518997192383
-11.38962459564209 4.868426322937012 6.383292198181152
-3.8748693466186523 -0.34752729535102844 -0.49271607398986816
-8.686393737792969 -1.7879583835601807 2.2458858489990234
-7.50621223449707 -4.305636405944824 1.574154257774353
-12.131217956542969 -5.203457355499268 4.206592559814453
-6.137941837310791 3.469994068145752 0.795371413230896
-6.402195930480957 4.196984767913818 0.9457786083221436
-11.46612548828125 0.47355592250823975 5.70642614364624
-11.029812812805176 -4.511068344116211 3.579700231552124
-7.397075176239014 -1.9713897705078125 1.5120362043380737
-6.9961018562316895 -0.1794116348028183 1.2838138341903687
-9.661432266235352 -4.693424701690674 2.800851345062256
-8.674515724182129 -1.0239336490631104 2.239124298095703
-8.215085983276367 3.0036938190460205 2.307461738586426
-7.803479194641113 -1.489863395690918 1.7433526515960693
-16.24492645263672 -4.049712181091309 7.018484115600586
-16.21722412109375 -7.0602030754089355 6.53224515914917
-10.029377937316895 -1.0026557445526123 6.16334867477417
-6.263152122497559 0.019894860684871674 0.8666365146636963
-18.79667854309082 -7.499873638153076 8.000406265258789
-14.337337493896484 -6.017736434936523 5.4622602462768555
-19.858016967773438 -10.458430290222168 9.23917007446289
-6.801546096801758 -4.243312358856201 1.173075795173645
-6.22227144241333 -0.7737014293670654 2.526066541671753
-6.222449779510498 -2.099285840988159 0.8434687852859497
-16.09839630126953 -3.702404022216797 6.464613437652588
-7.214164733886719 -0.3701245188713074 1.4079291820526123
-10.302526473999023 -1.7088978290557861 3.16574764251709
-13.809833526611328 -2.8860301971435547 5.162020206451416
-6.254222393035889 4.133302688598633 0.8615554571151733
-10.73440933227539 -2.8299407958984375 3.411564826965332
-9.098319053649902 1.4013398885726929 3.92690110206604
-8.35421085357666 -3.6306064128875732 2.056813955307007
-15.043266296386719 -6.565989971160889 5.864058494567871
-13.495132446289062 -4.316451072692871 4.9828996658325195
-5.4656267166137695 -0.42842674255371094 0.41270390152931213
-8.022052764892578 4.18509578704834 2.711982250213623
-5.352115154266357 -2.867974281311035 0.3480949401855469
-5.762060165405273 3.508347749710083 0.5814282894134521
-6.76361083984375 -1.1937029361724854 1.2943967580795288
-5.29281759262085 1.0668340921401978 0.31434598565101624
-8.587458610534668 3.908463478088379 3.0667319297790527
-8.104351997375488 -4.665292739868164 1.9146003723144531
-16.727052688598633 9.142621994018555 6.8606977462768555
-9.908529281616211 -5.055401802062988 2.9414925575256348
-8.055152893066406 2.9699454307556152 1.978899598121643
-11.161924362182617 3.4652295112609863 5.377354621887207
-7.115633964538574 1.5167583227157593 1.3518483638763428
-11.129589080810547 -0.040015850216150284 6.15023946762085
-20.661428451538086 9.994353294372559 9.806320190429688
-16.35079574584961 4.046413421630859 8.234692573547363
-10.517507553100586 -1.0379234552383423 3.2881088256835938
-6.408298015594482 -3.238748788833618 0.9492488503456116
-17.485685348510742 -2.343339443206787 7.254223823547363
-14.672346115112305 -6.151121616363525 5.652939796447754
-20.796844482421875 -4.475545883178711 11.87201976776123
-8.962983131408691 1.6605440378189087 2.4033145904541016
-4.129525661468506 0.6419411301612854 -0.34777194261550903
-20.62483024597168 -4.677140712738037 12.12117862701416
-17.254222869873047 8.842734336853027 7.494114398956299
-10.689921379089355 3.6408121585845947 5.617400646209717
-6.025067329406738 1.01754891872406 2.133124828338623
-3.7669677734375 -1.5664175748825073 -0.5541306734085083
-10.098518371582031 -5.535881519317627 3.0496292114257812
-5.188843727111816 -1.446897029876709 0.25516632199287415
-17.70008087158203 3.5050337314605713 8.2504243850708
-18.543161392211914 -8.813665390014648 7.856110572814941
-3.2455577850341797 -0.08561152219772339 -0.8509041666984558
-20.464387893676758 -0.56089848279953 14.228462219238281
-3.0983777046203613 1.516135573387146 -0.764278769493103
-13.81343936920166 -8.234789848327637 5.216286659240723
-9.359281539916992 -3.086590051651001 2.6288747787475586
-19.145404815673828 -8.114128112792969 8.198894500732422
-2.6737265586853027 1.1729596853256226 -1.1763761043548584
-7.213171482086182 0.11192820221185684 1.4073642492294312
-9.586983680725098 3.4960103034973145 4.103639602661133
-13.866107940673828 -7.725386142730713 5.209856033325195
-20.431692123413086 -9.9325590133667 9.922913551330566
-10.25216293334961 -5.512604236602783 3.1370797157287598
-6.049907207489014 1.2081215381622314 0.7452624440193176
-14.099663734436035 -5.834795951843262 5.326982498168945
-20.187158584594727 -6.5747904777526855 10.545089721679688
-11.028993606567383 -3.7608070373535156 3.5792338848114014
-10.837699890136719 -0.01910368725657463 4.995339393615723
-6.2056732177734375 -0.49460914731025696 2.406034469604492
-3.5696074962615967 -1.9743510484695435 -0.6664644479751587
-8.502525329589844 3.1737210750579834 2.824805974960327
-16.97087287902832 9.074551582336426 7.616407871246338
-13.791075706481934 -5.713015079498291 5.151341438293457
-9.539119720458984 -3.6104326248168945 2.731234550476074
-17.346391677856445 -2.4323198795318604 7.174942970275879
-7.089815139770508 0.5284821391105652 2.2264790534973145
-7.214925289154053 3.2064075469970703 1.4083629846572876
-4.159779071807861 -1.3347581624984741 -0.33055248856544495
-10.817237854003906 -1.483123540878296 3.4587087631225586
-16.39215850830078 -4.655512809753418 7.042011260986328
-12.427983283996582 5.353106498718262 6.693431377410889
-10.446192741394043 -4.691418647766113 3.2475175857543945
-7.405606746673584 3.804004430770874 1.5168951749801636
-10.05807876586914 -4.723970890045166 3.0266125202178955
-9.182877540588379 -3.0946617126464844 2.528470516204834
-12.189237594604492 -6.088489055633545 4.239614963531494
-17.48304557800293 3.4094462394714355 9.713643074035645
-5.28940486907959 -0.6869739294052124 0.31240320205688477
-7.4630126953125 3.976344108581543 1.5495682954788208
-12.443086624145508 -4.136369705200195 4.384100914001465
-6.982169151306152 1.3956817388534546 1.2758841514587402
-12.881745338439941 3.1133275032043457 5.7984724044799805
-20.98836326599121 -3.4907867908477783 11.508100509643555
-5.954392433166504 0.6565293073654175 0.6908984184265137
-13.277544975280762 -7.23073673248291 4.859052658081055
-13.348877906799316 8.047789573669434 4.899660587310791
-2.7633395195007324 0.6723522543907166 -1.1253705024719238
-11.288273811340332 3.911121129989624 6.809265613555908
-5.629395961761475 2.80769419670105 0.5059187412261963
-16.071748733520508 -3.8507730960845947 6.449446201324463
-11.972718238830566 -1.1492564678192139 4.116380214691162
-19.721160888671875 -10.173185348510742 9.500313758850098
-15.65176010131836 4.548442840576172 7.943697452545166
-14.876365661621094 8.635324478149414 5.769068717956543
-6.583559036254883 2.1151442527770996 1.0490044355392456
-13.992878913879395 5.714378356933594 7.359860420227051
-8.903236389160156 5.708755970001221 2.3693089485168457
-12.462651252746582 -7.274126052856445 4.39523458480835
-7.207604885101318 -4.705931186676025 1.4041930437088013
-11.482274055480957 2.868387460708618 5.100931644439697
-12.585636138916016 5.688187122344971 6.746700763702393
-7.878731727600098 -0.44793814420700073 2.168335437774658
-4.512849807739258 -1.1498074531555176 -0.12959355115890503
-9.35959529876709 3.5260589122772217 4.399628162384033
-7.977249622344971 -4.828149318695068 1.8422554731369019
-19.101022720336914 -3.2214386463165283 12.801789283752441
-18.73294448852539 -1.9573408365249634 8.611773490905762
-4.755209445953369 -2.760824203491211 0.008350440301001072
-17.056148529052734 3.5899412631988525 7.696208477020264
-6.1597747802734375 3.3405869007110596 0.8077978491783142
-1.1836891174316406 0.20843921601772308 -0.7110565900802612
-3.592916250228882 -1.5553141832351685 -0.6531969308853149
-5.040591239929199 -2.4823546409606934 0.1707828789949417
-14.258310317993164 3.1278488636016846 8.156181335449219
-9.04302978515625 3.544471025466919 3.895490884780884
-8.80202579498291 -5.503747940063477 2.3116986751556396
-10.843823432922363 3.2933645248413086 5.037680625915527
-17.71581268310547 3.2639269828796387 8.069738388061523
-10.809144973754883 3.464195489883423 6.29489803314209
-5.5386762619018555 3.6125457286834717 0.45428428053855896
-8.815804481506348 -0.6831375956535339 3.713301181793213
-10.02727222442627 -5.954704761505127 3.00907826423645
-3.5245602130889893 0.1482771635055542 -0.69210284948349
-7.972593307495117 -0.3496246933937073 2.016648769378662
-8.836421012878418 3.4809367656707764 3.692547559738159
-11.349180221557617 -2.4061319828033447 3.7614762783050537
-20.188045501708984 -2.786241292953491 10.492936134338379
-20.761762619018555 -9.994194984436035 9.303973197937012
-6.034977436065674 -4.189108848571777 0.7367629408836365
-6.000107288360596 -3.2200608253479004 0.7169169187545776
-10.899443626403809 -2.786541700363159 3.505497455596924
-20.206567764282227 -6.074182033538818 12.75383472442627
-5.07788610458374 -0.24506330490112305 0.19201171398162842
-10.918381690979004 6.634823322296143 3.5162808895111084
-12.041189193725586 -1.2944846153259277 4.155351638793945
-5.177961349487305 2.748187303543091 0.24897392094135284
-10.721161842346191 6.744162082672119 3.4040281772613525
-5.747482776641846 1.246744990348816 0.5731298327445984
-7.607527732849121 -2.845244884490967 1.631820797920227
-5.967889785766602 0.11219272017478943 2.6285133361816406
-5.816215991973877 -0.06486935168504715 2.347569465637207
-19.2497501373291 -6.175229072570801 10.731389999389648
-12.936752319335938 3.31990909576416 8.196405410766602
-3.8248698711395264 -2.2690553665161133 -0.5211740732192993
-8.024775505065918 -2.8533899784088135 1.8693065643310547
