-4.623204708099365 1.6592624187469482 -1.099209189414978
-6.112568378448486 1.812250018119812 -0.25150036811828613
-7.225210666656494 1.397765874862671 3.729806661605835
-7.74777364730835 3.253999948501587 0.6792187094688416
-6.044613361358643 2.540797233581543 -0.290178120136261
-5.938762664794922 1.5846233367919922 -0.35042551159858704
-7.615232944488525 1.0492513179779053 0.6037783622741699
-6.284120082855225 -0.5056084394454956 -0.15385769307613373
-6.235442161560059 0.0789051502943039 0.9628124237060547
-7.927619934082031 -3.0736477375030518 0.7815799117088318
-10.8428316116333 5.89771842956543 2.440850019454956
-14.085319519042969 -8.699270248413086 4.286386489868164
-12.008809089660645 -0.7494277358055115 4.554740905761719
-13.76650619506836 8.48080825805664 4.104933261871338
-8.29865837097168 3.164469003677368 0.9927675724029541
-5.385984897613525 0.23864221572875977 3.695352792739868
-10.815966606140137 -5.817956447601318 2.425554037094116
-10.025388717651367 -3.537774085998535 1.9755769968032837
-4.223605155944824 -1.0313220024108887 -1.326651692390442
-10.259191513061523 -1.7204821109771729 2.1086530685424805
-6.800322532653809 0.9780027270317078 0.13995182514190674
-5.423198223114014 -2.726517677307129 -0.6438745856285095
-14.651993751525879 -6.800609111785889 5.341569423675537
-5.804252624511719 -2.8420917987823486 -0.4269873797893524
-6.367616176605225 0.6214326620101929 1.576559066772461
-10.947473526000977 6.006984233856201 2.5004091262817383
-9.160638809204102 -1.6012591123580933 4.1439208984375
-11.847941398620605 -2.48530912399292 3.012929677963257
-10.088868141174316 -5.294754505157471 2.0117075443267822
-6.548189163208008 0.11532855778932571 1.633993148803711
-7.614768981933594 1.1493151187896729 0.6035147905349731
-14.92296314239502 -6.703830242156982 5.056317329406738
-6.684386730194092 -2.206768035888672 0.07396250218153
-6.173238277435303 -1.2159533500671387 -0.21696868538856506
-4.318774700164795 -0.5167412161827087 -1.2724840641021729
-10.4338960647583 -6.546693325042725 2.208087921142578
-10.3629789352417 3.06650710105896 2.16772723197937
-11.373276710510254 -1.2731050252914429 5.371870040893555
-12.137704849243164 -3.948230028152466 3.1778552532196045
-17.160776138305664 3.6814584732055664 6.036862850189209
-9.936356544494629 4.502523899078369 1.9249061346054077
-9.978286743164062 -4.119273662567139 1.948767900466919
-14.650813102722168 4.091685771942139 4.608256816864014
-12.367823600769043 -2.437681198120117 3.899484634399414
-19.47296714782715 5.5848870277404785 7.352906703948975
-9.533906936645508 4.52234411239624 1.695841908454895
-15.337480545043945 3.9368538856506348 5.074812412261963
-6.177280426025391 -1.6877104043960571 -0.2146696001291275
-8.508103370666504 -1.241198182106018 1.1119768619537354
-2.143298625946045 0.3403473198413849 -0.6042847037315369
-4.642694473266602 -2.6348462104797363 -1.0881181955337524
-20.602783203125 -4.378129482269287 7.995965480804443
-11.142584800720215 -3.6688830852508545 2.611457586288452
-6.482690811157227 3.5278749465942383 -0.04083538427948952
-6.643533229827881 2.8463242053985596 0.050712112337350845
-11.749821662902832 -1.0988929271697998 4.809930801391602
-5.020715236663818 -0.6838247179985046 -0.8729570508003235
-9.378223419189453 -1.3786677122116089 3.053783893585205
-10.901262283325195 -6.1300177574157715 2.474102735519409
-9.585712432861328 -1.6700444221496582 3.500750780105591
-6.781040191650391 1.6512835025787354 0.7801277041435242
-4.238835334777832 -0.9119008779525757 -1.317981481552124
-15.916247367858887 -9.761514663696289 5.32850456237793
-11.2814302444458 -3.988981246948242 2.6904850006103516
-4.697482585906982 2.3947267532348633 -1.0569326877593994
-12.095947265625 -4.824326038360596 3.1540870666503906
-11.068833351135254 2.9156277179718018 2.569483518600464
-7.711435317993164 -1.223854899406433 0.6585341095924377
-4.582336902618408 0.42613935470581055 -1.122469425201416
-7.780803680419922 1.4498138427734375 0.6980174779891968
-6.209879398345947 3.123922824859619 -0.19611220061779022
-6.918883323669434 2.7360281944274902 0.2074344903230667
-8.376199722290039 -0.7362109422683716 1.036901593208313
-16.63276481628418 -8.738323211669922 5.736328601837158
-10.074247360229492 -4.095643997192383 2.003385066986084
-8.194486618041992 -1.4443191289901733 0.9334742426872253
-10.346763610839844 5.471397876739502 2.1584999561309814
-10.989361763000488 -1.122460126876831 6.132524490356445
-10.255837440490723 4.580141544342041 4.977375030517578
-15.113858222961426 -7.635552406311035 4.871807098388672
-11.660905838012695 4.146759986877441 2.906477451324463
-9.572351455688477 -1.0140336751937866 3.1642768383026123
-21.13379669189453 -7.21017599105835 8.29820442199707
-7.8122124671936035 -0.953959584236145 1.452129602432251
-5.6304426193237305 -1.6585180759429932 -0.5259153842926025
-7.544217109680176 3.4551291465759277 0.5633593201637268
-9.878582000732422 -6.46190071105957 1.8920183181762695
-10.141894340515137 4.308739185333252 2.041893482208252
-4.797719478607178 -3.117105007171631 -0.9998824000358582
-4.75009822845459 -1.0587270259857178 -1.0269839763641357
-14.452162742614746 -8.30633544921875 4.495184898376465
-7.698421478271484 -2.999940872192383 0.6511255502700806
-14.723371505737305 -9.20125675201416 4.649549961090088
-12.931375503540039 6.414971828460693 3.629596710205078
-6.540801525115967 0.6766183972358704 0.6448689699172974
-5.218140125274658 -3.316516399383545 -0.760588526725769
-18.393659591674805 -4.1613850593566895 6.738588333129883
-10.19589900970459 -4.484179496765137 2.0726277828216553
-14.837751388549805 -4.050242900848389 4.714653491973877
-5.756035327911377 -0.024411886930465698 -0.4544299840927124
-8.291512489318848 4.28140115737915 0.9887005090713501
-5.839637279510498 0.15169242024421692 -0.406847208738327
-13.738173484802246 -3.1219935417175293 4.088803291320801
-13.881317138671875 3.1718533039093018 4.170278549194336
-8.826056480407715 -1.2978097200393677 2.7395050525665283
-3.485807418823242 0.7850496172904968 -1.7465872764587402
-10.373442649841309 4.794084072113037 4.152782440185547
-13.324629783630371 3.970473527908325 4.01911735534668
-8.02538776397705 -4.240262031555176 0.8372264504432678
-11.539780616760254 -5.8481364250183105 2.8375306129455566
-5.298482418060303 2.341439962387085 -0.7148562073707581
-10.738516807556152 5.788623332977295 2.3814761638641357
-9.903826713562012 -0.7100887894630432 3.432490825653076
-13.23269271850586 6.991570949554443 4.725992679595947
-6.294082164764404 0.4503925144672394 2.171783685684204
-5.541799545288086 3.8598315715789795 -0.5763663649559021
-9.68628978729248 2.140836238861084 1.7825735807418823
-10.247864723205566 4.573793411254883 2.1022088527679443
-6.9954657554626465 -0.8526148200035095 0.2510218322277069
-14.244234085083008 5.429090976715088 4.376842021942139
-10.54625129699707 2.5052762031555176 2.2720415592193604
-6.4583845138549805 0.3188047409057617 0.585060715675354
-8.74621868133545 -5.502246856689453 1.2475050687789917
-13.021378517150879 -4.330626487731934 3.6808197498321533
-6.0835862159729 2.104015588760376 -0.26799580454826355
-11.025642395019531 2.5576348304748535 2.5448992252349854
-6.746189117431641 3.3937172889709473 0.10914050787687302
-9.570720672607422 -1.5645198822021484 3.4444451332092285
-9.691494941711426 5.366556644439697 1.785536289215088
-5.776383876800537 -2.2252156734466553 -0.442849338054657
-13.376887321472168 4.6971049308776855 3.9243319034576416
-8.38435173034668 0.11663568764925003 2.488097906112671
-5.685967445373535 -0.0034736189991235733 2.2848222255706787
-7.650854110717773 3.5290350914001465 0.6240549087524414
-10.188566207885742 6.799295902252197 2.06845760345459
-8.360847473144531 -0.5976995825767517 1.0281639099121094
-20.149032592773438 -11.354787826538086 7.737700462341309
-13.849970817565918 -7.487089157104492 4.152432441711426
-5.022810935974121 1.3153681755065918 -0.871762752532959
-5.600806713104248 1.21636164188385 -0.5427837371826172
-10.326984405517578 -3.7809805870056152 2.1472387313842773
-5.772291660308838 -1.6391621828079224 -0.4451781213283539
-5.016646385192871 2.1060233116149902 -0.875270664691925
-16.369583129882812 -4.510164260864258 5.58653450012207
-9.95430850982666 -3.357926607131958 1.93511962890625
-8.401287078857422 -2.266998767852783 1.0511804819107056
-11.39708137512207 -2.086616277694702 3.1707968711853027
-9.713366508483887 -2.603415012359619 1.7979824542999268
-10.334075927734375 4.7824578285217285 4.240240573883057
-5.66595458984375 -0.8812883496284485 -0.5057028532028198
-8.140254020690918 -0.971531331539154 0.9026070237159729
-5.098267555236816 3.120673418045044 -0.8288133144378662
-5.392158508300781 -2.2089574337005615 -0.6615415215492249
-6.756728649139404 -0.4615752100944519 0.11513904482126236
-9.160069465637207 -1.4108515977859497 2.4144976139068604
-14.215045928955078 -7.427023887634277 4.360223770141602
-15.895794868469238 -4.097025394439697 5.316865921020508
-9.298133850097656 -4.770389080047607 1.5616422891616821
-16.822696685791016 -5.410895347595215 6.138988971710205
-7.695249080657959 -4.795836448669434 0.6493207812309265
-15.205939292907715 -6.265885829925537 5.137265205383301
-6.398638725280762 -1.495132565498352 1.3902366161346436
-5.309370994567871 -1.7539535760879517 -0.7086611986160278
-8.681142807006836 4.957463264465332 1.2104681730270386
-10.832016944885254 2.7280516624450684 2.4346923828125
-10.512847900390625 6.160208225250244 2.2530317306518555
-19.309572219848633 5.324182987213135 7.259904861450195
-12.285472869873047 7.944482803344727 3.261965274810791
-10.239778518676758 -1.084736704826355 3.5441603660583496
-6.211145401000977 -0.21700622141361237 1.7345397472381592
-4.692496299743652 -2.841541051864624 -1.0597718954086304
-7.875282287597656 -1.1100233793258667 0.7517915964126587
-10.446269989013672 5.739800453186035 2.215136766433716
-6.139552116394043 4.179958343505859 -0.2361404150724411
-10.22102165222168 5.905153274536133 2.086930513381958
-8.474316596984863 -2.397509813308716 1.0927468538284302
-11.163043022155762 -3.5595779418945312 2.6231019496917725
-14.455673217773438 8.826553344726562 4.497190475463867
-19.47714614868164 -10.940794944763184 7.355278968811035
-17.641700744628906 6.610706329345703 6.31059455871582
-8.663052558898926 3.2162532806396484 1.200173020362854
-7.711071014404297 -2.6555862426757812 0.6583263874053955
-4.139811992645264 1.2534319162368774 -1.3743436336517334
-7.392214775085449 0.051350757479667664 1.62681245803833
-6.639747142791748 -1.8263975381851196 0.04855601117014885
-4.70863676071167 -2.7473177909851074 -1.0505850315093994
-5.614761829376221 -0.3124391436576843 -0.5348398685455322
-5.701093673706055 1.439634084701538 -0.48570165038108826
-6.902929782867432 4.124940395355225 0.19835515320301056
-4.796017646789551 -2.3965394496917725 -1.0008506774902344
-14.306721687316895 -7.5501017570495605 4.4124040603637695
-6.84115743637085 1.2863450050354004 0.1631954461336136
-4.362611770629883 1.4813319444656372 -1.247531771659851
-11.571535110473633 6.8232293128967285 2.8556087017059326
-9.697761535644531 -1.3791605234146118 3.296112298965454
-8.775503158569336 1.9228378534317017 1.264175534248352
-5.251344680786133 3.3867263793945312 -0.7416857481002808
-11.424836158752441 -1.8436673879623413 4.955020904541016
-17.05620765686035 -4.699662208557129 5.977342128753662
-9.673614501953125 2.4576833248138428 1.7753586769104004
-5.4708404541015625 -0.14039307832717896 -0.6167556047439575
-7.161717414855957 -1.0854086875915527 0.3456481397151947
-14.586219787597656 -9.215681076049805 4.57148551940918
-7.0286688804626465 3.3816120624542236 0.26992201805114746
-4.736342906951904 -1.179410457611084 -1.034813642501831
-16.86984634399414 2.2158658504486084 5.871274948120117
-5.314653396606445 0.3280370831489563 -0.7056536674499512
-15.065998077392578 4.422452449798584 4.844568729400635
-8.462085723876953 -0.7196550965309143 2.597106456756592
-10.47695255279541 4.198331832885742 2.2325990200042725
-6.672568321228027 -0.7187463641166687 0.06723646074533463
-15.111845016479492 -9.307415962219238 4.8706583976745605
-10.080893516540527 2.6872172355651855 2.007172107696533
-6.714385032653809 -0.30654236674308777 0.09103826433420181
-6.032452583312988 2.9638895988464355 -0.29709941148757935
-13.667009353637695 -8.746131896972656 4.048295021057129
-8.284099578857422 -4.394909381866455 0.9844779968261719
-11.400553703308105 5.720925331115723 2.7582907676696777
-4.887195587158203 -1.382659912109375 -0.9489539265632629
-6.285202980041504 -0.38397935032844543 1.309303879737854
-6.83188009262085 0.0881226509809494 0.15791338682174683
-6.593395709991455 -1.479357361793518 1.0523675680160522
-4.205443382263184 2.559262752532959 -1.3369868993759155
-6.7404680252075195 2.1881606578826904 0.10588517785072327
-5.923638343811035 -2.6738781929016113 -0.35903578996658325
-10.324217796325684 4.57420015335083 4.278665065765381
-10.530004501342773 3.257969379425049 2.262794017791748
-7.4142374992370605 1.0079784393310547 0.4893772304058075
-10.430401802062988 -0.8415917754173279 3.652658224105835
-11.279930114746094 2.8345792293548584 2.689633846282959
-4.653331756591797 2.0471274852752686 -1.0820610523223877
-1.7399320602416992 0.26040711998939514 -0.883995532989502
-11.580750465393066 -3.173349618911743 2.8608508110046387
-11.159185409545898 2.219498634338379 2.620908498764038
-10.018515586853027 3.7922775745391846 1.971667766571045
-16.141910552978516 -9.488968849182129 5.4569478034973145
-6.628063678741455 -2.7271554470062256 0.04190443456172943
-6.3090739250183105 0.3790279030799866 1.662265419960022
-7.67036247253418 2.6055288314819336 1.5394552946090698
-6.210123062133789 -2.7173964977264404 -0.19597622752189636
-12.01013469696045 -2.4720983505249023 3.105245590209961
-5.792749881744385 0.39877036213874817 -0.43353182077407837
-8.617683410644531 -3.677532196044922 1.1743470430374146
-6.839295387268066 -0.5273351073265076 0.16213424503803253
-9.497241973876953 -3.9585726261138916 1.67496919631958
-9.11922836303711 -1.3750840425491333 2.9063711166381836
-6.579815864562988 0.318583607673645 1.1442586183547974
-8.956754684448242 5.726762771606445 1.367340087890625
-13.87898063659668 8.578527450561523 4.16895055770874
-6.2093400955200195 -0.1821194440126419 0.8272026777267456
-17.36408805847168 -5.355164527893066 6.15623664855957
-4.792999267578125 1.5577094554901123 -1.002564787864685
-6.49995231628418 1.1888604164123535 1.5876092910766602
-7.504622936248779 2.571894645690918 0.5408231019973755
-10.08559513092041 -4.219103813171387 2.0098443031311035
-2.958872079849243 0.15066683292388916 -2.046506404876709
-6.4865288734436035 0.810354471206665 1.6128902435302734
-5.753497123718262 -0.3057573437690735 2.769164562225342
-9.380489349365234 -3.3278887271881104 1.6085175275802612
-8.340027809143066 -4.986067295074463 1.0163112878799438
-8.539958953857422 -4.600986480712891 1.1301076412200928
-6.478613376617432 1.0495381355285645 1.1061733961105347
-10.39560317993164 -5.618770599365234 2.186293125152588
-7.894268035888672 -2.029400110244751 0.7625980377197266
-13.504364967346191 5.56968355178833 3.9557275772094727
-20.26850128173828 -7.313898086547852 7.805699348449707
-4.629700183868408 1.375511646270752 -1.095511794090271
-14.112613677978516 -8.016429901123047 4.301922798156738
-4.557293891906738 -2.3192524909973145 -1.136724591255188
-14.057611465454102 -6.431624412536621 4.270616054534912
-7.278552532196045 1.2937562465667725 0.41214868426322937
-3.7371902465820312 -1.4371178150177002 -1.6035069227218628
-6.2618632316589355 -3.684692859649658 -0.1665271520614624
-15.23707389831543 -7.2860002517700195 5.460680961608887
-5.390099048614502 2.212399482727051 -0.6627103090286255
-4.612456798553467 -1.8908607959747314 -1.1053276062011719
-11.299674987792969 -2.178020715713501 4.119889259338379
-13.237934112548828 7.569780349731445 4.86318826675415
-14.880099296569824 9.177227973937988 4.738762378692627
-10.67005729675293 -1.9829727411270142 4.510454177856445
-3.447155475616455 0.058966994285583496 -1.7685867547988892
-8.446776390075684 -4.30979061126709 1.077071189880371
-5.8415327072143555 2.4775390625 -0.4057662785053253
-11.65363883972168 4.9882588386535645 2.9023401737213135
-13.458812713623047 7.507083892822266 4.405909538269043
-4.463055610656738 -2.105295181274414 -1.1903626918792725
-7.816244125366211 -4.1076226234436035 0.7181870937347412
-21.831256866455078 -5.077883720397949 8.695181846618652
-6.3673858642578125 0.34417691826820374 1.3375022411346436
-16.645156860351562 -3.6079328060150146 5.743382930755615
-9.544013977050781 -6.21834135055542 1.7015902996063232
-8.617530822753906 5.410589218139648 1.1742627620697021
-6.457403659820557 0.08205199241638184 -0.05522904545068741
-14.005078315734863 -4.986983299255371 4.240716457366943
-9.052762031555176 -4.729249477386475 1.4219820499420166
-14.405342102050781 -3.0078582763671875 4.4685378074646
-16.801742553710938 10.2425537109375 5.832513809204102
-12.764534950256348 7.816604137420654 3.534635543823242
-9.476897239685059 1.581978440284729 1.6633919477462769
-14.667485237121582 -6.75900936126709 5.425941467285156
-7.764151096343994 3.8484177589416504 0.6885402202606201
-16.363780975341797 -4.946439266204834 5.583230972290039
-5.311857223510742 3.6816718578338623 -0.7072439789772034
-8.6133451461792 -5.410687446594238 1.1718767881393433
-9.08572769165039 3.6932120323181152 1.4407480955123901
-18.000118255615234 10.861363410949707 6.514599323272705
-6.906347751617432 -0.26628074049949646 0.20029908418655396
-14.300126075744629 3.576557159423828 4.408654689788818
-17.997806549072266 -4.7969183921813965 6.513278484344482
-9.053169250488281 -4.078916072845459 1.422214388847351
-11.467630386352539 6.716456890106201 2.7964694499969482
-4.277291297912598 -2.266047954559326 -1.2960946559906006
-7.156795024871826 -2.2074615955352783 0.3428467810153961
-8.300464630126953 -1.1798523664474487 2.4403510093688965
-13.421178817749023 -5.628792762756348 3.9083755016326904
-6.456051826477051 0.7384277582168579 0.9606050848960876
-8.865077018737793 5.724547863006592 1.3151609897613525
-15.210477828979492 -6.310029029846191 5.982578754425049
-9.893424034118652 -1.7033790349960327 3.1204562187194824
-11.408674240112305 -3.833458423614502 2.762908935546875
-5.094286918640137 2.0813260078430176 -0.8310805559158325
-8.871723175048828 3.1898205280303955 1.3189425468444824
-11.364202499389648 6.609610557556152 2.737600326538086
-5.599412441253662 -0.10663475841283798 2.9386696815490723
-13.981843948364258 -3.638610363006592 4.227493762969971
-11.514751434326172 -6.77134370803833 2.823284149169922
-3.9455223083496094 0.9810963273048401 -1.4849292039871216
-7.212562561035156 -4.576172828674316 0.37458691000938416
-18.568300247192383 -10.460136413574219 6.837984561920166
-6.159356594085693 -1.8563367128372192 -0.22487075626850128
-10.255338668823242 4.354187965393066 4.184450149536133
-9.584339141845703 1.7817168235778809 1.7245452404022217
-10.125441551208496 -2.986610174179077 2.032524824142456
-10.663969993591309 2.506120443344116 2.3390443325042725
-6.528369426727295 -0.366249680519104 -0.014836996793746948
-9.666921615600586 -2.4046809673309326 1.7715476751327515
-10.563909530639648 -5.014080047607422 2.2820897102355957
-5.463506698608398 2.9702699184417725 -0.6209291219711304
-5.218728542327881 0.4587826132774353 -0.7602521181106567
-12.210909843444824 -3.2828710079193115 3.2195210456848145
-5.515232563018799 0.9003872871398926 -0.591489315032959
-6.307896614074707 0.1731102615594864 0.8976362347602844
-9.836210250854492 -0.6693584322929382 3.3144593238830566
-11.440320014953613 -1.1967741250991821 5.2977294921875
-9.586756706237793 4.671632289886475 1.7259224653244019
-1.5461676120758057 -0.05375022441148758 -1.019118070602417
-11.531768798828125 3.1720471382141113 2.8329737186431885
-13.423892974853516 7.208088397979736 4.965704917907715
-8.318406105041504 2.3416452407836914 1.004007339477539
-8.203217506408691 -1.6973122358322144 0.938443660736084
-11.670198440551758 -6.93035888671875 2.9117605686187744
-10.838105201721191 -0.8986720442771912 3.884713888168335
-7.333130836486816 -1.858291506767273 0.4432126581668854
-5.676124572753906 3.825856924057007 -0.49991196393966675
-9.148370742797852 5.682624340057373 1.4764044284820557
-9.759639739990234 4.224789142608643 5.414973258972168
-9.75574016571045 -0.08139000087976456 1.8221027851104736
-20.47213363647461 6.914307594299316 7.921606540679932
-7.440736293792725 1.8608403205871582 0.5044600367546082
-11.39189338684082 5.125457763671875 2.753361701965332
-7.998935222625732 -2.32950758934021 0.8221715688705444
-9.126991271972656 0.12585221230983734 2.9107906818389893
-7.2767252922058105 0.9395294189453125 0.41110849380493164
-11.809001922607422 4.815800189971924 2.9907689094543457
-16.982402801513672 -10.21656608581543 5.935333251953125
-11.885634422302246 -4.324373245239258 3.0343828201293945
-4.5146894454956055 2.0378918647766113 -1.1609721183776855
-4.762237548828125 2.524137020111084 -1.0200743675231934
-6.494638442993164 0.4552883505821228 0.7612468004226685
-8.929529190063477 -5.760425090789795 1.351839542388916
-7.6483073234558105 -3.39565372467041 0.6226022839546204
-7.695970058441162 0.7350730299949646 0.6497326493263245
-15.724352836608887 9.669145584106445 5.219291687011719
-9.9830904006958 6.577385425567627 1.9515061378479004
-8.996427536010742 -0.1711685210466385 1.3899189233779907
-14.148584365844727 5.072613716125488 4.3224005699157715
-5.427034378051758 3.7689387798309326 -0.6416891813278198
-15.226594924926758 -9.397531509399414 4.935972690582275
-3.0933828353881836 0.11207771301269531 -1.969944953918457
-5.376175403594971 3.3268775939941406 -0.6706358194351196
-11.232738494873047 -2.2265870571136475 5.073558330535889
-13.054838180541992 -8.028878211975098 3.6998631954193115
-7.107663154602051 -3.6795425415039062 0.31488117575645447
-14.98328971862793 -6.614979267120361 4.797489643096924
-6.377718448638916 -3.329373359680176 -0.10058493912220001
-4.3403449058532715 -1.5385315418243408 -1.260206699371338
-9.18443775177002 3.948225498199463 1.4969332218170166
-11.007909774780273 3.1710262298583984 2.534806251525879
-11.847284317016602 7.723738193511963 3.012559175491333
-5.469949722290039 3.2955195903778076 -0.6172624826431274
-12.150720596313477 7.23839807510376 3.185267686843872
-11.106977462768555 6.3414740562438965 2.591193914413452
-11.411126136779785 -6.664383888244629 2.76430344581604
-4.811843395233154 1.1678420305252075 -0.9918410181999207
-3.008617877960205 -0.24402332305908203 -2.018191337585449
-13.153831481933594 3.123983383178711 3.756211757659912
-9.423066139221191 -0.19820794463157654 1.63275146484375
-12.364335060119629 -2.482760190963745 4.044382095336914
-4.510611534118652 1.0711688995361328 -1.163292646408081
-4.142428874969482 2.433168888092041 -1.3728549480438232
-9.760239601135254 0.6676120162010193 1.824662685394287
-16.731914520263672 4.0952019691467285 5.792766571044922
-17.133901596069336 3.3131179809570312 6.021568775177002
-9.433274269104004 -2.2551543712615967 1.6385624408721924
-6.134623050689697 1.6512293815612793 -0.2389470636844635
-6.260286331176758 0.4032980501651764 2.117528200149536
-4.751688480377197 -1.3317922353744507 -1.0260802507400513
-13.7428560256958 -4.08987283706665 4.091467380523682
-13.677023887634277 7.861778259277344 4.054001808166504
-6.1015706062316895 -0.0019163787364959717 -0.2577598989009857
-4.551703453063965 -0.5589591860771179 -1.1399071216583252
-18.832117080688477 2.694963216781616 6.9881486892700195
-11.890087127685547 -7.054486274719238 3.0369157791137695
-8.141226768493652 -0.5535860061645508 2.349717140197754
-7.7738142013549805 2.277641773223877 0.6940410733222961
-5.923627853393555 1.382504940032959 -0.35904058814048767
-4.177330017089844 -0.6988958120346069 -1.3529895544052124
-14.397314071655273 -7.672603130340576 4.463966369628906
-8.457023620605469 4.916377544403076 1.082906723022461
-11.82365894317627 4.581348896026611 2.9991116523742676
-10.548018455505371 2.4194998741149902 2.273047924041748
-7.27885103225708 -0.2639780044555664 0.4123181700706482
-8.963126182556152 -0.4576592445373535 2.8175220489501953
-6.192677021026611 1.3924001455307007 -0.20590421557426453
-10.04741382598877 -3.9247987270355225 1.9881134033203125
-10.741044044494629 6.911258697509766 2.3829140663146973
-17.69369125366211 10.492382049560547 6.3401875495910645
-6.5129828453063965 0.9513026475906372 1.428871512413025
-9.241414070129395 -4.297566890716553 1.529358983039856
-11.880243301391602 -2.24973464012146 3.0313143730163574
-10.034022331237793 4.20802640914917 1.9804948568344116
-10.161155700683594 -4.751184940338135 2.0528526306152344
-10.013111114501953 -2.402270555496216 1.9685899019241333
-10.874951362609863 4.105614185333252 2.4591293334960938
-10.551238059997559 -5.8484063148498535 2.274876594543457
-10.785097122192383 -4.732532024383545 2.4079835414886475
-11.001935958862305 -6.236515522003174 2.531402826309204
-7.670242786407471 -4.893261909484863 0.6350877285003662
-11.205379486083984 -6.450409412384033 2.64719820022583
-8.479158401489258 -0.7695741653442383 1.0955028533935547
-7.550508499145508 0.9727348685264587 0.5669392943382263
-7.724668025970459 -4.6498942375183105 0.6660643219947815
-7.25925874710083 4.669849395751953 0.40116849541664124
-6.6756086349487305 1.1233431100845337 0.8253076672554016
-3.1692895889282227 -0.5973541736602783 -1.9267412424087524
-16.790271759033203 -5.533351421356201 6.157362937927246
-11.435301780700684 3.4311890602111816 2.7780673503875732
-9.991833686828613 -5.847648620605469 1.9564779996871948
-8.495833396911621 -3.557718276977539 1.1049926280975342
-8.381148338317871 -1.6678738594055176 1.0397173166275024
-8.005121231079102 2.376849889755249 0.8256937861442566
-14.808563232421875 -5.628203392028809 4.698040962219238
-6.351843357086182 0.0401323139667511 -0.11531105637550354
-6.682271480560303 -3.7505300045013428 0.072758749127388
-3.9155423641204834 -1.3059442043304443 -1.5019917488098145
-11.56607723236084 -6.824093341827393 2.8524978160858154
-7.238470077514648 3.6802310943603516 0.38933539390563965
-10.296878814697266 -0.23061101138591766 2.1301043033599854
-10.904682159423828 6.127682209014893 2.476052761077881
-15.080458641052246 -5.112375259399414 4.852797508239746
-4.669559955596924 -1.1984179019927979 -1.0728259086608887
-10.088641166687012 -4.3818511962890625 2.0115790367126465
-11.347186088562012 -7.530206203460693 2.727909803390503
-7.008260250091553 0.18315082788467407 1.3594324588775635
-4.41426944732666 1.1351982355117798 -1.218131184577942
-13.624353408813477 7.069134712219238 5.079802989959717
-11.623470306396484 6.876565933227539 2.8851702213287354
-5.848692893981934 -2.5206613540649414 -0.40169286727905273
-9.395798683166504 0.03952113911509514 3.063789129257202
-16.299245834350586 -9.101876258850098 5.546498775482178
-7.284989833831787 -0.3949226438999176 0.4158117175102234
-9.925738334655762 3.486253499984741 1.918861746788025
-7.130527973175049 -3.3832309246063232 0.32789450883865356
-11.640804290771484 6.4815850257873535 2.8950350284576416
-7.6381001472473145 1.44378662109375 3.0307071208953857
-11.056306838989258 6.2880072593688965 2.562354326248169
-11.453317642211914 5.816128730773926 2.7883222103118896
-6.40209436416626 -1.9285179376602173 -0.0867098942399025
-7.290337562561035 2.3419344425201416 0.4188570976257324
-12.57819652557373 -6.447118759155273 3.4285717010498047
-11.103372573852539 -6.34352970123291 2.5891377925872803
-4.5318098068237305 1.7456821203231812 -1.1512291431427002
-7.555974960327148 1.3899167776107788 3.144191026687622
-6.2564520835876465 -2.852548837661743 -0.16960762441158295
-7.291993618011475 -0.6214269399642944 0.41979852318763733
-8.456255912780762 -1.238308072090149 2.2077159881591797
-12.618321418762207 -3.3652586936950684 3.4514100551605225
-9.757617950439453 0.09009280800819397 1.8231711387634277
-7.264109134674072 0.5386689305305481 0.40392759442329407
-8.00954532623291 -4.617606163024902 0.8282098174095154
-11.970947265625 4.750270366668701 3.082944631576538
-10.58520221710205 5.6273040771484375 2.2942140102386475
-7.582475662231445 2.460916519165039 0.5851338505744934
-8.2449312210083 -0.8806923031806946 1.1674083471298218
-6.332718372344971 0.23464500904083252 1.335776448249817
-4.179166793823242 -1.1019209623336792 -1.3519467115402222
-11.67645263671875 -1.2655813694000244 4.843513011932373
-12.279961585998535 -2.4016666412353516 3.2588233947753906
-5.918593883514404 -3.327746868133545 -0.3619072735309601
-7.279387950897217 1.9492806196212769 1.7996046543121338
-9.968973159790039 -5.753270149230957 1.9434670209884644
-3.584167003631592 -1.8722442388534546 -1.690605878829956
-6.766780853271484 1.4342515468597412 0.12086103856563568
-11.819379806518555 -0.7419556379318237 4.891827583312988
-9.994296073913574 -4.520999908447266 1.957879662513733
-8.871548652648926 1.0508019924163818 2.76539945602417
-3.4850287437438965 1.3788352012634277 -1.747029185295105
-18.829193115234375 -5.102019786834717 6.986480712890625
-7.333414554595947 1.9582632780075073 0.4433742165565491
-11.446744918823242 -4.103487014770508 2.7845773696899414
-9.87474250793457 -1.9083701372146606 1.8898344039916992
-13.864978790283203 -4.083840847015381 4.160975456237793
-6.382903099060059 -1.197526454925537 1.587215781211853
-16.777202606201172 2.0668182373046875 5.818544387817383
-6.145156383514404 2.7058537006378174 -0.2329506278038025
-12.024925231933594 -2.0714471340179443 3.113664150238037
-14.77894401550293 -6.703094482421875 5.310404300689697
-4.913411617279053 -2.2742700576782227 -0.934032142162323
-16.048227310180664 6.318328857421875 5.403629302978516
-7.429111003875732 1.3067444562911987 0.4978422522544861
-5.345280647277832 0.2339407205581665 3.764228343963623
-10.75901985168457 4.168181419372559 4.069584369659424
-7.030580520629883 -1.1613837480545044 0.27100858092308044
-8.2477445602417 -1.587369680404663 0.9637884497642517
-4.183855056762695 0.4736575484275818 -1.3492765426635742
-7.72284460067749 -3.9414408206939697 0.6650264263153076
-7.140679359436035 0.12551414966583252 0.33367466926574707
-6.1623406410217285 -0.35499444603919983 1.5417377948760986
-5.179171085357666 2.6059844493865967 -0.7827651500701904
-6.231168270111084 -0.472133606672287 1.7459360361099243
-11.304974555969238 -3.728914976119995 2.703885793685913
-5.553217887878418 -1.4714758396148682 -0.569870114326477
-8.144596099853516 -4.846681118011475 0.9050775766372681
-18.662431716918945 4.239315986633301 6.891570568084717
-3.5073556900024414 0.12977349758148193 -1.7343233823776245
-11.773760795593262 -7.035569190979004 2.970705509185791
-6.285486698150635 2.7394015789031982 -0.1530798226594925
-5.490406036376953 0.10973452776670456 3.7780182361602783
-11.224590301513672 -1.186287760734558 5.682745933532715
-12.629860877990723 -3.7322661876678467 3.457977294921875
-8.527290344238281 -3.686377763748169 1.122896671295166
-17.348196029663086 -9.723015785217285 6.143535614013672
-9.028826713562012 -2.9714953899383545 1.408360242843628
-5.5432281494140625 -0.17120060324668884 -0.5755559206008911
-7.6097893714904785 3.042311906814575 0.600681483745575
-19.758460998535156 -11.313943862915039 7.515396595001221
-10.95511245727539 6.1809539794921875 2.504756212234497
-9.128707885742188 5.995754241943359 1.4652132987976074
-9.437908172607422 3.642162561416626 1.641200065612793
-14.434648513793945 -6.853769302368164 4.48521614074707
-15.882659912109375 -3.907033920288086 5.309389591217041
-20.134662628173828 -5.5456318855285645 7.729522705078125
-14.789417266845703 4.557732105255127 4.787594318389893
-5.539397239685059 -0.1825992465019226 3.038656711578369
-19.9898624420166 -5.030379772186279 7.647104263305664
-14.108423233032227 2.825542688369751 4.299541473388672
-7.515934944152832 2.878326416015625 0.5472612977027893
-8.269350051879883 -0.2457183450460434 2.4226415157318115
-10.919878005981445 3.8635005950927734 2.48470139503479
-11.919458389282227 -0.9378727674484253 4.603963851928711
-8.49228286743164 0.675217866897583 2.549530267715454
-6.589784622192383 1.421753168106079 0.020119348540902138
-3.412240982055664 -0.7446749210357666 -1.7884602546691895
-4.695528030395508 -1.5629956722259521 -1.0580463409423828
-5.615025997161865 0.2228725254535675 2.2297773361206055
-6.889472484588623 -1.56752610206604 0.1906937211751938
-5.906129360198975 -0.3540957272052765 2.825307607650757
-5.287937641143799 -1.1621451377868652 -0.7208613753318787
-8.604272842407227 -3.5451955795288086 1.1667134761810303
-6.610165596008301 2.189303159713745 0.031720682978630066
-10.748478889465332 -2.7639400959014893 2.3871426582336426
-8.222627639770508 -4.976074695587158 0.9494892358779907
-8.095141410827637 -3.0216588973999023 0.8769288659095764
-8.057043075561523 -5.198383331298828 0.8552432656288147
-6.493071556091309 0.23990517854690552 -0.03492745757102966
-13.371281623840332 4.328088283538818 4.045670986175537
-9.774962425231934 -1.4734383821487427 1.8330413103103638
-11.87578010559082 -4.138140678405762 3.028773546218872
-5.982436656951904 -0.013051331043243408 -0.3255681097507477
-13.052472114562988 -6.371756553649902 3.6985158920288086
-10.505494117736816 -5.4935407638549805 2.248840093612671
-10.84817886352539 -3.815352439880371 2.44388747215271
-9.144940376281738 6.279506683349609 1.474453091621399
-6.596964359283447 3.561757802963257 0.024206748232245445
-8.568497657775879 2.5677387714385986 1.1463541984558105
-7.322579383850098 -3.564028263092041 0.4372060298919678
-7.0976033210754395 4.602900505065918 0.3091592788696289
-5.286592960357666 3.305483818054199 -0.7216241955757141
-14.567058563232422 4.494496822357178 5.170413494110107
-3.3522942066192627 -1.1363848447799683 -1.8225798606872559
-13.18954086303711 5.825809001922607 3.7765376567840576
-17.08018684387207 -10.38940715789795 5.990988254547119
-4.395176887512207 2.4101791381835938 -1.2289963960647583
-7.868654727935791 -1.9362223148345947 0.7480196356773376
-6.403501987457275 -1.3113051652908325 1.4563847780227661
-6.3060736656188965 3.5379350185394287 -0.141361266374588
-12.090725898742676 6.288668632507324 3.151120185852051
-12.474604606628418 -2.9222166538238525 3.369609832763672
-13.71048355102539 7.601720333099365 4.122979164123535
-15.026603698730469 -4.521636486053467 4.8221435546875
-11.150897026062012 5.778349876403809 2.616192102432251
-4.909287452697754 2.345608949661255 -0.9363781809806824
-8.022809028625488 2.8334639072418213 0.8357613682746887
-9.263672828674316 -1.3458106517791748 1.8504585027694702
-12.08935260772705 7.345530033111572 3.150338888168335
-12.639416694641113 5.92315673828125 3.4634206295013428
-7.353320598602295 1.1650460958480835 0.4547047019004822
-10.396227836608887 -2.6958117485046387 2.186650276184082
-9.416391372680664 -1.730100393295288 1.6289515495300293
-8.497305870056152 2.4344773292541504 1.1058331727981567
-13.141453742980957 4.550636291503906 3.914858341217041
-5.6144022941589355 1.7366598844528198 -0.5350432991981506
-6.641478061676025 4.574295520782471 0.049543581902980804
-6.653541564941406 1.2024372816085815 0.056408658623695374
-11.322961807250977 -3.8835620880126953 2.7141239643096924
-6.42525053024292 -0.4577496647834778 -0.07352934777736664
-15.46748161315918 -8.4994535446167 5.0730791091918945
-9.149053573608398 -0.6731492280960083 1.476791501045227
-4.0075507164001465 2.1515324115753174 -1.4496246576309204
-9.77480697631836 4.276604175567627 1.8329554796218872
-10.253373146057129 2.006800413131714 2.1053426265716553
-6.957900047302246 -3.9700043201446533 0.22963939607143402
-10.077254295349121 -4.538205146789551 2.0050978660583496
-9.701802253723145 -0.6486448645591736 3.237957715988159
-9.881946563720703 2.412613868713379 1.8939365148544312
-11.761984825134277 -1.669999122619629 4.410562515258789
-5.5622124671936035 1.1512718200683594 -0.5647485256195068
-13.541853904724121 5.085464954376221 3.977064609527588
-10.321881294250488 -5.101391315460205 2.144333839416504
-6.375638008117676 0.015912353992462158 0.5572367310523987
-7.826079368591309 -2.4327585697174072 0.7237859964370728
-5.000762462615967 0.3801349997520447 -0.884313702583313
-8.738046646118164 -5.0108113288879395 1.2428538799285889
-7.299120903015137 -0.48800599575042725 0.42385533452033997
-3.881495952606201 2.1787288188934326 -1.5213711261749268
-6.002162933349609 -1.28105628490448 -0.31434136629104614
-16.72716522216797 -6.2025065422058105 5.790059566497803
-7.508963584899902 -4.9116692543029785 0.5432900786399841
-6.452267169952393 -3.3264148235321045 -0.058154866099357605
-6.209101676940918 -0.31986352801322937 0.7488568425178528
-9.970938682556152 2.5523128509521484 1.9445886611938477
-5.489974021911621 -2.048905372619629 -0.6058659553527832
-5.393439769744873 0.03341782093048096 -0.6608111262321472
-6.7861785888671875 0.6122168898582458 0.13190270960330963
-6.280707359313965 -3.312002420425415 -0.15580128133296967
-10.847430229187012 -3.5616302490234375 2.4434638023376465
-8.48147201538086 -4.461940765380859 1.0968183279037476
-13.985440254211426 -5.422348976135254 4.22953987121582
-13.163351058959961 -8.128264427185059 3.7616260051727295
-9.52566146850586 -6.506983757019043 1.691144347190857
-20.432161331176758 -6.812724590301514 7.898850917816162
-7.4984331130981445 1.0639814138412476 0.5372986793518066
-6.82923698425293 -1.7261601686477661 0.15640805661678314
-3.9024577140808105 2.0496177673339844 -1.509440541267395
-9.206347465515137 3.19698429107666 1.5094016790390015
-3.9941647052764893 -0.8369712233543396 -1.4572433233261108
-5.419888496398926 -0.19864341616630554 -0.6457570195198059
-10.13322925567627 -1.8440779447555542 2.036958694458008
-7.058967113494873 -1.6224251985549927 0.37451931834220886
-10.745074272155762 -1.5694514513015747 3.831761598587036
-11.756635665893555 6.9334821701049805 2.9609646797180176
-4.355936527252197 -2.4529426097869873 -1.251332402229309
-9.745979309082031 2.819852352142334 1.8165462017059326
-16.301963806152344 2.447981595993042 5.548049449920654
-6.5890936851501465 -3.122392177581787 0.019725391641259193
-9.34500503540039 -0.19575004279613495 1.5883209705352783
-4.243211269378662 -1.4400464296340942 -1.3154906034469604
-9.56609058380127 -2.074204444885254 1.7141562700271606
-19.25088119506836 -11.482206344604492 7.226495265960693
-6.52261209487915 1.0725609064102173 -0.018113596364855766
-14.993246078491211 9.26761245727539 4.803162574768066
-3.5950002670288086 1.781524896621704 -1.6844373941421509
-9.512371063232422 0.8226904273033142 3.130138635635376
-3.3203318119049072 -1.450134515762329 -1.8407728672027588
-19.917789459228516 -10.54281234741211 7.606082439422607
-6.568180561065674 -0.9188894629478455 1.402085542678833
-5.025598526000977 -2.1299290657043457 -0.8701773285865784
-13.620494842529297 7.425209999084473 5.077606678009033
-11.736093521118164 -1.162729263305664 4.39582633972168
-14.963855743408203 -6.314824104309082 5.543058395385742
-17.33629035949707 -9.255162239074707 6.136758327484131
-18.59027099609375 2.543576717376709 6.850496292114258
-10.461868286132812 5.292235374450684 2.2240138053894043
-9.414143562316895 -0.5391888618469238 3.0742294788360596
-11.669840812683105 -6.229020118713379 2.911557674407959
-4.755909442901611 1.6915395259857178 -1.0236766338348389
-6.766890525817871 -1.526474118232727 0.7251828908920288
-6.594226360321045 0.3264337480068207 1.062835454940796
-12.32371997833252 -5.423336982727051 3.2837300300598145
-9.541333198547363 -0.5570014119148254 3.1466221809387207
-7.046926021575928 -4.411962985992432 0.2803111970424652
-3.897557497024536 -0.7707473039627075 -1.5122300386428833
-14.955118179321289 -6.626573085784912 5.110763072967529
-14.19704532623291 -8.79362678527832 4.349978446960449
-12.709379196166992 -5.539122581481934 3.503236770629883
-14.666045188903809 6.78287935256958 4.616926670074463
-6.5403242111206055 -0.6763381958007812 -0.008033058606088161
-10.602653503417969 2.548800230026245 2.3041443824768066
-11.274073600769043 6.754344940185547 2.6863009929656982
-6.747308254241943 1.6959338188171387 0.10977771133184433
-16.65446662902832 10.231475830078125 5.748686790466309
-9.859390258789062 -3.527648448944092 1.8810948133468628
-4.541179656982422 -1.286821961402893 -1.1458957195281982
-6.4766998291015625 1.8728322982788086 -0.04424583539366722
-16.74547004699707 -5.430271148681641 5.800479412078857
-7.142126560211182 0.9919412136077881 0.3344988226890564
-8.062285423278809 -4.927036762237549 0.8582273125648499
-7.083651065826416 -2.8326849937438965 0.3012136220932007
-9.98360824584961 -4.281248092651367 1.9517964124679565
-8.019775390625 4.693140029907227 0.834035336971283
-13.189423561096191 3.804436683654785 3.942162036895752
-6.716076374053955 -1.6934431791305542 0.0920000821352005
-7.251709938049316 2.281585454940796 2.0266170501708984
-8.701982498168945 -2.1609394550323486 1.2223289012908936
-10.86656379699707 -0.6867119669914246 3.900911569595337
-10.443727493286133 4.611457824707031 3.6588492393493652
-9.857743263244629 3.5229852199554443 1.8801604509353638
-9.779077529907227 3.1323776245117188 1.8353867530822754
-7.743431568145752 -1.3582695722579956 0.6767458915710449
-8.070094108581543 -0.6167096495628357 0.8626728057861328
-6.396317481994629 -0.2857567369937897 1.8399345874786377
-5.933412551879883 -1.7787548303604126 -0.35347291827201843
-12.872720718383789 7.91780424118042 3.596212148666382
-14.028079986572266 7.912483215332031 4.253814220428467
-13.762568473815918 2.533601999282837 4.102689743041992
-6.692309856414795 3.0014681816101074 0.07847513258457184
-5.787987232208252 2.0627176761627197 -0.4362442195415497
-11.986401557922363 7.243217468261719 3.0917410850524902
-5.727281093597412 2.2583463191986084 -0.47079548239707947
-7.347194671630859 0.8047782182693481 1.4320074319839478
-4.4243855476379395 -0.8929967880249023 -1.2123725414276123
-5.9416913986206055 -3.4824864864349365 -0.34876182675361633
-12.992013931274414 7.235422611236572 4.628353118896484
-5.802377223968506 -0.36769822239875793 2.7973477840423584
-8.700658798217773 -2.6933035850524902 1.221575140953064
-5.6827311515808105 0.6459585428237915 -0.4961531162261963
-9.931719779968262 -3.223562240600586 1.9222633838653564
-9.139991760253906 0.11518195271492004 1.4716336727142334
-5.772766590118408 3.6570112705230713 -0.44490721821784973
-14.12509822845459 6.6043596267700195 4.309033393859863
-11.111282348632812 3.4410037994384766 2.593644142150879
-11.820225715637207 -1.393368124961853 4.517845630645752
-7.7069830894470215 2.5103986263275146 0.6559999585151672
-6.359267234802246 0.4722403883934021 -0.11108491569757462
-3.3835628032684326 0.0895470380783081 -1.8047826290130615
-6.277835845947266 -2.4264447689056396 -0.1574353128671646
-4.500046730041504 1.6054043769836426 -1.1693068742752075
-6.799300670623779 1.8071215152740479 0.8480068445205688
-8.116896629333496 -2.384162187576294 0.8893122673034668
-5.556861877441406 2.145552158355713 -0.5677937865257263
-7.598837375640869 -2.8400301933288574 0.5944448113441467
-6.757300853729248 -3.971146583557129 0.11546216160058975
-11.547298431396484 -4.209493637084961 2.8418097496032715
-3.4701290130615234 -1.5749238729476929 -1.755511999130249
-8.537376403808594 5.869991779327393 1.128641963005066
-6.509488105773926 -2.521204948425293 -0.02558480016887188
-5.5362043380737305 -2.192721128463745 -0.5795530676841736
-13.566855430603027 -8.416398048400879 3.991290330886841
-11.950875282287598 -2.4273078441619873 3.071516513824463
-12.665484428405762 5.099966526031494 3.4782567024230957
-13.264333724975586 -5.254133224487305 3.819103479385376
-7.231019020080566 4.217005729675293 0.3850953280925751
-4.146625995635986 -1.8961981534957886 -1.3704661130905151
-9.26939868927002 -6.287896156311035 1.545285701751709
-4.780396938323975 2.115985631942749 -1.0097393989562988
-13.438525199890137 -8.059045791625977 3.9182469844818115
-9.09031867980957 0.022845905274152756 2.8899173736572266
-14.243636131286621 -5.087902545928955 4.376497745513916
-8.845063209533691 2.11649227142334 1.3037681579589844
-9.434223175048828 6.3416876792907715 1.6391050815582275
-10.484818458557129 5.521004676818848 2.237077474594116
-7.342343330383301 0.6153921484947205 0.4484567642211914
-6.418911457061768 -1.0505616664886475 1.6027896404266357
-10.899643898010254 3.074634075164795 2.473184823989868
-6.854508399963379 2.9375622272491455 0.17079482972621918
-6.929028034210205 0.5950016975402832 0.21320854127407074
-7.044528007507324 3.7831013202667236 0.2789499759674072
-14.485180854797363 -7.792945861816406 4.513978004455566
-10.257526397705078 5.0807294845581055 2.107707977294922
-13.763041496276855 3.049175500869751 4.1029582023620605
-4.535244941711426 2.8712735176086426 -1.149273157119751
-13.156004905700684 -5.968935966491699 3.7574448585510254
-6.339921474456787 -3.5761542320251465 -0.12209873646497726
-10.078733444213867 -1.5975772142410278 2.0059406757354736
-19.604248046875 11.076645851135254 7.427630424499512
-5.931894302368164 -0.224977046251297 -0.35433655977249146
-6.367775917053223 0.026784438639879227 1.504470944404602
-13.17391586303711 5.2345499992370605 3.767643690109253
-12.321455001831055 -4.43696928024292 3.282440662384033
-6.460575580596924 -1.4021387100219727 -0.05342315882444382
-18.476987838745117 6.681282043457031 6.786020755767822
-15.445656776428223 3.64351487159729 5.060661792755127
-6.138002395629883 0.32232317328453064 2.180802583694458
-4.684664726257324 -1.7437007427215576 -1.0642293691635132
-6.782483100891113 -1.4846497774124146 0.12979790568351746
-9.429959297180176 -5.052486896514893 1.6366734504699707
-10.152753829956055 4.785749435424805 2.0480735301971436
-5.540987491607666 -1.7504698038101196 -0.5768315196037292
-12.499258995056152 -3.308983564376831 3.383643388748169
-12.867170333862305 -8.248848915100098 3.593047857284546
-3.384246826171875 1.2585234642028809 -1.8043911457061768
-6.891073703765869 1.9249306917190552 0.19160594046115875
-13.320085525512695 7.388001918792725 3.8508410453796387
-9.197022438049316 -5.472740650177002 1.5040909051895142
-7.998812198638916 1.4106944799423218 2.378037452697754
-3.7176554203033447 0.21500980854034424 -1.6146270036697388
-6.22033166885376 2.703773260116577 -0.19016452133655548
-4.598471164703369 1.5231144428253174 -1.1132854223251343
-14.946432113647461 -3.308892250061035 4.776512145996094
-8.515192031860352 0.231157585978508 1.1160125732421875
-7.4193525314331055 -2.560483932495117 0.492286741733551
-4.12882661819458 -2.1861937046051025 -1.3805986642837524
-7.832046985626221 -1.4447981119155884 0.7271836996078491
-10.172395706176758 -2.0363378524780273 5.354299068450928
-3.867449998855591 -0.5552409291267395 -1.5293678045272827
-7.603114128112793 -3.0087502002716064 0.5968796610832214
-13.522448539733887 7.317051410675049 5.0221099853515625
-9.493362426757812 6.208023548126221 1.6727644205093384
-19.274490356445312 11.492634773254395 7.239940166473389
-3.9390392303466797 1.7686220407485962 -1.4886187314987183
-6.1652727127075195 0.7128013372421265 -0.22150330245494843
-6.852657318115234 0.9525914788246155 1.2444684505462646
-8.556910514831543 -2.2944185733795166 1.1397579908370972
