-5.847890377044678 -0.561131477355957 0.2559832036495209
-7.121659755706787 -0.8041086196899414 0.9809811115264893
-19.117921829223633 -1.067185401916504 13.142136573791504
-10.200973510742188 5.3990864753723145 2.7336511611938477
-7.995151996612549 3.0177674293518066 2.8349997997283936
-9.215794563293457 0.18113553524017334 3.82351016998291
-11.064759254455566 -4.920794486999512 3.2252917289733887
-8.181949615478516 -5.4554443359375 1.8778810501098633
-3.96983003616333 -1.9085884094238281 -0.8129624128341675
-20.444284439086914 6.416649341583252 9.629497528076172
-15.110958099365234 -7.053097248077393 5.528285980224609
-19.005901336669922 0.7181752920150757 13.29532527923584
-10.235406875610352 -3.8032608032226562 2.753246545791626
-11.008152961730957 1.7039541006088257 3.1930766105651855
-13.258500099182129 -3.3724026679992676 4.473916530609131
-10.853805541992188 -6.138036251068115 3.10522198677063
-9.800747871398926 0.5033442378044128 2.5058512687683105
-5.807374954223633 -0.7477538585662842 0.23292215168476105
-12.604302406311035 3.6614108085632324 7.429584980010986
-19.129629135131836 -1.2605266571044922 12.988601684570312
-13.084939002990723 3.330202102661133 7.276801109313965
-20.554302215576172 -5.973130702972412 12.600234031677246
-10.6737699508667 -3.9911844730377197 3.002751350402832
-8.186840057373047 3.0925686359405518 2.4251890182495117
-9.75177001953125 -0.827106773853302 3.8630123138427734
-8.218578338623047 0.9363886117935181 1.605319857597351
-9.881622314453125 -0.2653176188468933 2.5518829822540283
-9.4005126953125 0.23844516277313232 3.419262409210205
-12.620535850524902 -3.7072463035583496 4.1108012199401855
-3.6618223190307617 2.388204574584961 -0.9882711172103882
-6.207787036895752 0.8207976818084717 0.4608282744884491
-9.742632865905762 -4.648877143859863 2.472771406173706
-7.822617530822754 -4.048453330993652 1.3799468278884888
-9.830110549926758 3.025451898574829 3.969121217727661
-9.4435396194458 -0.31772956252098083 3.897057056427002
-12.626665115356445 4.610708713531494 4.114294528961182
-15.349806785583496 -5.017978668212891 5.664233684539795
-10.458020210266113 -2.8276660442352295 2.8799524307250977
-5.641706466674805 -0.7289254665374756 0.13862818479537964
-5.130438327789307 -0.07459497451782227 -0.1523728221654892
-9.224905014038086 1.2375837564468384 2.1780951023101807
-3.3256635665893555 0.4867030382156372 -1.1796048879623413
-8.263134002685547 3.008513927459717 2.39910888671875
-9.722763061523438 -1.2803713083267212 4.703219890594482
-5.571127414703369 0.9846463203430176 0.09845658391714096
-7.800503730773926 4.146728038787842 2.8139195442199707
-5.47691011428833 -2.1693475246429443 0.044829633086919785
-6.6482672691345215 -3.091524362564087 0.7115365266799927
-9.46680736541748 2.344727039337158 3.7623372077941895
-8.399555206298828 -5.3800048828125 2.3386549949645996
-18.48240852355957 6.847854137420654 8.125171661376953
-13.110048294067383 -6.619777202606201 4.389418601989746
-8.810504913330078 -0.5257558822631836 5.3137922286987305
-7.529728412628174 0.5182102918624878 1.2132439613342285
-5.749270915985107 -1.1984682083129883 0.1998516172170639
-8.659086227416992 -3.125147819519043 1.856043815612793
-8.35935115814209 2.613413095474243 2.5734031200408936
-7.735167026519775 2.9630579948425293 1.3301748037338257
-8.378769874572754 2.800896167755127 3.1430535316467285
-10.254770278930664 -1.5205105543136597 3.760129451751709
-8.859258651733398 -1.5181608200073242 1.969977617263794
-6.542281150817871 -2.019921064376831 0.6512122750282288
-9.329158782958984 2.8297908306121826 3.6839916706085205
-21.758865356445312 -7.653543472290039 9.31210708618164
-9.105775833129883 1.284433126449585 2.8058598041534424
-14.97420883178711 1.893011212348938 7.786944389343262
-18.9753360748291 7.909163475036621 8.2204008102417
-10.50098705291748 -0.46821555495262146 2.9044101238250732
-9.223228454589844 -4.617038726806641 2.1771390438079834
-20.49847984313965 4.5173869132995605 10.095202445983887
-8.258856773376465 -2.293177604675293 1.628244400024414
-13.843482971191406 5.127727508544922 8.179701805114746
-7.848812580108643 3.3282291889190674 2.7563929557800293
-9.154790878295898 -0.5556010007858276 2.138188123703003
-6.463163375854492 4.024844169616699 0.6061826348304749
-13.399333953857422 2.439903974533081 8.097379684448242
-8.376311302185059 4.277339458465576 2.8327980041503906
-15.183806419372559 4.037543773651123 6.62385368347168
-19.236713409423828 -8.391921997070312 7.876563549041748
-11.724695205688477 -1.5011353492736816 4.548316955566406
-6.117147922515869 -1.4681458473205566 0.40923744440078735
-8.862045288085938 -2.0993077754974365 1.9715638160705566
-8.706465721130371 2.3477184772491455 2.318307399749756
-9.111820220947266 1.7959266901016235 2.113731861114502
-8.246243476867676 -0.36364448070526123 1.6210658550262451
-14.535520553588867 -6.289176940917969 5.200762748718262
-8.840351104736328 2.1130809783935547 1.9592180252075195
-12.24360466003418 -5.680435657501221 3.896261215209961
-9.51132583618164 -1.111433982849121 2.341118097305298
-4.045490741729736 1.3741252422332764 -0.7698967456817627
-13.385066986083984 2.4129371643066406 8.280485153198242
-13.442937850952148 -8.195625305175781 4.578890323638916
-11.724048614501953 -1.8566980361938477 3.600545644760132
-3.3605260848999023 1.1513514518737793 -1.1597620248794556
-10.361701011657715 -1.1648151874542236 2.8251311779022217
-2.962181568145752 -0.3516460657119751 -1.3864892721176147
-7.013852596282959 -3.1514158248901367 0.9196187257766724
-9.736573219299316 -4.936229705810547 2.469322919845581
-14.614068984985352 4.236652851104736 7.566762924194336
-9.719573020935059 -1.3923014402389526 4.842727184295654
-7.852776527404785 -1.0249154567718506 1.3971138000488281
-9.412344932556152 2.0613441467285156 3.7313387393951416
-6.873133182525635 4.326735496520996 1.3469996452331543
-7.745020866394043 -3.2752907276153564 1.3357810974121094
-9.251442909240723 5.164311408996582 3.639758825302124
-7.89977502822876 2.8176450729370117 1.4238661527633667
-8.733122825622559 2.481105327606201 2.1601786613464355
-3.275359869003296 -1.4585585594177246 -1.2082366943359375
-5.551083564758301 -1.6298785209655762 0.08704745024442673
-8.834487915039062 4.877503871917725 3.402437925338745
-6.139856338500977 -1.3717453479766846 0.4221624732017517
-5.616385459899902 1.67794668674469 0.12421725690364838
-13.07404613494873 -7.808238983154297 4.368926525115967
-6.012970924377441 -1.629744291305542 0.34994184970855713
-4.689414978027344 3.101149797439575 -0.4033903181552887
-9.116144180297852 2.401271343231201 2.116192102432251
-3.4856624603271484 -0.9855549335479736 -1.088538408279419
-9.000412940979004 0.8480955362319946 3.496877431869507
-14.745218276977539 -3.196381092071533 6.574719429016113
-9.505255699157715 0.17022940516471863 3.22249174118042
-13.187284469604492 -5.6951751708984375 4.433381080627441
-8.18851375579834 3.2896037101745605 2.132772445678711
-5.270339012145996 1.2929579019546509 -0.07274375855922699
-9.04951286315918 2.7032814025878906 3.5248234272003174
-9.142790794372559 1.8493220806121826 3.6574618816375732
-2.99537992477417 -0.5225622653961182 -1.3675944805145264
-7.036897659301758 -1.4735455513000488 0.9327350854873657
-3.2000250816345215 1.829927682876587 -1.2511144876480103
-10.849003791809082 -1.5991402864456177 3.6726534366607666
-10.176578521728516 2.4047036170959473 4.245867729187012
-17.41067886352539 -6.3720903396606445 6.837229251861572
-5.555939197540283 0.08708572387695312 0.08981169760227203
-10.60750675201416 -5.915707111358643 2.9650354385375977
-3.042174816131592 1.5831830501556396 -1.340959072113037
-9.944236755371094 -2.834379196166992 2.5875203609466553
-11.139208793640137 -4.293572902679443 3.267667055130005
-5.869144916534424 0.4062924385070801 0.2680806815624237
-15.113628387451172 -3.802171468734741 5.529806613922119
-6.237952709197998 -0.3234243392944336 0.47799748182296753
-7.66841459274292 4.051651477813721 2.7387375831604004
-9.26353645324707 -1.1587601900100708 5.4934611320495605
-8.535369873046875 2.2225019931793213 1.7856298685073853
-6.351980686187744 -0.7457370758056641 0.542898416519165
-10.181744575500488 -1.1494444608688354 3.3389575481414795
-13.052181243896484 -4.364411354064941 4.3564839363098145
-20.33550262451172 -10.798013687133789 8.501965522766113
-13.984210014343262 -6.808171272277832 4.886970043182373
-11.896865844726562 0.8283621072769165 3.698908805847168
-10.541013717651367 -1.5819488763809204 2.9271910190582275
-9.82879638671875 -2.087023973464966 2.5218138694763184
-5.235732555389404 1.8450249433517456 -0.0924404039978981
-8.649752616882324 0.2293713092803955 1.8507331609725952
-12.402528762817383 -5.282197952270508 3.986717462539673
-8.349068641662598 -5.198657989501953 1.6795892715454102
-10.46435832977295 -3.1884944438934326 2.8835606575012207
-13.127559661865234 4.414085388183594 7.821489334106445
-8.573875427246094 2.6226043701171875 2.3496809005737305
-7.143907070159912 2.80757999420166 0.9936448335647583
-5.032113075256348 -3.4485280513763428 -0.20833829045295715
-5.7058939933776855 1.0745298862457275 0.1751628816127777
-11.731502532958984 -6.9125895500183105 3.6047849655151367
-15.081462860107422 -3.324981689453125 6.057271957397461
-6.826156139373779 0.5170952081680298 0.8127874732017517
-6.31544303894043 -3.164882183074951 0.5221003890037537
-15.407739639282227 -4.395115375518799 6.186363220214844
-8.697787284851074 3.9010958671569824 3.324631452560425
-4.96504545211792 -0.464876651763916 -0.2465103566646576
-3.2873477935791016 0.3461519479751587 -1.201413631439209
-18.423328399658203 -7.854034900665283 7.413604259490967
-5.550698757171631 2.7686867713928223 0.08683065325021744
-15.041378021240234 4.355409622192383 8.244318008422852
-6.81746768951416 -4.175785541534424 0.8078404664993286
-15.323684692382812 -9.110480308532715 5.649365425109863
-10.743330955505371 1.1885427236557007 4.488903045654297
-10.151434898376465 -4.2508087158203125 2.705451011657715
-5.687896728515625 0.8870391845703125 0.1649193912744522
-18.356542587280273 7.9527130126953125 7.654849052429199
-3.4409401416778564 1.2314250469207764 -1.1139920949935913
-16.031694412231445 -6.777328014373779 6.052346706390381
-8.215081214904785 1.561910629272461 4.196813583374023
-7.098159313201904 4.310319900512695 0.9676070213317871
-10.94969654083252 -1.588997483253479 3.5340757369995117
-18.22121238708496 7.08803653717041 7.565784931182861
-4.360292911529541 -2.9090540409088135 -0.5907214283943176
-9.317277908325195 -0.15872949361801147 2.2306718826293945
-3.6732311248779297 -2.3995776176452637 -0.9817793369293213
-8.239583969116211 -2.507620334625244 1.6172740459442139
-6.20571231842041 -2.967022657394409 0.45964494347572327
-2.835794448852539 0.8529907464981079 -1.4584261178970337
-7.24888801574707 2.8918657302856445 1.0533974170684814
-11.189699172973633 -2.524785041809082 3.2964065074920654
-6.0655293464660645 0.10206103324890137 0.3798581063747406
-9.563879013061523 -4.339375019073486 2.371030330657959
-7.049626350402832 -1.1733791828155518 0.9399811029434204
-9.284714698791504 1.631296992301941 2.945009469985962
-10.856474876403809 -2.469719171524048 3.1067426204681396
-5.457675933837891 0.896956205368042 0.03388335928320885
-10.242049217224121 1.9698981046676636 2.7570292949676514
-9.72922420501709 5.102543354034424 2.4651427268981934
-9.716618537902832 0.022385835647583008 2.4579670429229736
-6.0287370681762695 2.616366386413574 0.3589183986186981
-10.51158618927002 -1.1291165351867676 2.9104416370391846
-10.078438758850098 5.288605690002441 2.663907766342163
-7.132558345794678 0.5246585607528687 0.9871846437454224
-8.636826515197754 1.794260859489441 2.9714157581329346
-7.874646186828613 2.5084261894226074 1.4095628261566162
-7.035517692565918 3.835251569747925 0.9319522380828857
-10.067611694335938 2.3975160121917725 4.183846473693848
-10.010479927062988 -1.4010026454925537 2.6252241134643555
-14.479681968688965 -7.307237148284912 5.168979644775391
-10.831079483032227 5.570242881774902 3.092292070388794
-8.818671226501465 2.8874967098236084 2.622297525405884
-18.77815818786621 6.648219108581543 8.101758003234863
-9.841410636901855 5.207239627838135 2.5289969444274902
-2.830190420150757 -0.9491662979125977 -1.4616159200668335
-10.033086776733398 -0.3349355459213257 2.638091802597046
-6.663014888763428 -3.4131600856781006 0.7199302911758423
-10.615460395812988 1.4363983869552612 4.416121959686279
-7.534300804138184 3.8574864864349365 2.788025379180908
-3.9093546867370605 -0.9591453075408936 -0.847382664680481
-10.764360427856445 -4.149521350860596 3.054313898086548
-18.807130813598633 8.183038711547852 8.126788139343262
-8.68875503540039 -0.8825722932815552 1.8729313611984253
-8.60531234741211 0.8668121099472046 1.8254393339157104
-15.504749298095703 -8.388983726501465 5.752422332763672
-10.285942077636719 1.6504863500595093 2.7820119857788086
-11.23310661315918 0.4631475508213043 4.7949299812316895
-6.1974196434021 3.5246317386627197 0.4549280107021332
-4.52502965927124 -2.168614149093628 -0.4969562292098999
-14.907649040222168 -4.10233211517334 6.0619001388549805
-9.398544311523438 6.1807379722595215 2.2769296169281006
-14.95836353302002 -3.5062496662139893 6.197710990905762
-3.34057354927063 -1.361971378326416 -1.171119213104248
-5.003337860107422 0.35925817489624023 -0.22471433877944946
-18.572282791137695 7.616668701171875 8.594371795654297
-7.046669006347656 0.5483967065811157 0.9382984638214111
-8.415340423583984 2.7542967796325684 1.7173129320144653
-9.112615585327148 1.5915530920028687 3.0971672534942627
-13.039630889892578 -3.99308705329895 4.349340915679932
-7.05607795715332 0.3700401782989502 0.9436540007591248
-7.422707557678223 -0.9298100471496582 1.1523295640945435
-4.773651599884033 2.7727577686309814 -0.3554456830024719
-7.182734966278076 -1.7467124462127686 1.0157426595687866
-12.007834434509277 -4.132049560546875 3.7620677947998047
-9.896039962768555 4.946496486663818 2.5600903034210205
-10.004487037658691 -1.6067585945129395 2.6218132972717285
-9.732131004333496 1.2247941493988037 3.9133524894714355
-19.504640579223633 6.569340229034424 8.799030303955078
-2.8634440898895264 1.2912099361419678 -1.4426885843276978
-9.959867477416992 0.07457533478736877 5.563345432281494
-4.578637599945068 1.8863369226455688 -0.4664429724216461
-10.551738739013672 0.2295023500919342 2.9332964420318604
-20.588407516479492 -9.7708101272583 8.645912170410156
-9.915227890014648 5.743957996368408 2.571012258529663
-6.367581844329834 -2.9151718616485596 0.5517775416374207
-7.796199321746826 -4.197996616363525 1.3649107217788696
-15.086384773254395 -3.1863508224487305 5.949465274810791
-8.33025074005127 -5.498631477355957 1.6688791513442993
-12.362274169921875 3.77221417427063 7.480906963348389
-8.343810081481934 2.1634509563446045 1.6765995025634766
-6.300644874572754 2.438419818878174 0.5136810541152954
-18.85140037536621 -2.719886541366577 12.257296562194824
-2.8427226543426514 0.193398118019104 -1.4544827938079834
-10.867842674255371 0.6656566858291626 4.559772491455078
-9.873601913452148 0.27682995796203613 2.5473179817199707
-4.10697603225708 -2.4537909030914307 -0.7349019050598145
-18.122177124023438 -9.89120101928711 7.242197036743164
-11.502114295959473 -1.7909002304077148 3.4742255210876465
-7.974157333374023 -3.413940191268921 1.4661999940872192
-10.035393714904785 -5.206298828125 2.639403820037842
-20.474849700927734 4.54103946685791 10.21034049987793
-5.43552303314209 -0.9329195022583008 0.021273421123623848
-13.24532699584961 2.7644400596618652 8.402168273925781
-4.518710613250732 2.0423648357391357 -0.5005518794059753
-9.193042755126953 0.8576679825782776 2.1599605083465576
-6.331398010253906 -2.6996562480926514 0.5311830639839172
-11.857004165649414 -7.020313262939453 3.6762170791625977
-6.985328197479248 -1.3835134506225586 0.903383731842041
-9.816333770751953 -0.2603069245815277 4.549862384796143
-5.9269185066223145 0.843524694442749 0.30096495151519775
-10.54635238647461 -5.860142707824707 2.930227756500244
-11.299383163452148 -1.6173955202102661 3.3588361740112305
-8.122899055480957 -2.8178892135620117 1.550861120223999
-4.160658359527588 2.8507821559906006 -0.7043460607528687
-9.819785118103027 -0.3082559108734131 3.187283992767334
-10.425555229187012 -5.749993324279785 2.861473321914673
-3.185051918029785 1.4098244905471802 -1.2596362829208374
-16.05457305908203 0.4697575867176056 11.271428108215332
-6.937849998474121 -4.216123580932617 0.8763592839241028
-7.678645610809326 3.9320669174194336 2.744561195373535
-9.72357177734375 0.21097946166992188 2.4619240760803223
-20.23139762878418 -5.538477420806885 12.321688652038574
-10.305351257324219 -2.956958770751953 2.7930562496185303
-4.593923568725586 3.0147743225097656 -0.45774227380752563
-11.144529342651367 -3.7204737663269043 3.2706961631774902
-21.08637046813965 -5.3944478034973145 11.018850326538086
-6.904216289520264 -1.8405547142028809 0.8572167754173279
-8.751081466674805 1.7570579051971436 3.3549633026123047
-16.131534576416016 1.3631107807159424 7.397226810455322
-4.208089828491211 -2.1926467418670654 -0.6773512363433838
-7.524289608001709 4.169064044952393 2.656705617904663
-10.95495891571045 6.973437786102295 3.16280198097229
-4.175823211669922 -1.5970983505249023 -0.6957154870033264
-10.315619468688965 -2.5670008659362793 2.7989020347595215
-9.090890884399414 -5.841402530670166 2.1018154621124268
-18.18666648864746 -8.427313804626465 7.278903007507324
-20.04859733581543 -2.255896806716919 12.9030179977417
-14.529024124145508 -3.1922860145568848 5.239399433135986
-13.810578346252441 -4.38176965713501 4.788143634796143
-9.964248657226562 -0.07704389095306396 2.598912000656128
-8.13588809967041 0.7309753894805908 1.5582550764083862
-8.982170104980469 1.4552772045135498 2.811309337615967
-9.28852367401123 1.2352278232574463 3.660862922668457
-6.575615882873535 -4.5083208084106445 0.6701847314834595
-20.622135162353516 -5.592860221862793 11.777275085449219
-9.745912551879883 -2.798830032348633 2.4746382236480713
-6.873946666717529 4.228383541107178 1.4279563426971436
-11.622417449951172 -1.573685646057129 4.453823566436768
-9.80618667602539 -2.173441171646118 2.5089449882507324
-9.632368087768555 -1.3973138332366943 5.016358375549316
-5.071682453155518 -0.7451233863830566 -0.18581506609916687
-16.844966888427734 -9.226932525634766 6.5152411460876465
-4.930066108703613 2.389660120010376 -0.2664179801940918
-14.72855281829834 2.132387638092041 7.666104316711426
-4.434967517852783 -1.461489200592041 -0.5482173562049866
-11.456991195678711 -4.753375053405762 3.448540687561035
-4.349920749664307 -0.3424994945526123 -0.5966238379478455
-19.846332550048828 -2.7062597274780273 13.744114875793457
-2.7677085399627686 -1.1127803325653076 -1.4971797466278076
-16.192493438720703 -9.636200904846191 6.143868923187256
-2.8640153408050537 -0.7759356498718262 -1.4423635005950928
-5.302563667297363 -0.5216965675354004 -0.05440284684300423
-11.674219131469727 -5.76722526550293 3.572181463241577
-5.868898391723633 -2.9616379737854004 0.2679394781589508
-8.51512622833252 2.9516220092773438 2.048677444458008
-10.188922882080078 -2.735642433166504 2.7267885208129883
-4.402308940887451 2.635249137878418 -0.5668048858642578
-9.806281089782715 1.0727487802505493 2.509000301361084
-8.254545211791992 -3.9462389945983887 1.625788688659668
-4.452983379364014 1.0980430841445923 -0.5379624962806702
-19.111148834228516 -8.597312927246094 7.805094242095947
-5.685159683227539 3.3972442150115967 0.16336297988891602
-5.036678791046143 -0.3356843590736389 3.241534948348999
-2.7653794288635254 -0.8388164043426514 -1.4985045194625854
-15.782598495483398 3.0089774131774902 6.943440914154053
-7.178001880645752 0.6287505626678467 1.0130493640899658
-6.653691291809082 -3.919793128967285 0.7146238088607788
-12.242765426635742 -2.939453363418579 3.8957841396331787
-6.688426494598389 1.5119634866714478 0.7343963980674744
-10.468742370605469 1.1016027927398682 2.8860576152801514
-7.629212379455566 -3.2825021743774414 1.2698661088943481
-6.073245525360107 -0.06975007057189941 0.38424956798553467
-9.728572845458984 -0.5132584571838379 2.4647700786590576
-8.360918998718262 -0.12010562419891357 1.6863362789154053
-4.509956359863281 2.159550905227661 -0.5055351853370667
-6.843817234039307 2.47418475151062 0.8228407502174377
-19.657352447509766 -10.850546836853027 8.11597728729248
-9.801915168762207 0.5481827855110168 3.9530718326568604
-19.843082427978516 0.20053128898143768 12.712804794311523
-11.205301284790039 -1.5975430011749268 3.3052866458892822
-10.917675018310547 -4.010865211486816 3.1415772438049316
-10.447142601013184 -2.1844239234924316 4.426607131958008
-14.816575050354004 2.225191116333008 7.630460739135742
-8.847529411315918 -2.9749438762664795 1.9633007049560547
-7.22217321395874 2.74532151222229 1.038191795349121
-10.852095603942871 1.2930728197097778 5.151118278503418
-9.680794715881348 4.591189384460449 2.437577724456787
-19.649261474609375 -7.685826301574707 8.111374855041504
-15.781259536743164 2.485389232635498 7.74467658996582
-4.913971900939941 -1.6296141147613525 -0.2755800783634186
-8.506808280944824 -5.568607330322266 1.7693700790405273
-3.7786452770233154 1.3343781232833862 -0.9217779636383057
-8.404922485351562 -0.42121684551239014 1.7113820314407349
-6.779011249542236 -2.524054765701294 0.7859532833099365
-3.7258598804473877 -1.2916524410247803 -0.9518237113952637
-4.862867832183838 2.791983127593994 -0.30466535687446594
-5.293328285217285 -2.660184383392334 -0.05966062843799591
-8.44265079498291 2.0929415225982666 2.9895994663238525
-21.458084106445312 -7.495598316192627 9.140912055969238
-8.143189430236816 3.2404026985168457 2.1976828575134277
-9.165326118469238 0.23776113986968994 2.1441855430603027
-3.6891212463378906 -2.1017632484436035 -0.972734808921814
-10.542250633239746 5.326890468597412 2.9278981685638428
-7.41294002532959 2.0203051567077637 1.1467719078063965
-8.76738166809082 1.7877283096313477 2.8683435916900635
-9.412972450256348 -2.3045592308044434 2.2851366996765137
-9.9998140335083 -0.008553125895559788 5.178987503051758
-9.681640625 -4.286675930023193 2.438056468963623
-14.02899169921875 6.130865573883057 7.742090225219727
-17.54814338684082 -0.0725870132446289 12.180038452148438
-8.48856258392334 -4.073597431182861 1.7589855194091797
-8.435150146484375 1.0361535549163818 1.7285879850387573
-4.102636814117432 0.926148533821106 -0.7373708486557007
-21.856220245361328 -5.623921871185303 9.403009414672852
-3.1451125144958496 0.9694860577583313 -1.2823691368103027
-9.962250709533691 -0.9476748108863831 3.6886863708496094
-4.3322601318359375 -0.6290745735168457 -0.6066758632659912
-11.694849014282227 1.3494173288345337 3.5839266777038574
-9.742798805236816 -1.5046087503433228 4.929781436920166
-9.74526596069336 0.055619701743125916 3.6708295345306396
-15.084264755249023 -8.357213020324707 5.513092041015625
-20.85895538330078 -5.327739715576172 11.65941333770752
-4.165959358215332 1.8131403923034668 -0.7013287544250488
-7.480460166931152 -1.3462166786193848 1.185200810432434
-11.48852825164795 -4.895060062408447 3.466491222381592
-16.65495491027832 -9.125503540039062 6.407089710235596
-10.656826972961426 0.4848562479019165 5.889457702636719
-9.421314239501953 4.1305694580078125 3.7364449501037598
-4.050751209259033 -2.167444944381714 -0.7669036984443665
-10.093914985656738 -2.8159918785095215 2.6727123260498047
-11.622639656066895 1.2055927515029907 3.5428264141082764
-12.291524887084961 -6.201357841491699 3.923536539077759
-14.627514839172363 -7.829403400421143 5.253122329711914
-6.473159313201904 2.7104358673095703 0.6118723750114441
-19.393470764160156 6.512307167053223 8.177932739257812
-9.176920890808105 4.630773544311523 2.150786876678467
-9.233074188232422 0.672850489616394 3.6293017864227295
-21.102371215820312 -5.6918816566467285 10.926807403564453
-6.579919815063477 -4.341459274291992 0.6726340651512146
-9.518941879272461 -1.0869026184082031 4.867133140563965
-8.21069049835205 2.9785501956939697 1.6008312702178955
-14.487175941467285 3.8471596240997314 7.180381774902344
-8.774678230285645 3.130045175552368 1.9218391180038452
-8.260149002075195 0.7956527471542358 1.6289807558059692
-5.747183322906494 0.9733006954193115 0.19866427779197693
-8.389545440673828 3.2559423446655273 2.0482020378112793
-7.199791431427002 -4.579005241394043 1.025449514389038
-6.1587419509887695 -3.385096549987793 0.4329107403755188
-8.683300018310547 3.044250965118408 2.7051749229431152
-8.410445213317871 4.83621883392334 1.7145276069641113
-9.078690528869629 3.6849966049194336 3.5414319038391113
-10.01773452758789 5.233805179595947 2.629356861114502
-7.106356620788574 2.6171653270721436 0.9722714424133301
-14.604350090026855 -4.337099075317383 5.71028470993042
-14.175732612609863 -4.547783374786377 4.995981693267822
-17.50432014465332 -8.843603134155273 6.890527248382568
-15.772092819213867 4.499047756195068 6.62386417388916
-7.970879554748535 -0.3115047216415405 1.464335560798645
-8.28099536895752 3.265979051589966 1.6408474445343018
-8.577583312988281 2.0350847244262695 3.000593423843384
-10.265434265136719 -0.13886211812496185 3.969082832336426
-12.892727851867676 3.4787251949310303 8.394371032714844
-9.632890701293945 1.1578617095947266 3.8568670749664307
-4.740644931793213 1.0462886095046997 -0.37423235177993774
-11.185324668884277 0.8037365078926086 3.2939178943634033
-8.59481143951416 1.4260978698730469 1.819462776184082
-9.248377799987793 -3.3685102462768555 2.1914544105529785
-10.36518669128418 -5.695011615753174 2.8271121978759766
-10.346014022827148 0.48736193776130676 2.8162033557891846
-5.06388521194458 -0.25014638900756836 -0.19025258719921112
-7.580300807952881 -0.3211556673049927 1.242027997970581
-5.006560802459717 1.622287392616272 -0.22287940979003906
-18.341846466064453 10.521061897277832 7.367234230041504
-6.5433349609375 4.431670665740967 0.6518145799636841
-3.2794532775878906 1.1680827140808105 -1.2059054374694824
-5.1386213302612305 0.13662385940551758 -0.14771534502506256
-18.628864288330078 6.659460067749023 8.191316604614258
-7.624535083770752 2.0745420455932617 1.267205834388733
-10.577871322631836 0.6934948563575745 2.9481699466705322
-10.401235580444336 0.08169208467006683 4.814785957336426
-4.287262916564941 -2.7572367191314697 -0.6322880983352661
-10.308310508728027 5.637790203094482 2.7947452068328857
-8.782196044921875 -0.5059170722961426 5.438502311706543
-10.891473770141602 0.505626916885376 5.555700302124023
-13.884742736816406 5.1388773918151855 8.29334831237793
-19.831275939941406 6.480709552764893 9.591658592224121
-9.060907363891602 0.054718017578125 2.084752321243286
-8.886474609375 0.9597306847572327 1.9854696989059448
-9.09689998626709 -4.086973190307617 2.105236768722534
-7.395785331726074 -4.887186050415039 1.1370043754577637
-10.207456588745117 -0.3969472646713257 2.7373385429382324
-12.892613410949707 -2.866959571838379 4.265661716461182
-8.446751594543457 4.0272650718688965 1.735191822052002
-5.310999393463135 -0.809471845626831 -0.04960191249847412
-9.7765474319458 -1.600795030593872 2.492075204849243
-9.791565895080566 0.860784113407135 3.947181224822998
-5.434937477111816 -1.8474524021148682 0.02093919739127159
-9.065816879272461 -0.3338547348976135 5.590498924255371
-8.724623680114746 4.27641487121582 3.3399059772491455
-9.340387344360352 -0.9947375059127808 5.111774921417236
-7.157688617706299 4.25043249130249 1.0014898777008057
-7.364749431610107 3.389275312423706 1.1193429231643677
-5.16574764251709 -0.373276948928833 -0.1322758048772812
-7.156525135040283 -3.387765645980835 1.0008246898651123
-14.470601081848145 -4.80082893371582 5.163811206817627
-18.443389892578125 7.368987560272217 8.246623039245605
-8.53038215637207 -3.583916187286377 1.7827891111373901
-8.452619552612305 -5.34352445602417 1.9864023923873901
-7.6552228927612305 -1.4723620414733887 1.2846707105636597
-6.07846212387085 -2.7191548347473145 0.3872179388999939
-6.9787702560424805 -2.097316265106201 0.8996509909629822
-11.329631805419922 0.6306469440460205 3.3760530948638916
-10.612146377563477 0.40118587017059326 2.967679023742676
-9.916454315185547 -2.0389833450317383 2.5717074871063232
-8.448210716247559 -0.025509238243103027 1.736020803451538
-13.953362464904785 3.1404314041137695 7.592238426208496
-4.772083759307861 -2.351571798324585 -0.3563401699066162
-5.216833591461182 0.4542114734649658 -0.1031980812549591
-9.805893898010254 -0.03525626286864281 5.41876220703125
-9.319732666015625 2.2077276706695557 3.67862606048584
-18.674556732177734 -8.903702735900879 7.556596755981445
-5.178422927856445 -1.7587454319000244 -0.12506166100502014
-10.272244453430176 1.16728675365448 2.7742161750793457
-7.974823951721191 4.979740142822266 1.4665826559066772
-19.803871154785156 -5.258301734924316 12.912773132324219
-7.898010730743408 -4.979227542877197 1.422858476638794
-8.388862609863281 -5.562158107757568 1.7022390365600586
-9.229948997497559 1.2947202920913696 3.456012487411499
-10.009042739868164 -1.4285968542099 4.162078857421875
-6.812295436859131 0.7150387763977051 0.8048989176750183
-20.134798049926758 4.932911396026611 9.722679138183594
-5.756319046020508 1.778465986251831 0.20386427640914917
-9.647843360900879 3.25492000579834 3.8653790950775146
-6.546144485473633 -1.422504186630249 0.6534117460250854
-14.428194999694824 -3.39579439163208 5.139676570892334
-9.771564483642578 1.5045111179351807 2.489240884780884
-5.667046546936035 0.03620028495788574 0.15305128693580627
-7.15493106842041 -1.1210722923278809 0.9999175071716309
-6.8180975914001465 -3.039891004562378 0.8081998825073242
-4.109597206115723 2.5551135540008545 -0.7334075570106506
-19.064285278320312 -10.962006568908691 7.778418064117432
-7.581129550933838 2.3749094009399414 1.2425010204315186
-8.923870086669922 1.9119720458984375 3.4533114433288574
-5.060223579406738 -0.48091650009155273 -0.192337304353714
-9.448018074035645 -0.8156284093856812 4.689959526062012
-12.786041259765625 -4.292794704437256 4.2050042152404785
-9.812838554382324 -0.4993303716182709 3.453949451446533
-5.998433589935303 -0.5785353183746338 0.34166795015335083
-4.704441547393799 -1.481410026550293 -0.3948403000831604
-10.420924186706543 0.43804070353507996 2.858839750289917
-5.9436774253845215 2.612928628921509 0.3105039596557617
-9.041584014892578 4.87490701675415 3.5203123092651367
-11.011312484741211 -1.9477349519729614 3.7539031505584717
-5.942234039306641 -1.7650229930877686 0.3096808195114136
-7.284483909606934 4.585509777069092 1.0736584663391113
-8.6239595413208 4.730874061584473 3.2826101779937744
-10.075800895690918 0.46635082364082336 3.0941789150238037
-18.222183227539062 -3.907827615737915 11.88373851776123
-8.942620277404785 -4.114658832550049 2.0174248218536377
-13.953033447265625 -8.512956619262695 4.869224548339844
-9.914082527160645 -5.0971150398254395 2.5703556537628174
-9.966852188110352 -0.8302834033966064 3.5536608695983887
-7.166347026824951 -0.0396500825881958 1.006415843963623
-8.981047630310059 2.2056243419647217 2.716902732849121
-7.261216640472412 -3.6597952842712402 1.0604114532470703
-18.829421997070312 7.2566118240356445 8.98188591003418
-9.679556846618652 -5.57813835144043 2.4368691444396973
-20.035438537597656 4.80083703994751 8.967240333557129
-4.91604471206665 0.3206636905670166 -0.2743993401527405
-8.79460620880127 -2.7676985263824463 1.9331798553466797
-19.139007568359375 6.452516078948975 7.9677934646606445
-11.15932846069336 0.7975609302520752 4.725678443908691
-9.615742683410645 -0.2885802388191223 3.534160852432251
-9.030875205993652 0.34077584743499756 2.067659378051758
-8.833454132080078 1.7546789646148682 2.778021812438965
-10.267581939697266 -1.9482477903366089 2.771559953689575
-12.429920196533203 -7.145787239074707 4.0023064613342285
-10.868195533752441 -1.9394423961639404 3.5033297538757324
-4.9663405418396 -1.5608322620391846 -0.24577391147613525
-10.763206481933594 -2.7743377685546875 3.053656816482544
-4.4477386474609375 -2.7348761558532715 -0.540949821472168
-3.067267417907715 -1.5450243949890137 -1.3266780376434326
-9.55820369720459 -4.489397048950195 2.3677988052368164
-7.470871448516846 3.015089750289917 1.1797451972961426
-7.184244632720947 3.917140245437622 1.0166047811508179
-18.870529174804688 -3.1581826210021973 11.709547996520996
-8.58132553100586 2.4561169147491455 2.4436912536621094
-8.474913597106934 -5.1293559074401855 1.9571856260299683
-5.824375629425049 -1.1233913898468018 0.24259933829307556
-7.148232936859131 2.4799082279205322 0.9961066246032715
-6.909944534301758 3.648749828338623 0.8604803681373596
-6.186944484710693 -0.935246467590332 0.4489644169807434
-11.651481628417969 2.616800546646118 7.67616605758667
-7.703492641448975 -1.658097267150879 1.3121452331542969
-9.50219440460205 -4.287411212921143 2.3359193801879883
-6.537479877471924 1.4405875205993652 0.6484808921813965
-5.028299808502197 1.1597645282745361 -0.21050679683685303
-19.094196319580078 7.982182502746582 8.30947208404541
-5.1700825691223145 2.4473092555999756 -0.12980705499649048
-9.344021797180176 5.096852779388428 2.2458956241607666
-8.431354522705078 0.1305362582206726 5.190669059753418
-14.556604385375977 -5.204566478729248 5.212761402130127
-4.491119861602783 -0.5736527442932129 -0.5162566304206848
-9.70028018951416 0.2548578977584839 3.6452248096466064
-10.454361915588379 5.823603630065918 2.8778738975524902
-9.991480827331543 2.6770222187042236 5.290278434753418
-14.72329330444336 -3.62919545173645 6.187689781188965
-17.64190101623535 10.281853675842285 6.96884298324585
-8.851969718933105 -5.051942348480225 1.9658290147781372
-10.868691444396973 -4.508183002471924 3.1136958599090576
-9.413923263549805 -0.05159231275320053 3.661309242248535
-12.183257102966309 -4.516395092010498 3.8619139194488525
-7.677002429962158 -4.178340911865234 1.2970666885375977
-6.741666316986084 4.259106636047363 1.5575671195983887
-5.05250883102417 -3.2298481464385986 -0.19672910869121552
-8.257950782775879 3.1702606678009033 2.1928303241729736
-5.4027838706970215 0.04677224159240723 0.0026404578238725662
-9.536027908325195 0.2428809553384781 3.5517375469207764
-14.068011283874512 3.7947864532470703 7.480036735534668
-8.09907054901123 -3.8161423206329346 1.5372968912124634
-10.360210418701172 -1.337835431098938 2.8242831230163574
-19.697099685668945 -10.757946014404297 8.138603210449219
-9.22463321685791 -4.013092041015625 2.1779391765594482
-13.558669090270996 2.292546510696411 8.372982025146484
-14.037175178527832 -7.183803081512451 4.917116165161133
-15.615344047546387 -8.512347221374512 5.815369606018066
-12.415703773498535 3.736703872680664 7.421391487121582
-7.325098514556885 2.461467742919922 1.096774935722351
-4.197818279266357 2.158033847808838 -0.6831955909729004
-4.7322211265563965 1.1328731775283813 -0.37902775406837463
-9.516050338745117 -0.584694504737854 4.0583367347717285
-4.316003322601318 1.7956945896148682 -0.6159278750419617
-9.001365661621094 -0.639384388923645 5.476141452789307
-8.304784774780273 -5.314603805541992 2.1492302417755127
-8.027243614196777 2.929295063018799 1.49641752243042
-7.602937698364258 4.004504203796387 2.701470136642456
-8.795379638671875 0.1949862241744995 1.933620572090149
-8.581890106201172 2.0568437576293945 3.258664131164551
-19.042842864990234 8.177119255065918 8.649178504943848
-3.5610921382904053 -1.849445104598999 -1.0456066131591797
-7.637385368347168 -4.49517297744751 1.2745171785354614
-20.18722152709961 -11.096182823181152 8.875847816467285
-8.26116943359375 2.5778143405914307 1.6295629739761353
-19.906909942626953 -5.303145408630371 12.714608192443848
-8.32361125946045 3.768052339553833 3.1116600036621094
-11.636112213134766 -1.9188332557678223 3.550493001937866
-8.977977752685547 -0.5793216228485107 2.0375497341156006
-1.886098861694336 0.2624552547931671 -0.12064096331596375
-7.965534687042236 4.807771682739258 2.9078516960144043
-10.488689422607422 0.28308191895484924 2.8974101543426514
-9.947319030761719 -0.988139271736145 3.7764816284179688
-10.597496032714844 -3.461954355239868 2.959338903427124
-15.375907897949219 1.6006081104278564 7.011536598205566
-3.0695512294769287 -1.669961929321289 -1.325378179550171
-9.39945125579834 -4.797942161560059 2.2774415016174316
-5.564984321594238 -0.40554213523864746 0.09496022015810013
-6.1367998123168945 1.2294843196868896 0.4204239845275879
-6.673486232757568 -1.5451135635375977 0.7258918285369873
-19.934185028076172 5.591235160827637 8.712289810180664
-14.433268547058105 1.0123103857040405 7.379499912261963
-9.235215187072754 -0.4828643500804901 4.729707717895508
-9.099210739135742 2.1603543758392334 3.5531108379364014
-10.007929801940918 3.094717502593994 4.070332050323486
-2.7790722846984863 0.12828636169433594 -1.4907118082046509
-7.969235420227051 -1.1385892629623413 1.4633989334106445
-10.336292266845703 -1.0023736953735352 3.2313172817230225
-19.092527389526367 10.974695205688477 7.794502258300781
-7.98881721496582 3.7582290172576904 2.4460833072662354
-10.55012035369873 -2.68017315864563 2.9323744773864746
-5.988668918609619 0.4578585624694824 0.3361111283302307
-8.641800880432129 2.496288537979126 2.2939980030059814
-4.909544944763184 -2.413879632949829 -0.2780998945236206
-7.301573753356934 -1.3752915859222412 1.0833830833435059
-9.615976333618164 -1.2864623069763184 4.914690017700195
-8.347563743591309 4.329184055328369 3.2048380374908447
-9.707500457763672 -1.5578429698944092 2.452775716781616
-9.763787269592285 -4.100508689880371 2.484811782836914
-20.478511810302734 11.135130882263184 8.583369255065918
-10.018938064575195 5.990511894226074 2.6300415992736816
-9.36504077911377 -4.028187274932861 2.257855176925659
-8.683279991149902 -2.6023011207580566 1.8698147535324097
-5.121388912200928 -1.9359266757965088 -0.1575234830379486
-10.394674301147461 -1.0630006790161133 3.172224998474121
-4.228171348571777 1.3597971200942993 -0.6659192442893982
-12.490717887878418 4.535635948181152 4.036916255950928
-10.465326309204102 -0.439725399017334 4.074175834655762
-18.587377548217773 -3.5864295959472656 11.83028793334961
-10.033286094665527 -1.6998844146728516 2.638204574584961
-8.5474853515625 -4.902920246124268 1.7925230264663696
-6.270863056182861 -1.4376025199890137 0.4967286288738251
-4.227889537811279 2.74782657623291 -0.6660791635513306
-21.139171600341797 -7.423135280609131 8.959394454956055
-11.435019493103027 2.0311214923858643 3.4360384941101074
-6.7682905197143555 3.939079999923706 0.7798534631729126
-14.728981971740723 -3.603069305419922 5.52587890625
-10.415640830993652 1.5482667684555054 2.855832815170288
-4.226776599884033 -1.7394769191741943 -0.6667140126228333
-4.150068759918213 2.42374324798584 -0.7103728652000427
-19.769542694091797 6.676623344421387 9.455376625061035
-20.480697631835938 -10.961408615112305 8.869575500488281
-9.065916061401367 -0.5896037817001343 2.0876026153564453
-3.4278945922851562 -0.5137710571289062 -1.121417760848999
-4.795050621032715 1.1979403495788574 -0.3432665765285492
-7.893371105194092 4.09800386428833 2.8667778968811035
-6.878274917602539 1.9560832977294922 0.8424533009529114
-11.980905532836914 -7.1264753341674805 3.746739625930786
-4.832125186920166 -0.406019926071167 -0.32216453552246094
-8.354302406311035 -3.4110281467437744 1.682568907737732
-15.11449909210205 -5.310500621795654 5.53030252456665
-8.314866065979004 4.562069416046143 2.6328678131103516
-15.357769012451172 -4.788412094116211 5.750144004821777
-8.74545669555664 -0.7698962688446045 1.905205488204956
-6.166624546051025 3.6215550899505615 0.4374006688594818
-8.832547187805176 0.1503172367811203 4.464415073394775
-9.751725196838379 5.397907733917236 2.477949857711792
-10.041704177856445 1.0564889907836914 4.089554309844971
-8.581927299499512 2.52351975440979 1.8121297359466553
-8.022314071655273 1.966312289237976 1.4936120510101318
-6.630505561828613 0.10531806945800781 0.7014284133911133
-4.263733863830566 -1.0296943187713623 -0.6456793546676636
-2.7202236652374268 0.4087240695953369 -1.5242059230804443
-8.158120155334473 -2.1903884410858154 1.5709071159362793
-10.189703941345215 5.528874397277832 2.7272372245788574
-7.762422561645508 -0.33579325675964355 1.345686912536621
-1.887453317642212 -0.08993478864431381 -0.12067082524299622
-14.846329689025879 -4.089081287384033 5.699377059936523
-11.207836151123047 -6.2435832023620605 3.3067283630371094
-10.66048526763916 -1.4720596075057983 2.9951913356781006
-18.600046157836914 6.816222667694092 8.349190711975098
-13.985405921936035 -4.377131462097168 4.8876519203186035
-14.310020446777344 -3.8199069499969482 5.072414875030518
-10.348372459411621 -3.2586605548858643 2.8175439834594727
-9.27577018737793 -0.5886197090148926 2.2070465087890625
-13.056177139282227 2.6245250701904297 8.497170448303223
-3.011106491088867 1.0794366598129272 -1.3586417436599731
-8.319206237792969 2.82738995552063 2.4122986793518066
-9.541086196899414 0.0059952763840556145 3.3371286392211914
-10.148903846740723 2.6750125885009766 5.006106376647949
-8.04935359954834 -4.036793231964111 1.5090001821517944
-8.891386032104492 1.817700743675232 2.5892741680145264
-10.50594425201416 1.8396273851394653 2.907231330871582
-5.29299259185791 -3.508272886276245 -0.05985141545534134
-10.789623260498047 -0.47127413749694824 3.0686936378479004
-13.390560150146484 2.291294813156128 9.014357566833496
-19.669206619262695 6.6852216720581055 9.44636058807373
-19.73668670654297 -11.202887535095215 8.161134719848633
-9.125664710998535 -0.8035275936126709 5.633665084838867
-18.580791473388672 6.893160343170166 7.658734321594238
-13.686875343322754 -3.38741397857666 4.717735767364502
-14.507041931152344 -8.683316230773926 5.184552192687988
-7.868312358856201 3.5525124073028564 2.5330052375793457
-3.8064825534820557 -2.0837292671203613 -0.905935525894165
-14.395326614379883 0.8986145853996277 7.242518424987793
-5.470730781555176 -0.6109344959259033 0.04131332039833069
-7.465006351470947 4.559341907501221 2.6229629516601562
-13.546151161193848 -5.696780681610107 4.637637615203857
-14.411149024963379 -6.815810203552246 5.129973411560059
-14.43834114074707 -4.752669811248779 5.7183146476745605
-3.566387414932251 -0.7356429100036621 -1.0425913333892822
-12.833772659301758 2.1702098846435547 8.250628471374512
-8.948720932006836 -5.781213760375977 2.0955841541290283
-8.092755317687988 4.455284118652344 2.98026180267334
-6.173295021057129 1.0885181427001953 0.4411963224411011
-10.247215270996094 0.2577737867832184 5.75087833404541
-13.439616203308105 -6.991153240203857 4.577001094818115
-20.411373138427734 -10.888129234313965 9.26834774017334
-6.290188789367676 1.1721770763397217 0.5077289938926697
-9.817818641662598 -1.2768548727035522 4.516509532928467
-12.582084655761719 -6.93079137802124 4.0889153480529785
-8.73649787902832 4.037569522857666 3.3466646671295166
-10.130599975585938 0.15985122323036194 3.8829667568206787
-8.613813400268555 3.9371650218963623 3.2768356800079346
-7.997034549713135 -1.052404522895813 1.4792219400405884
-8.958788871765137 1.7334622144699097 2.02662992477417
-9.059564590454102 1.1509144306182861 2.9583065509796143
-8.215160369873047 -3.654362201690674 1.6033731698989868
-7.796484470367432 0.31940901279449463 1.3650742769241333
-19.919904708862305 -0.03719967231154442 12.698214530944824
-7.942512512207031 3.2212460041046143 2.894747495651245
-7.054676532745361 -3.8680851459503174 0.9428538084030151
-14.528434753417969 1.2531890869140625 7.114192008972168
-9.891242980957031 -1.1329104900360107 2.5573570728302
-4.394612789154053 -2.2373316287994385 -0.5711875557899475
-9.04798412322998 -1.0907608270645142 2.0773959159851074
-15.545218467712402 -7.896435260772705 5.775457382202148
-8.396946907043457 2.162844181060791 3.0117640495300293
-8.603147506713867 -2.2926571369171143 1.8242056369781494
-8.34688663482666 4.637804985046387 3.1249070167541504
-9.057596206665039 2.2544493675231934 3.5294246673583984
-6.073577880859375 0.24001169204711914 0.3844391703605652
-10.957230567932129 1.2912495136260986 3.164092779159546
-8.8588228225708 4.138468265533447 3.4162888526916504
-8.672896385192871 5.776886463165283 1.8639079332351685
-6.125306129455566 -4.289144515991211 0.41387999057769775
-10.209083557128906 -2.992501735687256 2.7382640838623047
-10.520405769348145 -0.6298184394836426 2.915462017059326
-11.231318473815918 -1.6785314083099365 3.3200955390930176
-8.976883888244629 2.153832197189331 2.095855474472046
-3.982787609100342 -0.34592747688293457 -0.8055864572525024
-12.356313705444336 -6.628451824188232 3.960411787033081
-17.848651885986328 9.774280548095703 7.086520195007324
-8.830310821533203 2.593879461288452 3.400059461593628
-9.984163284301758 2.8953769207000732 4.056804656982422
-8.96113395690918 2.3880574703216553 2.0279648303985596
-7.09454345703125 -3.6100168228149414 0.9655455946922302
-8.727049827575684 2.013033151626587 3.341285467147827
-14.457952499389648 -7.64055871963501 5.156611442565918
-11.57849407196045 -6.993969917297363 3.5176963806152344
-3.9980087280273438 -1.085111379623413 -0.796923816204071
-5.457404613494873 3.5031871795654297 0.03373071178793907
-6.196557998657227 -2.7757487297058105 0.4544352889060974
-7.588173866271973 1.6551823616027832 1.2465095520019531
-4.255554676055908 -0.8093276023864746 -0.6503337025642395
-7.83233642578125 3.7006561756134033 2.832038164138794
-8.440258026123047 -0.7578762769699097 1.7314934730529785
-14.550834655761719 1.203712821006775 6.98883056640625
-6.139317512512207 -2.022660970687866 0.4218560457229614
-5.079038143157959 2.6357600688934326 -0.18162697553634644
-11.390460014343262 -4.988448619842529 3.410672903060913
-14.60543441772461 -6.258086681365967 5.240555286407471
-7.970550537109375 -2.201443672180176 1.4641468524932861
-10.242094993591309 0.07597429305315018 5.07277774810791
-5.395923614501953 1.399299144744873 -0.001264000660739839
-18.482778549194336 -2.7658987045288086 12.600869178771973
-10.964219093322754 -1.469172716140747 3.1680684089660645
-10.578433990478516 -0.09194740653038025 2.9484899044036865
-4.551858425140381 1.3238157033920288 -0.48168522119522095
-5.732082366943359 3.0889885425567627 0.19006961584091187
-4.2575531005859375 -2.005540609359741 -0.6491974592208862
-17.991836547851562 -10.453007698059082 7.168008327484131
-7.465353012084961 -4.263862609863281 1.1766005754470825
-7.468350410461426 -1.1785955429077148 1.1783084869384766
-9.763891220092773 5.933506011962891 2.4848756790161133
-11.93883228302002 -7.559963703155518 3.722791910171509
-9.53796672821045 1.2638262510299683 2.3562827110290527
-17.926000595092773 -10.25800895690918 7.1305365562438965
-4.750677585601807 0.38857364654541016 -0.36852195858955383
-9.359439849853516 -2.1458334922790527 2.2546677589416504
-8.255926132202148 2.725111246109009 1.6265774965286255
-8.848179817199707 1.451323390007019 3.2387189865112305
-9.447741508483887 1.3535301685333252 2.304929494857788
-9.308990478515625 0.6581318378448486 3.052945137023926
-8.845370292663574 2.4161691665649414 1.962075114250183
-13.437885284423828 3.8164730072021484 7.758950233459473
-8.802963256835938 3.6783878803253174 3.3844950199127197
-3.987811326980591 0.9271848201751709 -0.8027265071868896
