-11.813952445983887 -1.1283984184265137 2.8518152236938477
-5.587940216064453 2.9076578617095947 -0.6918735504150391
-12.579345703125 5.109218597412109 3.2874608039855957
-12.254610061645508 5.292379379272461 3.1026294231414795
-20.46023178100586 -9.211936950683594 7.7730560302734375
-14.374038696289062 -1.414960503578186 5.285579204559326
-18.847213745117188 6.171141624450684 6.854975700378418
-15.381293296813965 0.6677953004837036 6.31113338470459
-8.491987228393555 0.3245961666107178 0.9610352516174316
-5.579330921173096 1.0803682804107666 -0.6967723369598389
-5.908177375793457 -1.0145747661590576 -0.5096033215522766
-6.548771381378174 -1.8623788356781006 -0.14499318599700928
-6.009169578552246 3.0511314868927 -0.4521193206310272
-4.833898067474365 -1.3336560726165771 -1.1210558414459229
-8.025110244750977 4.406551837921143 0.695303201675415
-18.511310577392578 5.1103363037109375 6.6637864112854
-5.139063358306885 -0.6132504940032959 -0.9473646283149719
-15.237812042236328 9.163044929504395 4.800595760345459
-12.956464767456055 2.720673084259033 3.5021064281463623
-12.132895469665527 3.4733211994171143 3.033352851867676
-17.650318145751953 -9.957620620727539 6.1737236976623535
-5.000154972076416 -2.191584825515747 -1.0264264345169067
-19.294841766357422 9.235844612121582 7.1097540855407715
-6.565295219421387 -4.079386234283447 -0.13559190928936005
-20.71916961669922 -6.957475185394287 7.920437812805176
-14.990391731262207 -0.6083649396896362 6.106319904327393
-9.310273170471191 5.064745903015137 1.426786184310913
-7.18533182144165 -0.5682756900787354 0.21732138097286224
-16.077804565429688 2.5778377056121826 9.489198684692383
-18.075777053833008 -9.746235847473145 6.415883541107178
-17.853729248046875 -9.898112297058105 6.2895002365112305
-12.427637100219727 -0.30828237533569336 3.2011094093322754
-15.521288871765137 4.697685718536377 4.961940765380859
-18.83430290222168 8.821430206298828 6.847627639770508
-13.191279411315918 -5.6502461433410645 3.6357524394989014
-19.541793823242188 5.005845546722412 7.25031042098999
-7.2160844802856445 3.685666799545288 0.23482635617256165
-14.569660186767578 -3.107243299484253 7.963778018951416
-11.157496452331543 -4.991689682006836 2.478175163269043
-20.958904266357422 10.154500961303711 8.05689525604248
-12.142770767211914 -6.368069648742676 3.038968801498413
-11.594056129455566 -1.2026286125183105 2.726656436920166
-4.124017715454102 -1.2724177837371826 -1.5251010656356812
-14.347997665405273 8.854239463806152 4.294135093688965
-7.941595554351807 3.663141965866089 0.6477701663970947
-10.004467964172363 -5.915449142456055 1.8219006061553955
-3.366882085800171 0.44092679023742676 -1.9560455083847046
-8.852463722229004 -4.188133716583252 1.1662087440490723
-14.225976943969727 3.344271183013916 4.224682331085205
-16.520296096801758 5.157202243804932 5.5305495262146
-16.017032623291016 0.4952404201030731 5.777142524719238
-16.106449127197266 1.6030930280685425 6.595512390136719
-14.540523529052734 -1.6271274089813232 4.7579450607299805
-4.1600775718688965 0.03238272666931152 -1.5045753717422485
-8.659261703491211 1.9025943279266357 1.0562453269958496
-7.164606094360352 -4.824950218200684 0.20552316308021545
-13.1666259765625 -5.973203182220459 3.6217217445373535
-13.836084365844727 -2.618358850479126 4.661427974700928
-8.33035945892334 0.3318145275115967 0.8690410852432251
-16.9973201751709 7.071471691131592 5.802061080932617
-14.6282958984375 -4.636152744293213 5.131513595581055
-13.566539764404297 -8.730308532714844 3.8493399620056152
-15.3355073928833 -3.4858312606811523 4.856195449829102
-3.6326630115509033 1.4297716617584229 -1.8047682046890259
-6.67051887512207 -2.3237040042877197 -0.0756983757019043
-14.090611457824707 -0.014756441116333008 4.147633075714111
-14.496003150939941 4.455397129058838 4.378373146057129
-12.935976028442383 -0.5747500658035278 3.490442991256714
-7.109102725982666 2.8490536212921143 0.17393508553504944
-18.75762176513672 4.383328437805176 6.803980350494385
-5.636985778808594 0.5158822536468506 -0.6639583110809326
-6.731909275054932 -0.4754645824432373 -0.040754809975624084
-10.176628112792969 -5.275964260101318 1.9198883771896362
-13.880131721496582 -6.523802280426025 4.027830600738525
-17.427377700805664 6.241277694702148 6.046839714050293
-19.75190544128418 9.652429580688477 7.369904041290283
-15.656482696533203 8.015275001525879 5.038890361785889
-10.2916841506958 -3.7101049423217773 1.9853768348693848
-12.947067260742188 0.7141053676605225 3.4967565536499023
-9.007180213928223 2.245574712753296 1.2542718648910522
-5.457547664642334 0.2954733371734619 -0.766088604927063
-16.500566482543945 -9.359915733337402 5.519314289093018
-15.982377052307129 0.016177479177713394 5.588186264038086
-14.176088333129883 -3.2399888038635254 7.7176032066345215
-13.728128433227539 -4.513844966888428 6.7181291580200195
-6.753546237945557 -1.4405624866485596 -0.02844136394560337
-7.6434478759765625 4.098896503448486 0.47807079553604126
-7.113397598266602 4.015065670013428 0.1763792186975479
-7.572056293487549 2.5877697467803955 0.43743786215782166
-6.662993431091309 3.9392249584198 -0.07997850328683853
-16.37727928161621 2.062833547592163 6.447971343994141
-17.043027877807617 -9.491092681884766 5.828071594238281
-17.771577835083008 -10.050169944763184 6.242741107940674
-14.61170482635498 -4.71016263961792 4.444223880767822
-11.763507843017578 -0.04619574546813965 2.8231046199798584
-16.800058364868164 4.101003646850586 5.689784526824951
-16.887983322143555 8.107316017150879 5.7398295402526855
-13.247631072998047 -6.461301326751709 3.667827606201172
-18.906612396240234 2.6800360679626465 6.888782024383545
-16.438709259033203 10.123445510864258 5.4841156005859375
-13.175949096679688 2.557565212249756 3.6270318031311035
-16.222261428833008 -8.099434852600098 5.360909938812256
-11.806517601013184 3.2820050716400146 2.847585678100586
-12.2726469039917 -2.687990427017212 3.112891912460327
-19.56580924987793 -10.829438209533691 7.263973236083984
-5.417959213256836 -0.5221669673919678 -0.7886239290237427
-15.135641098022461 -3.1815810203552246 4.742434978485107
-13.615498542785645 -3.397753953933716 3.8772084712982178
-20.142501831054688 5.2047038078308105 7.59221887588501
-16.515790939331055 2.7098917961120605 5.527985572814941
-12.818961143493652 -3.120896339416504 3.423839807510376
-19.00166130065918 -9.208683967590332 7.554615497589111
-9.429120063781738 4.44907283782959 1.4944320917129517
-16.181556701660156 1.729308009147644 6.335361003875732
-17.101806640625 6.520286560058594 5.8615312576293945
-14.662158012390137 -1.0252786874771118 5.308696269989014
-8.98269271850586 4.028127193450928 1.2403357028961182
-18.789026260375977 -9.341259956359863 6.821848392486572
-5.080324649810791 1.9165542125701904 -0.9807935953140259
-5.532365322113037 1.8606641292572021 -0.7235047817230225
-20.983867645263672 4.745855331420898 8.0711030960083
-17.706113815307617 8.196751594543457 6.2054901123046875
-15.114974975585938 -0.14272503554821014 5.680397033691406
-17.783113479614258 3.3347649574279785 7.21548318862915
-8.798348426818848 -5.707386493682861 1.13540780544281
-16.532943725585938 8.593668937683105 5.537752151489258
-4.380896091461182 0.21901345252990723 -1.3788915872573853
-6.900308609008789 -2.1354734897613525 0.055092792958021164
-14.358904838562012 -2.7344322204589844 4.300338268280029
-12.522974014282227 0.6821644306182861 3.255373477935791
-6.275542259216309 1.1194255352020264 -0.300507515668869
-7.217655658721924 -5.0379157066345215 0.23571637272834778
-12.908001899719238 -7.982108116149902 3.474517822265625
-15.671015739440918 1.966373324394226 5.047160625457764
-9.48974609375 6.125340461730957 1.5289390087127686
-14.318471908569336 -6.859340667724609 4.277321815490723
-15.40916633605957 2.8587028980255127 4.898123264312744
-3.710458755493164 -1.453963041305542 -1.7604907751083374
-4.794845104217529 2.395324945449829 -1.143282413482666
-12.952784538269043 7.134400844573975 3.500013589859009
-5.355958938598633 0.4797971248626709 -0.8239141702651978
-5.6062726974487305 -2.9556024074554443 -0.6814384460449219
-16.829059600830078 -10.394245147705078 5.70628547668457
-10.68221378326416 2.756840944290161 2.2076609134674072
-12.844749450683594 -2.8855040073394775 3.4385180473327637
-10.612810134887695 -7.170295238494873 2.1681530475616455
-13.292017936706543 -7.3857879638671875 3.69309139251709
-13.889792442321777 3.3323354721069336 4.0333333015441895
-8.922717094421387 -1.2340037822723389 1.2061964273452759
-18.007823944091797 3.3086273670196533 6.937485218048096
-10.800650596618652 4.875091075897217 2.2750725746154785
-18.604429244995117 8.616161346435547 6.716787815093994
-13.135313987731934 0.42266035079956055 3.6039023399353027
-15.011157035827637 3.87935209274292 4.671586513519287
-20.532970428466797 10.376896858215332 7.814464569091797
-5.9396443367004395 3.3706214427948 -0.49169179797172546
-6.200504779815674 2.1213343143463135 -0.34321707487106323
-18.779943466186523 -11.104657173156738 6.816678047180176
-10.659608840942383 5.474531650543213 2.1947946548461914
-10.287939071655273 -3.8975465297698975 1.9832450151443481
-14.031743049621582 -2.3614542484283447 5.0063796043396
-16.500247955322266 7.406162738800049 5.519141674041748
-7.032010555267334 -4.507887363433838 0.13005204498767853
-13.894538879394531 -0.24180233478546143 4.0360331535339355
-10.12077808380127 2.2598493099212646 1.8881033658981323
-5.89583683013916 -3.295341730117798 -0.5166276693344116
-15.072290420532227 3.068133592605591 4.706381320953369
-5.709967136383057 3.7524592876434326 -0.6224181652069092
-6.6139607429504395 3.5198142528533936 -0.10788676887750626
-12.661104202270508 -3.5884592533111572 6.789377212524414
-16.906862258911133 6.41252326965332 5.750575065612793
-9.895113945007324 6.7585978507995605 1.75966477394104
-14.66181755065918 6.7743964195251465 4.472753524780273
-17.107830047607422 1.1018158197402954 7.311514377593994
-10.465705871582031 -5.828009128570557 2.084425210952759
-14.313230514526367 -1.5551680326461792 5.206977367401123
-16.689218521118164 -0.5463489890098572 5.62669563293457
-14.77695369720459 -0.7506369948387146 4.538280963897705
-5.896632671356201 0.6140382289886475 -0.5161755681037903
-12.991873741149902 -2.067474365234375 3.5222580432891846
-7.245726108551025 -4.664543151855469 0.2516944110393524
-18.24363899230957 3.996441125869751 6.511434555053711
-15.513379096984863 8.087115287780762 4.957440376281738
-14.978968620300293 -1.1849223375320435 4.653263568878174
-13.33626651763916 3.0637242794036865 3.7182812690734863
-11.216080665588379 -6.908547401428223 2.6772100925445557
-15.948095321655273 -7.898669242858887 5.204862117767334
-17.220998764038086 3.2371320724487305 5.929372787475586
-15.938613891601562 4.564605236053467 5.1994709968566895
-19.223926544189453 -9.308527946472168 7.902640342712402
-7.904912948608398 -0.8562362194061279 0.6268870234489441
-16.00298309326172 8.195480346679688 5.236110210418701
-14.342475891113281 -0.8742082118988037 4.290987014770508
-20.313365936279297 10.171283721923828 7.689472198486328
-13.314773559570312 -6.303534984588623 3.7060444355010986
-6.980163097381592 2.6644866466522217 0.10054635256528854
-17.07790756225586 2.9259285926818848 5.847929000854492
-16.561838150024414 7.207134246826172 5.554196357727051
-15.281055450439453 6.599724292755127 4.825206756591797
-13.040762901306152 -2.3762576580047607 6.7540130615234375
-7.33329963684082 1.8527500629425049 0.30154186487197876
-16.44515037536621 -9.026226997375488 5.4877729415893555
-6.458992004394531 3.275697946548462 -0.19609113037586212
-11.000283241271973 -7.0815935134887695 2.5543830394744873
-7.864441394805908 -3.5981321334838867 0.6038507223129272
-13.495955467224121 -2.595492124557495 5.26563835144043
-6.156299114227295 -3.7522194385528564 -0.36837929487228394
-13.671391487121582 -1.3070144653320312 6.841994762420654
-15.943262100219727 -1.2217295169830322 8.562631607055664
-14.433920860290527 5.330962657928467 4.3430376052856445
-10.15045166015625 1.3399367332458496 1.9049935340881348
-21.598230361938477 6.733303070068359 8.420783042907715
-16.413419723510742 5.939304828643799 5.469718933105469
-18.922042846679688 6.8078789710998535 6.897566318511963
-10.441570281982422 -4.825346946716309 2.0706872940063477
-7.473954200744629 -2.017188787460327 0.3815971612930298
-17.729042053222656 2.9776382446289062 6.218537330627441
-12.491142272949219 -3.521454095840454 6.630624771118164
-16.640544891357422 2.6507883071899414 7.045547008514404
-17.260969161987305 7.65225076675415 5.952123165130615
-8.23946475982666 1.81563401222229 0.8173087239265442
-10.401296615600586 -0.23276901245117188 2.047767400741577
-4.4084296226501465 -2.021502733230591 -1.3632214069366455
-20.62895965576172 7.424846649169922 7.869100570678711
-12.764303207397461 1.0832905769348145 3.392733097076416
-17.323856353759766 9.778626441955566 5.987918853759766
-8.513370513916016 4.018980979919434 0.9732100963592529
-16.500202178955078 6.190845489501953 5.519114971160889
-19.90558433532715 3.1438310146331787 7.457371711730957
-17.086505889892578 5.893361568450928 5.852823734283447
-14.450708389282227 0.820317268371582 4.352592468261719
-15.916655540466309 -3.4639906883239746 5.186970233917236
-1.7328252792358398 -0.11606710404157639 -1.029500961303711
-11.73398494720459 -4.565219879150391 2.8062987327575684
-19.431203842163086 5.300105094909668 7.187365531921387
-12.744644165039062 0.14414477348327637 3.3815412521362305
-15.13117790222168 -5.284043312072754 4.739894390106201
-11.2889404296875 7.237914085388184 2.552995204925537
-14.195558547973633 0.011891379952430725 7.53457498550415
-12.278645515441895 2.365381956100464 3.1163084506988525
-14.939785957336426 9.106761932373047 4.630965709686279
-6.3158278465271 -0.13009333610534668 -0.2775785028934479
-4.825896263122559 -2.173705816268921 -1.125609040260315
-7.427886009216309 -4.765141487121582 0.35537418723106384
-9.779715538024902 5.906020164489746 1.6939811706542969
-15.662028312683105 9.211283683776855 5.042047500610352
-9.946022033691406 2.9625802040100098 4.959109306335449
-12.671335220336914 -4.005958080291748 3.339815139770508
-12.738415718078613 7.874777317047119 3.3780014514923096
-13.0118989944458 -1.9017105102539062 3.533655881881714
-8.80648136138916 1.6525418758392334 1.1400408744812012
-9.306034088134766 3.9557363986968994 1.424373984336853
-17.21394157409668 -8.268603324890137 5.925350189208984
-17.313737869262695 10.542236328125 5.9821624755859375
-17.76140785217285 0.8960232734680176 8.256187438964844
-17.560665130615234 3.5303244590759277 7.257296562194824
-10.912666320800781 -2.064335823059082 2.338824510574341
-6.751074314117432 -4.6255011558532715 -0.029850373044610023
-13.647062301635742 -5.169593334197998 4.064114570617676
-5.328380107879639 3.176478147506714 -0.8396092653274536
-6.067418575286865 0.3653595447540283 -0.4189659059047699
-14.840069770812988 -0.2826133072376251 6.005007266998291
-17.61551856994629 2.2250428199768066 7.600478649139404
-13.210190773010254 -2.2609071731567383 6.554104328155518
-9.661650657653809 -4.470860481262207 1.626778483390808
-7.7770304679870605 -1.308964490890503 0.5541011691093445
-13.853157043457031 -2.000220775604248 5.80196475982666
-10.062994956970215 2.927379608154297 5.5667619705200195
-11.431913375854492 -1.5428109169006348 2.6343672275543213
-10.251137733459473 -6.46773624420166 1.9622972011566162
-4.490607738494873 -0.3347346782684326 -1.3164455890655518
-9.929149627685547 -0.03725910186767578 1.7790343761444092
-9.98294448852539 -4.79288387298584 1.8096497058868408
-15.482383728027344 -9.304224014282227 4.939790725708008
-16.643909454345703 1.1583101749420166 5.600908279418945
-8.655091285705566 3.4900314807891846 1.053871989250183
-7.380317687988281 -5.0083184242248535 0.32829973101615906
-16.85281753540039 9.413320541381836 5.7198166847229
-11.871292114257812 -3.623075246810913 2.8844494819641113
-11.915107727050781 -6.275482654571533 2.9093878269195557
-9.685900688171387 0.9850528240203857 1.64058256149292
-13.299734115600586 3.617194175720215 3.697488307952881
-5.692763805389404 -3.1502273082733154 -0.6322115659713745
-14.895790100097656 -0.330492228269577 5.817145824432373
-11.049817085266113 1.8871912956237793 2.4168894290924072
-11.015098571777344 5.863738536834717 2.397130250930786
-17.92015838623047 9.929213523864746 6.327319145202637
-4.4036993980407715 -2.492610216140747 -1.3659157752990723
-11.880263328552246 7.390210151672363 2.8895626068115234
-18.82067108154297 -10.524120330810547 6.839860916137695
-11.620729446411133 -6.672773838043213 2.9075262546539307
-4.951405048370361 -1.7860324382781982 -1.0541735887527466
-16.36226463317871 6.261560440063477 5.440603256225586
-16.941049575805664 9.70065975189209 5.770035743713379
-15.121252059936523 3.421035051345825 4.734249591827393
-13.968489646911621 -4.524355411529541 5.987206935882568
-20.238067626953125 5.509937286376953 7.646613597869873
-16.914705276489258 2.663895606994629 8.300918579101562
-13.86616039276123 6.249160289764404 4.01988410949707
-6.133270740509033 1.4414823055267334 -0.38148465752601624
-20.283306121826172 11.657764434814453 7.672364711761475
-9.123684883117676 4.81118631362915 1.320586085319519
-13.184426307678223 -3.3192830085754395 5.219766616821289
-4.7797746658325195 0.12090468406677246 -1.1518601179122925
-11.029031753540039 3.693258762359619 2.4050605297088623
-7.741710662841797 2.3294007778167725 0.5339990258216858
-11.713035583496094 -0.2613070011138916 2.7943761348724365
-13.6514253616333 -5.870760917663574 4.953434944152832
-18.386075973510742 1.4563783407211304 8.03905963897705
-5.455945014953613 -1.0343644618988037 -0.7670035362243652
-14.203208923339844 6.825165271759033 4.211723804473877
-4.112480640411377 -1.9491446018218994 -1.5316699743270874
-8.72376823425293 2.8210628032684326 1.0929611921310425
-14.373799324035645 -1.872187614440918 4.308816432952881
-13.022056579589844 -2.410203695297241 7.045700550079346
-16.263334274291992 6.0095367431640625 5.384294509887695
-13.608087539672852 -8.386163711547852 3.8729896545410156
-10.211629867553711 1.5221283435821533 1.9398152828216553
-11.262825012207031 -0.872560977935791 2.5381267070770264
-8.278886795043945 -0.4843170642852783 0.839744508266449
-13.289419174194336 1.0909531116485596 3.6916162967681885
-6.474846363067627 -1.5407359600067139 -0.18707062304019928
-10.429228782653809 -4.07394552230835 2.063664674758911
-9.732954978942871 5.624306678771973 1.6673661470413208
-7.896721363067627 0.9535105228424072 0.6222281455993652
-8.762750625610352 1.106060266494751 1.1151498556137085
-4.2077436447143555 -0.3690187931060791 -1.4774478673934937
-12.703689575195312 -3.7401037216186523 6.718173027038574
-6.107494354248047 -2.835523843765259 -0.3961586654186249
-15.736830711364746 -0.8076591491699219 6.53117561340332
-21.136871337890625 6.316039562225342 8.15818977355957
-5.665774345397949 -0.3647010326385498 -0.6475714445114136
-11.871686935424805 -5.04705810546875 2.8846755027770996
-11.239526748657227 -3.591963052749634 2.524866819381714
-15.955848693847656 5.491234302520752 5.209281921386719
-16.20887565612793 -8.841403007507324 5.353292465209961
-7.038507461547852 -1.3912360668182373 0.13375216722488403
-9.269194602966309 -0.691260814666748 1.4034032821655273
-13.59960651397705 4.620148658752441 3.868166923522949
-15.179415702819824 0.31133684515953064 6.194365978240967
-10.092519760131836 0.4907796382904053 1.872019648551941
-15.55763053894043 -4.8987345695495605 4.9826226234436035
-4.6921796798706055 2.103533983230591 -1.2017178535461426
-9.046307563781738 1.9273078441619873 1.2765427827835083
-7.464329242706299 -0.15570425987243652 0.3761199414730072
-15.852936744689941 3.1490299701690674 5.1507062911987305
-9.1809663772583 1.088425874710083 1.3531867265701294
-13.042645454406738 -4.007458686828613 6.31154727935791
-15.717909812927246 4.437941074371338 5.073851585388184
-20.409687042236328 -6.8194804191589355 7.744288444519043
-4.918685436248779 -2.7088801860809326 -1.0727989673614502
-17.08794403076172 9.59636402130127 5.853643417358398
-14.436038970947266 2.0298800468444824 4.344243049621582
-7.462456703186035 -3.3666059970855713 0.375051349401474
-13.482966423034668 3.8323276042938232 3.801778554916382
-15.202535629272461 5.286346912384033 4.780514240264893
-6.270432949066162 -1.2966043949127197 -0.3034166991710663
-18.85054588317871 -10.860128402709961 6.8568644523620605
-10.349467277526855 1.7917554378509521 2.0182690620422363
-12.851057052612305 0.5154759883880615 3.442110300064087
-13.219522476196289 2.848984956741333 3.6518328189849854
-17.259260177612305 4.929459571838379 5.951151371002197
-16.838260650634766 2.4954657554626465 9.413414001464844
-17.36022186279297 2.7567334175109863 6.008614540100098
-13.571097373962402 -6.018133640289307 3.9312543869018555
-5.8894782066345215 2.7975375652313232 -0.5202447772026062
-10.335721969604492 -0.4089832305908203 2.010444402694702
-12.035360336303711 1.4057385921478271 2.9778358936309814
-9.968281745910645 0.5985093116760254 1.8013074398040771
-4.456939220428467 1.8744394779205322 -1.3356107473373413
-8.00001049041748 1.9120686054229736 0.681016743183136
-14.880242347717285 -4.784973621368408 5.1248955726623535
-3.391322374343872 -0.5483629703521729 -1.9421342611312866
-7.087190628051758 -3.457265615463257 0.16146044433116913
-12.85057544708252 -2.6591217517852783 6.882034778594971
-7.889909744262695 2.4461066722869873 0.6183492541313171
-15.886228561401367 2.0049242973327637 5.16965389251709
-15.602996826171875 0.8024259209632874 6.13258171081543
-17.532302856445312 1.127310037612915 7.553112983703613
-13.755126953125 -2.4390172958374023 5.082068920135498
-15.946162223815918 1.0515965223312378 5.859217643737793
-17.583341598510742 2.3036515712738037 6.135610103607178
-19.44813346862793 4.0547776222229 7.197002410888672
-21.287294387817383 2.9477975368499756 8.243806838989258
-9.876214981079102 -3.1213510036468506 1.7489023208618164
-13.816446304321289 -3.4614813327789307 4.380499839782715
-5.7552947998046875 -1.0887224674224854 -0.5966221690177917
-13.759858131408691 0.04562997817993164 3.9593772888183594
-13.510590553283691 -1.5517598390579224 3.8174989223480225
-11.133877754211426 -0.33316898345947266 2.464733600616455
-9.631609916687012 -0.3954324722290039 1.60968017578125
-17.936506271362305 9.635615348815918 6.336625099182129
-9.22299861907959 0.7861497402191162 1.3771116733551025
-11.435775756835938 -4.462071895599365 2.6365652084350586
-16.280654907226562 0.7535369992256165 6.840707302093506
-13.815672874450684 -4.465267658233643 6.1108269691467285
-13.73259449005127 -2.812652349472046 4.895190238952637
-8.68527889251709 4.032675743103027 1.071056604385376
-15.410511016845703 7.561873435974121 4.898890018463135
-16.146072387695312 1.5097638368606567 6.107334136962891
-12.020203590393066 4.469557285308838 2.969210624694824
-15.120142936706543 -0.24412688612937927 5.537199020385742
-12.978964805603027 3.585240364074707 3.5149128437042236
-10.266022682189941 -4.58211088180542 1.9707709550857544
-10.778937339782715 6.485090732574463 2.2627134323120117
-11.56187629699707 -2.0018630027770996 2.7083401679992676
-6.456711769104004 0.4408528804779053 -0.19739019870758057
-6.184133529663086 -4.121031761169434 -0.3525375425815582
-13.2654447555542 -4.331972599029541 6.963109493255615
-6.7237653732299805 3.261983633041382 -0.04538929834961891
-17.882658004760742 3.3447093963623047 7.045910358428955
-13.720170974731445 1.9419200420379639 3.93678879737854
-15.621272087097168 9.665604591369629 5.018850326538086
-15.24662971496582 7.623298168182373 4.805613040924072
-10.624039649963379 2.168823719024658 2.174549102783203
-9.96395206451416 2.247300863265991 1.798843264579773
-13.04628849029541 -4.212075233459473 6.679405212402344
-13.119734764099121 6.148245334625244 3.595036745071411
-10.67878532409668 -4.925475597381592 2.205705165863037
-12.664727210998535 6.854645729064941 3.3360586166381836
-3.3549067974090576 -1.156170129776001 -1.9628607034683228
-18.956716537475586 -10.624527931213379 6.917292594909668
-3.375473737716675 1.1220195293426514 -1.9511518478393555
-8.376585006713867 -1.083470106124878 0.895350992679596
-14.752559661865234 -0.5711206197738647 4.524397373199463
-12.698005676269531 -5.286187648773193 3.354994535446167
-16.68854522705078 2.942340612411499 7.022705078125
-17.558998107910156 9.959907531738281 6.1217546463012695
-7.653560161590576 3.5325515270233154 0.48382696509361267
-9.28674602508545 6.394301414489746 1.413395881652832
-5.114080905914307 3.464707136154175 -0.9615822434425354
-9.55849552154541 3.1973001956939697 1.5680687427520752
-20.017704010009766 5.880143165588379 7.521187782287598
-14.572135925292969 1.0039045810699463 4.4217047691345215
-6.972389221191406 0.5902664661407471 0.09612015634775162
-12.45793628692627 -8.154109954833984 3.2183516025543213
-14.017624855041504 -4.370567798614502 5.248377799987793
-11.551787376403809 3.076500415802002 2.7026000022888184
-11.769956588745117 -2.1338720321655273 2.8267741203308105
-7.2113471031188965 -1.2404325008392334 0.2321285754442215
-11.682906150817871 -4.040090084075928 2.777226209640503
-13.192296028137207 -1.1998974084854126 3.6363332271575928
-5.226383686065674 1.3885810375213623 -0.8976626992225647
-13.481361389160156 3.0003488063812256 3.8008646965026855
-13.99089527130127 1.8876636028289795 4.090876579284668
-15.40038013458252 1.0793304443359375 4.893118858337402
-16.33830451965332 7.2995781898498535 5.426965236663818
-13.680988311767578 -2.6741855144500732 5.016746997833252
-14.540623664855957 -1.4282838106155396 4.975276470184326
-12.79886245727539 2.618382215499878 3.412403106689453
-13.366958618164062 -2.23686146736145 6.2844038009643555
-5.792595386505127 1.132472276687622 -0.5753916501998901
-10.815765380859375 2.027827024459839 2.283672571182251
-9.474746704101562 4.903061866760254 1.5204012393951416
-21.820615768432617 -8.245323181152344 8.547353744506836
-13.803396224975586 5.121922016143799 3.9841597080230713
-14.736557006835938 -9.127798080444336 4.515285015106201
-5.667922496795654 1.3860924243927002 -0.646348237991333
-4.457425594329834 2.718156099319458 -1.3353322744369507
-4.09735631942749 1.2146241664886475 -1.5402752161026
-11.533529281616211 3.571765899658203 2.6922078132629395
-15.297581672668457 -0.5464995503425598 4.8346099853515625
-18.73293685913086 -10.773221969604492 6.789924144744873
-9.738306045532227 1.9888927936553955 1.6704095602035522
-16.24105453491211 4.533666133880615 5.371613025665283
-7.914906024932861 2.920903444290161 0.6325785517692566
-9.773841857910156 -2.3809807300567627 1.6906344890594482
-17.94150161743164 0.8661861419677734 8.031965255737305
-16.22683334350586 1.8003454208374023 6.810072898864746
-20.16318130493164 -7.4090189933776855 7.6039838790893555
-17.559864044189453 10.714797019958496 6.122246742248535
-5.698544502258301 -2.8254358768463135 -0.628923773765564
-11.451257705688477 5.8770647048950195 2.6453819274902344
-6.540472030639648 -4.375488758087158 -0.14971846342086792
-12.579116821289062 1.3638637065887451 3.2873287200927734
-16.063045501708984 2.9287071228027344 5.270295143127441
-9.029000282287598 -5.497491359710693 1.2666893005371094
-14.364531517028809 -4.45508337020874 5.336419582366943
-5.859562873840332 3.6741297245025635 -0.5372719764709473
-15.091974258422852 2.7339677810668945 4.717585563659668
-9.881702423095703 -5.142775058746338 1.752025842666626
-12.749053955078125 5.664249420166016 3.384054660797119
-7.203106880187988 -0.2937133312225342 0.2274378538131714
-8.29404354095459 -4.758890628814697 0.848370373249054
-8.97769832611084 -1.5373280048370361 1.2374908924102783
-14.491462707519531 2.7277133464813232 4.37578821182251
-15.688244819641113 7.273589611053467 5.05696964263916
-15.69461727142334 3.241057872772217 5.060593605041504
-8.244772911071777 5.255331516265869 0.8203306794166565
-12.005881309509277 4.735053539276123 2.961059808731079
-8.59148120880127 5.5734052658081055 1.0176687240600586
-7.727198123931885 -4.210381507873535 0.5257366895675659
-2.1431961059570312 0.36214759945869446 -0.743841290473938
-12.199358940124512 -0.1839754581451416 3.0711803436279297
-12.694401741027832 -3.3322086334228516 3.3529441356658936
-9.505203247070312 2.2234747409820557 1.5377349853515625
-8.715099334716797 3.3015072345733643 1.0880279541015625
-16.833789825439453 2.8671703338623047 5.708982467651367
-11.495234489440918 -0.4383878707885742 2.670409679412842
-17.513376235961914 -10.730952262878418 6.095780372619629
-19.592973709106445 -11.292866706848145 7.279433727264404
-15.176397323608398 -9.04694652557373 4.765631675720215
-3.183685064315796 0.19087433815002441 -2.060316324234009
-13.689337730407715 -4.847649574279785 3.9192354679107666
-6.849689960479736 -3.03507924079895 0.02628282643854618
-11.186445236206055 -0.5488691329956055 2.4946534633636475
-14.090555191040039 -5.158364295959473 4.8317646980285645
-4.989313125610352 0.3106658458709717 -1.032598614692688
-7.987387657165527 -5.438011646270752 0.6738281846046448
-17.359882354736328 7.521286964416504 6.0084228515625
-8.538954734802246 4.313523292541504 0.9877703785896301
-12.491461753845215 -0.8320906162261963 3.2374377250671387
-13.353979110717773 -3.613434076309204 3.728358745574951
-4.0271525382995605 -1.0093104839324951 -1.5802353620529175
-6.201644420623779 3.3308680057525635 -0.34256720542907715
-9.41420841217041 -5.802084445953369 1.4859395027160645
-9.636967658996582 -2.822063684463501 1.6127296686172485
-10.171630859375 -4.01286506652832 1.91704523563385
-11.764974594116211 0.22240591049194336 2.823939561843872
-9.900043487548828 5.215284824371338 1.7624683380126953
-16.03430938720703 -5.764489650726318 5.253934383392334
-11.159626007080078 -6.197089672088623 2.479386806488037
-1.9175410270690918 -0.10912103205919266 -0.9014936685562134
-18.59982681274414 2.6236350536346436 6.714166641235352
-16.57746696472168 2.108920097351074 6.1418538093566895
-14.338210105895996 -2.2891669273376465 4.288558483123779
-10.120843887329102 -3.118220090866089 1.8881399631500244
-9.79108715057373 4.852244853973389 1.7004538774490356
-20.199525833129883 -7.076147079467773 7.624671459197998
-14.704867362976074 3.2190864086151123 4.497252464294434
-4.70474910736084 -0.7503788471221924 -1.1945641040802002
-16.7175350189209 -0.3814184367656708 5.642810821533203
-10.053435325622559 1.7042014598846436 1.84977388381958
-12.813103675842285 4.584474086761475 3.4205102920532227
-13.43374252319336 -2.304236888885498 6.0712890625
-6.340782642364502 0.8176729679107666 -0.26337486505508423
-18.262367248535156 10.49454116821289 6.522096157073975
-14.613770484924316 -1.0795783996582031 4.445401668548584
-12.435059547424316 -3.750340461730957 6.299775123596191
-9.77184772491455 -4.808556079864502 1.6894993782043457
-21.920948028564453 5.988665580749512 8.604466438293457
-9.354034423828125 3.645479440689087 1.4516929388046265
-5.777975559234619 -2.035313844680786 -0.5837123394012451
-13.614891052246094 -7.422155380249023 3.876861095428467
-7.793260097503662 3.127182722091675 0.5633412003517151
-13.782217025756836 2.31154465675354 3.9721035957336426
-10.907021522521973 -7.215366840362549 2.3356082439422607
-15.125702857971191 7.531180381774902 4.736783981323242
-12.379764556884766 -2.8483104705810547 3.1738603115081787
-16.4660587310791 5.576015472412109 5.49968147277832
-10.948858261108398 2.511443614959717 2.3594272136688232
-12.26657772064209 -4.978696346282959 3.109435796737671
-12.804460525512695 3.767829418182373 3.4155893325805664
-7.801076889038086 5.301207542419434 0.5677904486656189
-12.218278884887695 5.628049373626709 3.0819499492645264
-7.467006206512451 0.10322213172912598 0.3776435852050781
-15.24023723602295 -9.297933578491211 4.801967144012451
-12.562854766845703 5.426281452178955 3.278074264526367
-9.359586715698242 -0.43418335914611816 1.454852819442749
-14.745414733886719 -0.6164695024490356 5.79114294052124
-12.085134506225586 2.697361469268799 3.0061681270599365
-11.917771339416504 2.1797947883605957 2.9109089374542236
-13.808528900146484 -5.775382041931152 5.046768665313721
-9.496715545654297 5.966057777404785 1.5329058170318604
-9.648638725280762 -1.0353999137878418 1.619372844696045
-12.541665077209473 -7.624554634094238 3.266007661819458
-6.684276580810547 3.02396559715271 -0.06786544620990753
-13.948087692260742 -3.106266736984253 4.066511154174805
-16.824819564819336 3.2323367595672607 5.703876972198486
-12.330007553100586 -6.5003252029418945 3.1455390453338623
-11.723057746887207 0.9967765808105469 2.8000807762145996
-17.565948486328125 2.6462512016296387 7.228085517883301
-7.90532922744751 3.4578611850738525 0.6271276473999023
-16.333707809448242 3.370061159133911 7.1060967445373535
-7.804687023162842 2.1152212619781494 0.5698437094688416
-5.70031213760376 -1.5367820262908936 -0.6279155611991882
-17.540666580200195 8.557425498962402 6.111321449279785
-16.96828269958496 -10.450389862060547 5.785526275634766
-14.809672355651855 3.905970811843872 4.556905746459961
-13.2029447555542 -0.46197962760925293 3.642395257949829
-8.331212997436523 -0.17989754676818848 0.8695279955863953
-15.784204483032227 -8.233901977539062 5.111580848693848
-19.49075698852539 -7.770898342132568 7.22125768661499
-9.12350845336914 -1.4700067043304443 1.3204818964004517
-9.789695739746094 -6.127263069152832 1.699656367301941
-8.910969734191895 -0.10607409477233887 1.199511170387268
-13.780599594116211 0.9551728963851929 3.9711825847625732
-15.509602546691895 2.5456302165985107 4.955287456512451
-13.893074035644531 -2.358818531036377 4.03519868850708
-6.68535041809082 -1.6817247867584229 -0.06725680083036423
-17.858078002929688 -5.936437606811523 6.291977882385254
-17.237104415893555 -10.615951538085938 5.938532829284668
-11.948054313659668 3.765831708908081 2.928145170211792
-7.028029441833496 -0.25426697731018066 0.12778910994529724
-13.094789505004883 -2.8694944381713867 5.933506011962891
-17.407716751098633 -0.8985924124717712 6.035646438598633
-16.040061950683594 8.775126457214355 5.257214546203613
-17.016441345214844 10.507513999938965 5.812946796417236
-4.888654708862305 3.2703216075897217 -1.0898890495300293
-11.448320388793945 7.211067199707031 2.643709897994995
-6.800179481506348 -0.23592400550842285 -0.0018980256281793118
-2.1848044395446777 -0.09604045003652573 -0.7162715196609497
-8.086999893188477 2.979602098464966 0.7305296063423157
-6.347630500793457 3.412702798843384 -0.2594766616821289
-8.730790138244629 4.371861457824707 1.096959114074707
-16.559057235717773 1.4781467914581299 5.552610397338867
-17.003278732299805 9.235095977783203 5.805454254150391
-4.388822078704834 2.181304693222046 -1.374380111694336
-10.660436630249023 6.327438831329346 2.1952669620513916
-13.139778137207031 -7.2469635009765625 3.6064391136169434
-16.084640502929688 -1.2503552436828613 8.276378631591797
-8.660511016845703 4.752496719360352 1.0569583177566528
-8.943842887878418 4.562620639801025 1.218223214149475
-9.01258373260498 5.173049449920654 1.2573494911193848
-9.031036376953125 0.17103886604309082 1.2678484916687012
-14.538972854614258 -4.819004058837891 6.124732971191406
-15.794142723083496 0.4734494090080261 5.361641883850098
-12.73000431060791 -0.22509384155273438 3.373208999633789
-8.286810874938965 4.3833818435668945 0.8442582488059998
-19.769670486450195 6.036273956298828 7.380014419555664
-14.34122085571289 3.9480741024017334 4.290275573730469
-19.875730514526367 -7.591391086578369 7.440373420715332
-5.3645830154418945 -2.4285171031951904 -0.8190053701400757
-13.875115394592285 4.608912944793701 4.024980068206787
-10.84056282043457 -1.1983411312103271 2.2977864742279053
-4.0645647048950195 2.190190076828003 -1.5589401721954346
-17.47357749938965 3.570286512374878 7.03746223449707
-11.044780731201172 6.5427961349487305 2.414025068283081
-18.505535125732422 2.9227118492126465 7.2555131912231445
-16.41286277770996 1.3237183094024658 5.754431247711182
-13.940959930419922 1.4118900299072266 4.062455654144287
-19.248779296875 11.430907249450684 7.083538055419922
-13.178536415100098 1.2160394191741943 3.6285035610198975
-15.779457092285156 -4.77732515335083 5.108879566192627
-13.599400520324707 -3.1679317951202393 4.932948112487793
-9.62173843383789 5.717513561248779 1.6040658950805664
-12.936705589294434 -3.7449991703033447 5.55270528793335
-7.404855251312256 2.42700457572937 0.34226924180984497
-11.984647750854492 -0.12404370307922363 2.94897198677063
-4.793254852294922 -1.6246654987335205 -1.1441901922225952
-11.312885284423828 0.1842339038848877 2.5666205883026123
-15.716812133789062 5.3198442459106445 5.073227405548096
-6.85488224029541 0.7314865589141846 0.029238929972052574
-13.993877410888672 3.58780837059021 4.0925750732421875
-14.537333488464355 -2.09175443649292 5.598453044891357
-18.975082397460938 -9.780352592468262 6.936173439025879
-12.32963752746582 5.133594036102295 3.1453328132629395
-13.744913101196289 -3.971162796020508 4.544524669647217
-5.230132579803467 -0.11403107643127441 -0.895529568195343
-6.243668556213379 1.8036763668060303 -0.3186487555503845
-7.959620475769043 -3.988835096359253 0.6580257415771484
-20.107789993286133 -6.684682846069336 7.572455883026123
-15.8700590133667 6.990268707275391 5.160452842712402
-9.603469848632812 2.6479408740997314 1.593666434288025
-6.650478839874268 -4.280851364135742 -0.08710508048534393
-9.389724731445312 -4.079845905303955 1.4720044136047363
-7.146687984466553 -2.994069814682007 0.1953253149986267
-10.177122116088867 2.970601797103882 1.9201749563217163
-10.05684757232666 -5.572765827178955 1.8517132997512817
-19.292621612548828 -10.310822486877441 7.108480930328369
-13.83819580078125 5.449056148529053 4.003966331481934
-18.14542579650879 5.167489528656006 6.455534934997559
-8.067071914672852 -3.2753710746765137 0.7191842794418335
-11.509703636169434 1.7830302715301514 2.678645610809326
-12.47230052947998 -6.632755279541016 3.226527452468872
-19.085128784179688 -11.032576560974121 6.990381240844727
-5.433004856109619 2.8868348598480225 -0.7800580263137817
-17.577930450439453 0.9181434512138367 8.52083683013916
-9.257006645202637 2.3814456462860107 1.3964672088623047
-8.132295608520508 4.533630847930908 0.7563123106956482
-17.863624572753906 -1.1855599880218506 6.295135498046875
-12.616178512573242 3.953670024871826 3.308424472808838
-1.753671646118164 0.23395760357379913 -1.0419766902923584
-9.391430854797363 -5.589313507080078 1.472974419593811
-12.269535064697266 4.562999248504639 3.111124277114868
-7.1689934730529785 0.35864853858947754 0.2080230563879013
-14.294705390930176 -4.484348297119141 5.127880573272705
-15.29481315612793 -7.176661014556885 4.833030700683594
-18.823179244995117 10.28447437286377 6.8412981033325195
-15.794079780578613 1.2935137748718262 5.117204666137695
-20.0067195892334 7.850214958190918 7.514937400817871
-17.583232879638672 -0.7922995686531067 6.135544776916504
-13.765420913696289 -2.148224353790283 5.570157527923584
-14.057634353637695 5.409736633300781 4.128865718841553
-8.762707710266113 0.16993498802185059 1.1151241064071655
-15.804287910461426 -5.064465045928955 5.123013496398926
-20.164762496948242 -11.292346000671387 7.604881763458252
-20.857086181640625 10.682755470275879 7.998946189880371
-11.068018913269043 0.3870828151702881 2.4272499084472656
-10.234299659729004 -5.553534507751465 1.9527148008346558
-17.341217041015625 1.3736135959625244 7.4639997482299805
-16.641414642333984 2.8894269466400146 9.294014930725098
-14.727023124694824 -7.413041591644287 4.509859085083008
-7.650907039642334 -2.7075235843658447 0.4823140799999237
-16.52360725402832 1.0627411603927612 5.532433986663818
-8.559691429138184 -1.9418866634368896 0.9995721578598022
-19.357315063476562 10.352779388427734 7.145313739776611
-18.49414825439453 10.668131828308105 6.654020309448242
-9.430996894836426 3.8335578441619873 1.4954988956451416
-11.015530586242676 1.2350049018859863 2.3973772525787354
-14.18185806274414 2.967393636703491 4.199570178985596
-16.39183235168457 2.206939220428467 6.509506702423096
-7.886223793029785 -4.356124401092529 0.6162497997283936
-13.876152992248535 1.2186416387557983 4.025568962097168
-17.154518127441406 -0.8675082921981812 5.891532897949219
-15.324639320373535 9.42778205871582 4.850015163421631
-6.3153791427612305 0.35739684104919434 -0.2778353691101074
-10.820627212524414 -5.205292224884033 2.286437749862671
-12.906516075134277 -3.6665351390838623 3.473674774169922
-18.442977905273438 -11.05757999420166 6.624886989593506
-10.4713773727417 1.5475842952728271 2.0876564979553223
-12.990466117858887 -0.31498491764068604 3.5214574337005615
-14.815040588378906 -0.7551635503768921 5.835005760192871
-3.4727632999420166 0.7043960094451904 -1.8957798480987549
-16.99524688720703 2.7666337490081787 7.535667896270752
-8.439760208129883 5.881746768951416 0.9313134551048279
-15.942218780517578 2.1702070236206055 7.515194892883301
-14.2628812789917 -4.235150337219238 4.806447982788086
-12.3397798538208 2.514817476272583 3.1511037349700928
-14.386039733886719 -1.922830581665039 4.814372539520264
-16.244728088378906 -1.251105546951294 7.994119167327881
-12.757847785949707 4.073756217956543 3.3890602588653564
-11.426775932312012 5.493930339813232 2.6314470767974854
-20.567590713500977 3.8662102222442627 7.834168434143066
-14.019415855407715 -1.253174066543579 4.107109546661377
-8.644038200378418 -1.1229722499847412 1.0475795269012451
-12.08882999420166 4.113959789276123 3.008269786834717
-10.604761123657227 -0.4520742893218994 2.163573980331421
-12.258679389953613 -2.2498888969421387 3.104942798614502
-13.574311256408691 -0.8190648555755615 3.8537676334381104
-8.1152925491333 0.4656498432159424 0.7466318011283875
-10.617358207702637 3.62416410446167 5.6417622566223145
-14.68030071258545 -0.9825291633605957 5.758314609527588
-11.418068885803223 -3.555675745010376 2.626487970352173
-10.222185134887695 5.827321529388428 1.9458242654800415
-5.084038734436035 1.46089768409729 -0.9786808490753174
-14.355188369750977 -7.186351299285889 4.298220634460449
-17.349679946899414 3.521317481994629 6.002615451812744
-5.086983680725098 -2.4636361598968506 -0.9770079255104065
-16.631250381469727 0.6511169075965881 7.078330039978027
-17.317798614501953 2.257180690765381 5.984467506408691
-20.459449768066406 9.139527320861816 7.772622108459473
-8.093698501586914 5.437304496765137 0.7343429923057556
-13.088850021362305 -1.3396738767623901 3.5774548053741455
-9.764666557312012 -5.609490871429443 1.685411810874939
-7.0774993896484375 3.6328117847442627 0.15594696998596191
-7.358147144317627 -4.374161243438721 0.3156810998916626
-3.9015767574310303 1.0574758052825928 -1.6517084836959839
-7.315565586090088 -4.051580429077148 0.29144537448883057
-9.863563537597656 5.557151794433594 1.7417058944702148
-13.675339698791504 -3.8947503566741943 3.9112682342529297
-14.59029769897461 9.013264656066895 4.432046413421631
-16.91164207458496 -0.19452069699764252 5.753293991088867
-9.86377239227295 -5.337327003479004 1.7418204545974731
-8.19450569152832 -1.8703219890594482 0.7917167544364929
-4.478872776031494 0.8283312320709229 -1.3231260776519775
-7.517753601074219 3.4689137935638428 0.4065289795398712
-20.557262420654297 6.9414591789245605 7.828292369842529
-16.771955490112305 -0.07288963347673416 5.67378568649292
-14.311511993408203 5.087095260620117 4.2733659744262695
-10.035161972045898 6.011394023895264 1.8393772840499878
-9.31842041015625 -2.6407124996185303 1.4314208030700684
-8.845755577087402 -3.8620412349700928 1.1623908281326294
-19.124521255493164 -8.861895561218262 7.654263019561768
-10.185081481933594 3.1557302474975586 5.208645820617676
-15.803437232971191 -5.5913238525390625 5.122527122497559
-15.535013198852539 3.1722114086151123 4.969751834869385
-11.999091148376465 0.8683152198791504 2.9571926593780518
-15.570636749267578 6.791966438293457 4.990030765533447
-19.749923706054688 4.786400318145752 7.368772029876709
-13.229924201965332 0.20829272270202637 3.6577510833740234
-16.646331787109375 -8.409034729003906 5.602282524108887
-7.820450305938721 -4.733434677124023 0.5788121819496155
-20.244094848632812 4.1617751121521 7.650042533874512
-8.84121036529541 -3.0423731803894043 1.1598033905029297
-3.764113664627075 -0.7394459247589111 -1.7299500703811646
-16.31557273864746 1.7658114433288574 5.414025783538818
-13.432252883911133 -4.429811954498291 3.772909164428711
-5.457622051239014 -1.3564894199371338 -0.7660485506057739
-17.134052276611328 2.494089126586914 5.879884719848633
-15.394420623779297 -1.1377893686294556 6.336283206939697
-8.807588577270508 1.8278110027313232 1.1406702995300293
-8.949005126953125 1.3465406894683838 1.2211610078811646
-13.417720794677734 -8.638185501098633 3.7646350860595703
-15.5023193359375 3.4816575050354004 4.951143264770508
-3.251561164855957 -0.7278234958648682 -2.0216822624206543
-16.796863555908203 3.4781548976898193 7.545799732208252
-4.016448974609375 -1.164910078048706 -1.5863265991210938
-17.55089569091797 4.602099418640137 6.117142200469971
-12.193350791931152 -0.3659377098083496 3.0677595138549805
-15.192100524902344 5.5938191413879395 4.774575710296631
-4.611064434051514 -1.4944899082183838 -1.247887372970581
-14.128652572631836 -7.414247989654541 4.16928243637085
-11.001985549926758 2.775348424911499 2.3896663188934326
-14.20022964477539 -0.552467942237854 4.210023880004883
-6.879424095153809 3.799368143081665 0.04320752993226051
-16.04912757873535 -9.959798812866211 5.262366771697998
-14.488981246948242 -0.8935452103614807 5.8138275146484375
-12.202494621276855 3.6071319580078125 3.0729668140411377
-16.623064041137695 8.456720352172852 5.589045524597168
-11.253631591796875 4.500217914581299 2.532898187637329
-12.920412063598633 -1.152434229850769 3.4815850257873535
-12.802701950073242 4.333225250244141 3.4145889282226562
-8.939188957214355 -5.118898868560791 1.2155702114105225
-7.435383319854736 0.40984368324279785 0.35964497923851013
-10.735335350036621 -6.334957599639893 2.237891912460327
-10.593524932861328 -1.2140984535217285 2.1571784019470215
-9.903474807739258 -3.9978466033935547 1.7644182443618774
-9.781791687011719 0.8306849002838135 1.6951615810394287
-6.111294269561768 2.0016114711761475 -0.3939950168132782
-5.047051906585693 -1.5332205295562744 -0.9997338056564331
-16.262956619262695 1.954787254333496 6.511448383331299
-14.637064933776855 -3.7636046409606934 4.458658695220947
-8.852149963378906 2.130115270614624 1.166033148765564
-15.160849571228027 3.919731855392456 4.756785869598389
-19.19381332397461 3.959825038909912 7.052247047424316
-16.864423751831055 3.382087469100952 5.726420879364014
-3.598385810852051 -1.3648154735565186 -1.824283480644226
-18.811208724975586 8.159440040588379 6.834481716156006
-14.516865730285645 7.742170333862305 4.390249252319336
-17.34180450439453 5.407679080963135 5.998133659362793
-10.125149726867676 -0.2676119804382324 1.8905913829803467
-20.057302474975586 -7.714544296264648 7.543719291687012
-12.54051399230957 1.514681100845337 3.265357494354248
-14.708706855773926 7.457633018493652 4.499441623687744
-18.11569595336914 4.910044193267822 6.4386138916015625
-8.918807983398438 0.6649725437164307 1.2039717435836792
