-4.546971321105957 -2.5046801567077637 1.4471571445465088
-7.604560852050781 -2.5639455318450928 4.131809711456299
-11.627203941345215 2.790802001953125 2.6820082664489746
-13.539990425109863 0.07467712461948395 6.275094509124756
-18.000293731689453 -1.5849522352218628 11.112354278564453
-14.862319946289062 -3.8372929096221924 8.242170333862305
-7.710253715515137 -0.5434796810150146 0.4525761306285858
-13.44941234588623 -1.3656659126281738 3.9500296115875244
-14.710333824157715 -4.050241947174072 7.716597557067871
-20.2283878326416 6.682849884033203 10.866028785705566
-14.67791748046875 3.9175634384155273 6.204579830169678
-10.958538055419922 -0.8105134963989258 2.301417827606201
-10.047168731689453 -2.088348627090454 1.7826884984970093
-13.201324462890625 -1.0790828466415405 4.505987644195557
-11.959698677062988 -0.3294694423675537 2.8712549209594727
-18.4693546295166 7.904150009155273 6.576391220092773
-8.326473236083984 -1.5767645835876465 0.8033112287521362
-12.62570571899414 -2.2894701957702637 3.7330291271209717
-12.234518051147461 -5.559611797332764 6.448450088500977
-9.903828620910645 5.74197244644165 1.7011066675186157
-13.404302597045898 0.8623524308204651 3.6934874057769775
-10.660560607910156 -0.5064684748649597 2.1318166255950928
-19.282133102416992 10.004731178283691 7.039007186889648
-14.531245231628418 3.773193120956421 4.687279224395752
-15.000619888305664 4.216767311096191 5.468052864074707
-19.802032470703125 -0.3093463182449341 12.694718360900879
-14.66135025024414 2.816962480545044 4.776391506195068
-5.936347484588623 2.5101749897003174 -0.5570859313011169
-14.369768142700195 3.080087661743164 4.595359802246094
-13.155525207519531 2.036113977432251 5.692951202392578
-7.2169508934021 1.0676376819610596 0.1718001812696457
-7.111376762390137 2.3085687160491943 0.11171158403158188
-3.626645088195801 -2.38570499420166 0.8776602745056152
-20.060503005981445 -0.12044253200292587 12.943710327148438
-13.362425804138184 5.380602836608887 3.669654130935669
-2.62107253074646 -0.5347880721092224 -1.4053370952606201
-14.917232513427734 5.257576942443848 5.021585464477539
-8.183056831359863 0.01028299331665039 0.7216827869415283
-14.446578025817871 -4.718801021575928 5.6915717124938965
-14.797532081604004 5.18695068359375 4.486481189727783
-12.952373504638672 -2.596604347229004 4.124094486236572
-14.140761375427246 3.074652671813965 4.1126627922058105
-14.314453125 -4.633378505706787 6.241653919219971
-12.69568920135498 4.22747802734375 3.290163993835449
-11.60625171661377 -3.867861032485962 2.670079231262207
-7.494077682495117 3.7329800128936768 0.3295357823371887
-13.117197036743164 -0.9243754744529724 4.5039520263671875
-11.727434158325195 6.2860870361328125 2.73905873298645
-13.694642066955566 0.8438377976417542 3.8941826820373535
-14.02470588684082 -4.287248134613037 8.039033889770508
-14.022972106933594 3.6610753536224365 6.500953674316406
-6.431471824645996 0.9416892528533936 -0.27527472376823425
-18.832712173461914 8.162525177001953 7.828502655029297
-3.909611225128174 1.1237213611602783 -1.7106558084487915
-12.954670906066895 1.1053686141967773 5.425153732299805
-12.931525230407715 -1.0908902883529663 3.5222465991973877
-7.066412448883057 2.609600305557251 0.08611824363470078
-4.158007621765137 -2.029791831970215 1.1782021522521973
-3.93558931350708 -1.7884918451309204 -0.1707543134689331
-9.737598419189453 6.188012599945068 1.606493353843689
-13.338544845581055 -1.3313632011413574 4.246076583862305
-13.334200859069824 2.0463738441467285 5.7104644775390625
-13.265378952026367 -2.247481107711792 3.6144139766693115
-18.48827362060547 6.565206050872803 8.09331226348877
-13.060904502868652 -5.749930381774902 4.288164138793945
-3.4309442043304443 -1.4540882110595703 -0.5940639972686768
-14.031493186950684 0.21429994702339172 4.600019454956055
-10.35151481628418 -1.0841530561447144 1.9559152126312256
-14.523971557617188 2.0999228954315186 4.330776214599609
-6.516013145446777 3.9633548259735107 -0.22715391218662262
-13.1776704788208 -2.8007612228393555 3.56449294090271
-14.164504051208496 2.468536615371704 6.438520431518555
-18.878755569458008 9.197588920593262 8.452620506286621
-10.752635955810547 -3.9161899089813232 2.184222459793091
-13.658036231994629 2.5086891651153564 5.604032516479492
-12.220869064331055 1.7664976119995117 3.0199062824249268
-11.665481567382812 -0.45140498876571655 2.7037930488586426
-17.201210021972656 -3.3498096466064453 5.947349548339844
-17.858030319213867 9.210897445678711 6.228442192077637
-6.529484272003174 1.7316277027130127 -0.21948812901973724
-7.785614013671875 1.2830376625061035 0.4954688251018524
-13.56989860534668 -0.7472728490829468 4.343540191650391
-12.78977108001709 -5.133159637451172 7.060204982757568
-13.54571533203125 1.857939600944519 5.981059551239014
-14.456894874572754 2.3130292892456055 6.655217170715332
-13.50448989868164 -0.26920220255851746 4.8072967529296875
-12.978960990905762 5.098161220550537 3.451395034790039
-13.716182708740234 1.0700931549072266 6.798063278198242
-7.528493404388428 0.06675243377685547 0.3491225242614746
-10.860973358154297 0.7107250094413757 2.245887041091919
-3.4163858890533447 -0.6728063225746155 -0.6290206909179688
-5.342784404754639 1.1492962837219238 -0.8949283361434937
-13.650060653686523 0.6005083918571472 3.833366632461548
-13.65142822265625 0.3117012679576874 4.2258782386779785
-12.63124942779541 -5.484885215759277 3.2534825801849365
-17.794370651245117 -1.5649434328079224 11.548611640930176
-9.013897895812988 -0.06576132774353027 1.1945785284042358
-13.245375633239746 -0.7379823327064514 3.6030287742614746
-10.642678260803223 4.492362022399902 2.1216421127319336
-13.319659233093262 -0.5624507069587708 5.139931678771973
-14.44637680053711 2.9998538494110107 4.647566795349121
-13.3996000289917 0.13868772983551025 3.6908106803894043
-13.50209903717041 -5.601865768432617 4.064115047454834
-4.6166510581970215 2.247403860092163 -1.3082250356674194
-19.110614776611328 4.136050701141357 9.420348167419434
-12.761086463928223 4.83805513381958 3.3273866176605225
-8.441702842712402 0.30157721042633057 0.8688988089561462
-9.704124450683594 -0.7669675350189209 1.5874366760253906
-2.4615273475646973 -0.5419220328330994 -1.444248914718628
-9.537166595458984 -2.971226930618286 1.9576464891433716
-2.8906240463256836 -0.8431953191757202 -1.3605730533599854
-8.362934112548828 3.5805575847625732 0.8240672945976257
-16.598079681396484 -2.2739510536193848 11.011445045471191
-9.371790885925293 1.1473917961120605 1.398281455039978
-2.5318212509155273 -0.22680462896823883 -1.5095455646514893
-12.816048622131348 0.050328344106674194 3.3586671352386475
-4.024940013885498 -2.161409378051758 0.6424775123596191
-17.983736038208008 -2.204939603805542 8.833806037902832
-11.538537979125977 1.445995807647705 2.6315407752990723
-8.358680725097656 3.9105114936828613 0.8216453194618225
-13.001893043518066 -0.027232931926846504 4.223076343536377
-19.08574676513672 -0.8429794311523438 11.96695613861084
-15.269326210021973 9.645783424377441 4.755015850067139
-13.143892288208008 0.19041955471038818 6.072018623352051
-18.283367156982422 -2.361940860748291 7.72300386428833
-12.500103950500488 -4.467564105987549 3.1788368225097656
-13.463430404663086 -2.616049289703369 4.048580169677734
-6.5334906578063965 3.1626341342926025 -0.217206671833992
-9.47602367401123 1.8921200037002563 1.4576090574264526
-10.2743501663208 -2.3499326705932617 2.5348243713378906
-3.251729965209961 0.29398611187934875 -1.5186766386032104
-17.907451629638672 -1.5459153652191162 11.420768737792969
-17.074420928955078 -1.9227497577667236 11.481742858886719
-3.100571632385254 -1.1429392099380493 -0.4302380084991455
-21.003761291503906 3.677076816558838 11.784157752990723
-15.145528793334961 3.528097629547119 5.0081610679626465
-19.09560775756836 8.837165832519531 7.835240364074707
-3.3232433795928955 -1.077927827835083 -0.14294767379760742
-18.63242530822754 7.235646724700928 7.916247367858887
-13.292173385620117 1.6827269792556763 6.220973014831543
-3.5948503017425537 1.5088469982147217 -1.8898085355758667
-8.147462844848633 -2.987032413482666 3.3578667640686035
-4.120569705963135 -1.9839811325073242 1.5521671772003174
-10.685715675354004 1.1570667028427124 2.1461355686187744
-4.996567249298096 2.480208396911621 -1.0919861793518066
-19.541236877441406 8.440055847167969 8.502172470092773
-4.84646463394165 1.5041255950927734 -1.177420735359192
-12.952383995056152 0.7352632284164429 5.268411159515381
-13.555713653564453 0.37296155095100403 4.466709136962891
-12.296268463134766 -1.8453691005706787 3.06282114982605
-7.112675666809082 1.1065673828125 0.11245019733905792
-5.508579254150391 3.218825101852417 -0.8005609512329102
-14.2568359375 -4.227940082550049 7.851955890655518
-13.839790344238281 2.647341251373291 3.941356897354126
-19.180904388427734 -1.4772388935089111 9.439026832580566
-14.391738891601562 -4.122960090637207 8.005684852600098
-8.798487663269043 1.896355390548706 1.0719718933105469
-6.956288814544678 -0.16356945037841797 0.023437155410647392
-9.356117248535156 2.4015464782714844 1.389361023902893
-4.1791276931762695 -2.3670363426208496 1.3767595291137695
-9.831626892089844 2.818801164627075 1.6600098609924316
-13.296520233154297 0.2125922441482544 4.268821716308594
-12.885435104370117 -1.6888514757156372 3.582524538040161
-3.362804651260376 0.7664792537689209 -1.3775664567947388
-9.706247329711914 0.08250296115875244 1.5886454582214355
-11.814558029174805 3.809623956680298 2.7886457443237305
-3.7190849781036377 -2.1857261657714844 0.5303575992584229
-3.740358591079712 -1.7860627174377441 -1.8069909811019897
-2.6399245262145996 0.6742331981658936 -1.7363355159759521
-17.415990829467773 -2.499755859375 8.733966827392578
-3.2747702598571777 -0.805754542350769 -1.1342300176620483
-2.965914726257324 -1.2991682291030884 -0.5503362417221069
-3.202793836593628 -2.059868335723877 -0.9086008071899414
-15.107269287109375 -3.9267029762268066 7.479029655456543
-3.8023271560668945 -1.7649003267288208 0.37707269191741943
-3.4516243934631348 -0.8898225426673889 0.02805793285369873
-5.694006443023682 0.6911678314208984 -0.695022463798523
-11.107260704040527 5.107126235961914 2.386070489883423
-19.259878158569336 9.22076416015625 8.15661334991455
-13.10680866241455 -0.8282825350761414 4.7051215171813965
-11.283553123474121 -2.3198752403259277 2.4864087104797363
-12.814127922058105 0.9509058594703674 4.99761438369751
-13.291091918945312 -0.003942370414733887 3.6290504932403564
-2.2606687545776367 -0.08712225407361984 -0.6151746511459351
-12.513341903686523 -5.489065647125244 6.221144199371338
-17.379716873168945 -2.4230756759643555 9.083106994628906
-18.97528076171875 9.079216957092285 9.345830917358398
-11.058004379272461 4.877623081207275 2.358034610748291
-10.939324378967285 4.317497253417969 2.290484666824341
-17.655231475830078 -1.5440118312835693 11.870979309082031
-19.97283363342285 8.458221435546875 9.565977096557617
-7.772584438323975 5.157836437225342 0.488055557012558
-17.896696090698242 -2.3834781646728516 8.322196006774902
-9.897375106811523 -1.9753557443618774 1.697429895401001
-3.6365272998809814 -1.9994450807571411 -0.18692469596862793
-12.886225700378418 7.544892311096191 3.3986144065856934
-11.189492225646973 2.5981132984161377 2.432873010635376
-17.047840118408203 -3.4315643310546875 5.912514686584473
-14.876867294311523 3.1380324363708496 4.823646545410156
-4.786404609680176 3.0061159133911133 -1.211605191230774
-19.19124984741211 8.457947731018066 10.127159118652344
-15.499815940856934 9.289313316345215 5.730500221252441
-7.764237403869629 -3.337062358856201 3.393169641494751
-13.699660301208496 0.6882415413856506 3.861598253250122
-9.837435722351074 5.388515949249268 1.663317322731018
-5.561151504516602 2.0876410007476807 -0.7706395387649536
-13.866661071777344 -4.339702129364014 8.121471405029297
-6.956804275512695 -3.872584342956543 2.802469253540039
-13.047063827514648 -2.7513482570648193 3.490154266357422
-16.996536254882812 -2.267219066619873 10.336438179016113
-16.45858383178711 -3.3033900260925293 7.424880027770996
-13.037959098815918 -1.3705759048461914 4.69579553604126
-19.04075050354004 -0.7850614786148071 12.261587142944336
-7.5773725509643555 -1.0294830799102783 0.376942902803421
-17.782424926757812 -2.2019970417022705 9.19844913482666
-14.01819133758545 -0.23220619559288025 5.248323440551758
-10.647693634033203 -2.07857346534729 2.124492883682251
-8.128351211547852 -3.1998767852783203 3.511655807495117
-16.67742919921875 -3.4003381729125977 6.679535865783691
-13.678746223449707 1.9380062818527222 5.604496955871582
-3.0528457164764404 1.0925954580307007 -1.2522060871124268
-13.78609848022461 1.9367743730545044 3.9107959270477295
-17.727651596069336 -1.7722681760787964 10.894164085388184
-7.885766506195068 -2.4130282402038574 4.668607711791992
-10.09641170501709 -1.2752931118011475 1.8107168674468994
-8.372730255126953 3.7340848445892334 0.8296434283256531
-8.015220642089844 3.747269868850708 0.626156747341156
-6.789351940155029 1.8852791786193848 -0.07157772779464722
-19.60002326965332 8.090956687927246 9.69736099243164
-9.51340103149414 1.1517542600631714 1.478883147239685
-12.628290176391602 -0.5891294479370117 3.251800298690796
-19.37725257873535 7.930600643157959 10.79222297668457
-10.866744041442871 1.7504931688308716 2.2491719722747803
-3.1793107986450195 -0.6431390047073364 -0.5764483213424683
-11.8634672164917 7.592257499694824 2.8164846897125244
-10.346639633178711 4.949955463409424 1.9531432390213013
-8.32497501373291 4.8423333168029785 0.8024625778198242
-10.51440715789795 3.677974224090576 2.0486323833465576
-8.078248977661133 4.265486717224121 0.6620321273803711
-10.641117095947266 5.531864166259766 2.120753049850464
-14.718509674072266 6.650303363800049 4.441504955291748
-12.794857025146484 -1.5558247566223145 4.31188440322876
-13.3682861328125 -4.930496692657471 3.6729848384857178
-7.19136381149292 -1.1053152084350586 0.15723519027233124
-14.368700981140137 -3.877779245376587 8.958741188049316
-14.536170959472656 6.6186957359313965 4.337721347808838
-10.212920188903809 -2.6136820316314697 2.4877655506134033
-8.662335395812988 1.4084229469299316 0.9944785833358765
-12.390950202941895 0.20135816931724548 3.116711378097534
-9.661293983459473 2.7860324382781982 1.5630611181259155
-13.605132102966309 -4.345617771148682 8.558951377868652
-4.97789192199707 2.1745808124542236 -1.1026153564453125
-13.123462677001953 -1.4045788049697876 4.950442790985107
-3.768284559249878 1.6235814094543457 -1.791094422340393
-14.77236270904541 1.9201674461364746 5.267568111419678
-4.182619094848633 -2.7714591026306152 1.0131629705429077
-5.046050548553467 2.833564519882202 -1.0638209581375122
-14.767334938049316 4.411317348480225 4.93613338470459
-3.2853102684020996 -1.1389247179031372 -0.3686521053314209
-14.203644752502441 1.6853854656219482 4.148454189300537
-18.169342041015625 7.379649639129639 6.405632495880127
-17.290019989013672 9.188234329223633 5.905145645141602
-10.75503921508789 3.6420533657073975 2.1855945587158203
-6.986704349517822 4.112857341766357 0.04075191915035248
-15.474365234375 9.399689674377441 5.306090354919434
-11.292364120483398 1.5693572759628296 2.491424560546875
-18.45560646057129 8.027410507202148 7.040073394775391
-7.991899490356445 -2.129467010498047 0.6128808259963989
-9.116378784179688 5.557459354400635 1.2529101371765137
-8.41055965423584 0.14269554615020752 0.8511723875999451
-19.12584114074707 4.021382808685303 9.478279113769531
-11.10297679901123 0.3421359360218048 2.383629560470581
-8.053962707519531 -3.2969329357147217 3.567972183227539
-8.365665435791016 1.5637788772583008 0.8256213665008545
-3.4488883018493652 -1.9435855150222778 0.862513542175293
-11.111956596374512 -5.067054748535156 2.388737916946411
-11.508605003356934 5.2899627685546875 2.6145055294036865
-13.637256622314453 1.0507668256759644 3.8260791301727295
-7.664531707763672 2.123257875442505 0.42655330896377563
-15.149393081665039 -4.150941848754883 6.570387363433838
-10.041045188903809 -0.45578598976135254 1.7792034149169922
-17.466405868530273 -1.9529963731765747 10.680461883544922
-14.554224014282227 3.566242218017578 4.3563127517700195
-14.557894706726074 8.527408599853516 4.350086688995361
-3.8434345722198486 -1.4701244831085205 0.03914344310760498
-20.27873420715332 5.739832878112793 10.870843887329102
-4.5874223709106445 -2.520496368408203 1.2512224912643433
-4.15828800201416 2.478738307952881 -1.5691145658493042
-15.617600440979004 7.311828136444092 4.953244686126709
-14.388731002807617 2.5557689666748047 4.323581218719482
-13.198482513427734 -5.509409427642822 4.941688537597656
-21.88428497314453 3.6884875297546387 11.17304801940918
-13.374287605285645 0.05018545314669609 3.8032310009002686
-14.088990211486816 8.092044830322266 4.083196640014648
-11.264677047729492 -1.1579314470291138 2.475663900375366
-10.384509086608887 -2.274444580078125 1.974693775177002
-12.963382720947266 -0.04140445590019226 3.44252610206604
-13.541019439697266 0.6092095375061035 3.846588373184204
-9.213221549987793 2.319673538208008 1.3080285787582397
-8.208520889282227 1.6825783252716064 0.7361775636672974
-13.79007339477539 0.8883793950080872 4.664461612701416
-17.78924560546875 -1.8656455278396606 10.43838882446289
-11.734050750732422 1.7151602506637573 2.7428219318389893
-13.431078910827637 0.21005356311798096 4.35755729675293
-15.935161590576172 -3.0147249698638916 9.418929100036621
-20.795513153076172 6.471505641937256 11.669587135314941
-13.48523998260498 0.06990417093038559 5.42903470993042
-12.178467750549316 3.1404969692230225 2.9957733154296875
-10.837381362915039 -0.19824790954589844 2.2324583530426025
-20.42654800415039 6.165195465087891 11.423371315002441
-13.83627986907959 8.060343742370605 3.939361572265625
-11.206555366516113 5.344053268432617 2.4425864219665527
-11.295575141906738 6.21056604385376 2.4932546615600586
-3.3241896629333496 -1.7322323322296143 -0.2488400936126709
-13.70569896697998 1.3064321279525757 3.865035057067871
-13.969388008117676 3.3274643421173096 4.015120506286621
-4.672494411468506 -2.8410322666168213 0.1348865032196045
-18.26251220703125 8.96609115600586 6.755189418792725
-3.609785795211792 -1.5576820373535156 -1.8813098669052124
-6.909557342529297 2.175658941268921 -0.0031591870356351137
-3.8383243083953857 1.5741331577301025 -1.7512296438217163
-8.525752067565918 -2.9123685359954834 0.9167360663414001
-12.04426097869873 2.2177069187164307 2.919386386871338
-14.425939559936523 2.2611052989959717 5.20013427734375
-12.036547660827637 -5.828543663024902 5.795267581939697
-19.675765991210938 -0.3774515390396118 12.66306209564209
-8.102511405944824 -3.0697667598724365 3.3031201362609863
-15.524587631225586 -4.40296745300293 4.90029764175415
-9.07165241241455 2.2692177295684814 1.227451205253601
-11.613882064819336 -1.7686676979064941 2.674421787261963
-14.367908477783203 -4.3283514976501465 4.241945743560791
-16.706470489501953 9.132512092590332 5.573002338409424
-21.930068969726562 2.3146190643310547 11.380852699279785
-3.1926655769348145 -1.386289119720459 -0.7510160207748413
-4.123476028442383 -1.3513453006744385 0.21685612201690674
-13.139886856079102 2.7094221115112305 3.542989730834961
-19.510955810546875 8.350717544555664 9.704509735107422
-5.493172645568848 -0.5706674456596375 -0.37117713689804077
-3.5815014839172363 -0.5584784150123596 -0.4309455156326294
-11.753808975219727 1.483601450920105 2.7540674209594727
-19.51535415649414 8.293828010559082 8.58273696899414
-6.406829357147217 0.2783842086791992 -0.28930073976516724
-9.377659797668457 2.0189573764801025 1.4016228914260864
-8.216711044311523 -0.1623603105545044 0.7408382892608643
-4.046550273895264 -2.5990357398986816 0.6381971836090088
-16.131641387939453 -3.8383402824401855 6.008162498474121
-9.316202163696289 -1.1262285709381104 1.3666421175003052
-20.467159271240234 0.19754815101623535 13.412839889526367
-14.86125659942627 4.963279724121094 5.211801052093506
-8.084442138671875 1.7940545082092285 0.6655559539794922
-3.517636775970459 -1.5438404083251953 -1.9337587356567383
-6.4413886070251465 1.6736562252044678 -0.2696302533149719
-5.779221057891846 3.6028475761413574 -0.6465187072753906
-8.471257209777832 -0.5383100509643555 0.8857203722000122
-13.638882637023926 -0.16068656742572784 3.875629425048828
-8.858777046203613 2.8249809741973877 1.1062883138656616
-3.3375728130340576 -1.8803945779800415 -0.3428361415863037
-2.67631196975708 -0.8591665029525757 -1.38773775100708
-10.84033489227295 -1.8894073963165283 2.2341394424438477
-11.584282875061035 4.6925883293151855 2.657578945159912
-12.864413261413574 4.973510265350342 3.386197805404663
-18.771928787231445 9.602361679077148 8.610763549804688
-15.231452941894531 -3.7914159297943115 7.764386177062988
-21.95855712890625 2.64794659614563 11.559871673583984
-15.448518753051758 9.47762393951416 4.857008934020996
-8.862099647521973 1.0785537958145142 1.1081782579421997
-9.326048851013184 3.6505210399627686 1.3722482919692993
-13.459611892700195 -0.33576279878616333 4.711789131164551
-9.212295532226562 5.700074195861816 1.3075023889541626
-14.870723724365234 2.2800586223602295 4.585499286651611
-3.261887550354004 -0.6535655856132507 -0.3989837169647217
-1.5595104694366455 0.00024579340242780745 -1.1007649898529053
-19.45713233947754 8.048666954040527 10.974676132202148
-19.249771118164062 8.805108070373535 10.32294750213623
-9.717947006225586 1.969368577003479 1.5953048467636108
-13.358841896057129 -0.4660339057445526 3.775920867919922
-11.9375581741333 -6.075928688049316 5.0484089851379395
-3.73360013961792 -2.070420265197754 0.8375918865203857
-13.289487838745117 -2.0364248752593994 3.6281354427337646
-3.6301374435424805 -2.4478209018707275 0.34635114669799805
-12.906170845031738 -5.0267157554626465 3.4099605083465576
-7.662126541137695 -2.80757999420166 4.464310169219971
-3.4871506690979004 0.7052871584892273 -1.1369304656982422
-13.582701683044434 2.463742733001709 5.578993797302246
-7.134558200836182 3.388653516769409 0.12490635365247726
-10.755104064941406 -3.7413241863250732 2.185626983642578
-13.771282196044922 1.9724525213241577 5.781816482543945
-10.633194923400879 -1.677284836769104 2.1162402629852295
-13.26158618927002 0.8369047045707703 3.6122560501098633
-13.749173164367676 0.8749021887779236 4.406332015991211
-8.24474048614502 -2.0457117557525635 0.7567909359931946
-16.376916885375977 -3.654374361038208 6.2619829177856445
-15.819280624389648 6.586875915527344 5.336562156677246
-10.773828506469727 3.7875142097473145 2.1962881088256836
-3.0806684494018555 -1.7883868217468262 -0.9897438287734985
-18.644906997680664 6.502330303192139 8.17995548248291
-8.851747512817383 4.674107074737549 1.1022884845733643
-9.773141860961914 -4.204935550689697 1.626718282699585
-12.569217681884766 7.8130011558532715 3.2181808948516846
-14.71172046661377 3.5235540866851807 4.734093189239502
-18.93183135986328 -0.9146590232849121 11.970587730407715
-3.3378522396087646 -1.7277387380599976 0.23244798183441162
-10.833984375 -1.4172817468643188 2.2305243015289307
-7.201436519622803 4.710334777832031 0.16297288239002228
-9.120403289794922 -0.25873827934265137 1.2551976442337036
-8.913619041442871 1.2197462320327759 1.1375021934509277
-6.067006587982178 0.7379493713378906 -0.48271891474723816
-8.303627967834473 -2.2097342014312744 0.7903079390525818
-13.651158332824707 -4.210339069366455 3.8339898586273193
-15.518548965454102 5.922545433044434 4.896866798400879
-7.957778453826904 1.829154372215271 0.5934609174728394
-7.757397174835205 -0.8780841827392578 0.4794079661369324
-10.928082466125488 -6.504366874694824 2.2840800285339355
-17.132957458496094 -2.5092012882232666 9.196081161499023
-15.659183502197266 9.23501205444336 5.801828384399414
-10.25942325592041 1.203027367591858 1.9035003185272217
-4.634881973266602 1.3594629764556885 -1.2978484630584717
-13.207038879394531 -1.3308076858520508 5.055281639099121
-20.021583557128906 0.016420472413301468 13.521522521972656
-8.687605857849121 -3.5280234813690186 1.0088595151901245
-14.191705703735352 0.8854061365127563 4.17121696472168
-13.971736907958984 -4.272922992706299 4.016454696655273
-14.279647827148438 8.731053352355957 4.191715717315674
-8.169509887695312 3.1119544506073 0.7139742970466614
-3.125626564025879 -0.8447629809379578 -0.4705507755279541
-9.673836708068848 -2.487058401107788 2.1809327602386475
-7.2246928215026855 2.2304749488830566 0.17620790004730225
-6.341947078704834 2.946255683898926 -0.3262287378311157
-16.210906982421875 8.50838851928711 5.290940284729004
-9.42141056060791 6.135652542114258 1.4265270233154297
-5.370269298553467 0.9703280925750732 -0.8792846202850342
-14.743064880371094 7.118825435638428 4.455482006072998
-15.307952880859375 5.939407825469971 5.104767322540283
-19.570419311523438 7.174929618835449 10.750669479370117
-15.766507148742676 -3.4073991775512695 8.253681182861328
-5.359299182891846 2.942890167236328 -0.8855265378952026
-5.6688971519470215 -2.9175453186035156 1.4708718061447144
-10.601366996765137 3.2019524574279785 2.0981268882751465
-9.33860969543457 2.8640143871307373 1.3793975114822388
-12.903386116027832 -0.5171239972114563 5.376529693603516
-8.301597595214844 0.2877216339111328 0.7891530990600586
-4.286272048950195 -2.577894687652588 1.45835542678833
-15.251056671142578 7.244019508361816 4.744616985321045
-12.72858715057373 5.60654878616333 3.308889627456665
-8.239960670471191 0.555820107460022 0.7540721893310547
-3.6604771614074707 -2.5606186389923096 0.26195836067199707
-14.874074935913086 4.403359889984131 5.2581281661987305
-9.798774719238281 0.2814069986343384 1.6413092613220215
-13.845985412597656 4.347828388214111 3.944884777069092
-13.695688247680664 1.0170440673828125 4.584207057952881
-19.71294403076172 -0.09186316281557083 13.66073226928711
-13.707494735717773 1.0217710733413696 4.304687976837158
-13.854700088500977 -4.76893424987793 6.544861316680908
-13.633286476135254 0.958593487739563 5.729344367980957
-13.999529838562012 8.357983589172363 4.032279968261719
-19.27979850769043 10.23787784576416 7.0376787185668945
-12.671042442321777 -2.4593300819396973 3.682156801223755
-10.499133110046387 -0.791092574596405 2.039936065673828
-7.219064235687256 -3.3574116230010986 3.457340955734253
-5.087929725646973 0.865401029586792 -1.0399848222732544
-15.669013977050781 -3.4232730865478516 8.36589527130127
-9.212890625 -0.23481059074401855 1.3078389167785645
-18.640403747558594 6.404943943023682 8.051972389221191
-14.747876167297363 -4.7120361328125 4.458212852478027
-13.096672058105469 2.4048705101013184 3.5183918476104736
-4.252488136291504 -1.5455098152160645 -1.5155001878738403
-8.864425659179688 -3.5951452255249023 1.109499454498291
-12.678877830505371 0.8594683408737183 3.280592441558838
-5.245234966278076 3.08819842338562 -0.9504507184028625
-11.43968677520752 0.1303849220275879 2.5752761363983154
-12.045413970947266 -3.926578998565674 2.920038938522339
-20.509868621826172 8.154821395874023 10.538969039916992
-12.907842636108398 1.421848177909851 3.4109139442443848
-16.973777770996094 9.293262481689453 5.725148677825928
-19.834983825683594 6.971773624420166 11.305891036987305
-19.695457458496094 -0.12272308766841888 13.576591491699219
-13.29753589630127 -1.1537967920303345 4.219208717346191
-12.800691604614258 -1.85030996799469 4.4792070388793945
-20.684864044189453 5.627707481384277 10.933415412902832
-4.129852771759033 0.24969910085201263 -0.9262574911117554
-12.323200225830078 0.8982563018798828 3.078150510787964
-5.3091583251953125 2.055983066558838 -0.914067268371582
-8.547520637512207 -0.25726819038391113 0.9291272759437561
-12.327073097229004 -2.73803973197937 3.080353260040283
-18.421886444091797 9.883939743041992 7.50146484375
-13.25719165802002 -0.9979754090309143 4.258225917816162
-13.444121360778809 -2.209994316101074 4.635525226593018
-18.373266220092773 7.2192792892456055 7.189704895019531
-12.966401100158691 1.6651755571365356 3.4442453384399414
-13.416099548339844 2.4228830337524414 5.466391086578369
-14.941864967346191 -1.6126517057418823 4.568628311157227
-12.835765838623047 2.080320358276367 3.369891405105591
-4.019224166870117 -2.4561376571655273 0.745867133140564
-13.293249130249023 -1.8715579509735107 4.32741117477417
-10.423081398010254 4.621050834655762 1.9966522455215454
-13.764723777770996 2.9127273559570312 5.76976203918457
-10.782752990722656 5.437552452087402 2.2013683319091797
-3.569049835205078 -1.4755018949508667 0.1797647476196289
-8.755667686462402 0.36605262756347656 1.0475995540618896
-13.420228958129883 1.5722399950027466 3.7025527954101562
-7.23087215423584 2.844817638397217 0.1797257363796234
-10.377372741699219 0.4592552185058594 1.970633625984192
-10.631659507751465 0.0484311580657959 2.1153671741485596
-3.2527894973754883 -1.738287329673767 0.18347620964050293
-2.5646915435791016 0.2683841586112976 -1.702272891998291
-18.50270652770996 7.139970302581787 7.1237311363220215
-5.176259994506836 0.5604028701782227 -0.9897102117538452
-7.589031219482422 1.643996238708496 0.38357964158058167
-13.03353500366211 -1.1127839088439941 5.386240482330322
-5.812918663024902 3.9718501567840576 -0.627338707447052
-13.171257019042969 -4.228827953338623 3.560840606689453
-11.047069549560547 5.049816131591797 2.351810932159424
-10.928936958312988 1.2471275329589844 2.2845704555511475
-2.9219436645507812 -0.4985641539096832 -1.2279212474822998
-18.727216720581055 9.40038776397705 9.193421363830566
-4.180795192718506 -2.3047807216644287 1.8220584392547607
-14.150193214416504 8.753673553466797 4.118032932281494
-18.843826293945312 8.968673706054688 7.904166221618652
-15.644852638244629 8.236385345458984 4.968756198883057
-14.402830123901367 8.840595245361328 4.261828422546387
-8.585856437683105 0.740445613861084 0.9509479999542236
-2.858046054840088 -0.21971270442008972 -1.1330095529556274
-9.99560546875 -2.918943405151367 2.364075183868408
-15.113208770751953 2.649366617202759 4.666154861450195
-2.846581220626831 -1.2407417297363281 -1.1218715906143188
-7.463387966156006 -1.5555126667022705 0.312065452337265
-5.691062927246094 -1.3249799013137817 0.2568599581718445
-19.341487884521484 -0.6676454544067383 12.17026138305664
-11.525245666503906 -6.381974697113037 4.633697986602783
-12.7174654006958 -2.0477094650268555 3.3025553226470947
-20.315521240234375 11.026294708251953 8.004261016845703
-12.0867919921875 -0.22321495413780212 2.9435927867889404
-19.135005950927734 -1.7653335332870483 8.447358131408691
-4.243810176849365 -2.2119181156158447 1.2356946468353271
-13.358798027038574 3.854809284210205 3.667588949203491
-10.468438148498535 0.4674968123435974 2.0224664211273193
-3.3684234619140625 0.7766099572181702 -1.6060550212860107
-11.947564125061035 -1.7860015630722046 2.864346981048584
-16.87107276916504 -2.454308032989502 9.860511779785156
-18.952632904052734 -2.043519973754883 7.732335567474365
-13.864089012145996 -4.798702716827393 6.41756534576416
-3.3434219360351562 -1.9951354265213013 -0.5850768089294434
-7.0526909828186035 -0.15228819847106934 0.07830771803855896
-4.518836498260498 -2.3443424701690674 1.1884965896606445
-9.071776390075684 1.7574597597122192 1.2275216579437256
-17.112703323364258 -2.4647581577301025 9.397088050842285
-13.894216537475586 6.532496929168701 3.9723377227783203
-11.716285705566406 0.7656670212745667 2.73271107673645
-13.017630577087402 -3.273667097091675 3.774034023284912
-9.145520210266113 -2.501931667327881 1.2694928646087646
-16.602792739868164 8.998452186584473 5.513991832733154
-10.2484130859375 1.8144499063491821 1.8972338438034058
-3.5058364868164062 -1.132218599319458 0.10593163967132568
-3.190981864929199 -1.877305507659912 -0.934543251991272
-10.014557838439941 -1.0006438493728638 1.7641276121139526
-16.16023063659668 -3.503120183944702 7.205656051635742
-12.402810096740723 4.2972822189331055 3.1234652996063232
-10.227046012878418 -2.7843756675720215 2.495804786682129
-10.995996475219727 -4.779142379760742 2.3227360248565674
-5.942331314086914 1.5348002910614014 -0.5536808967590332
-11.653379440307617 5.23063850402832 2.6969079971313477
-14.711228370666504 4.383652210235596 4.4373579025268555
-3.7032954692840576 0.20309175550937653 -0.912013053894043
-12.748523712158203 2.13931941986084 3.320234775543213
-13.170778274536133 -0.6699680685997009 3.5605692863464355
-14.146788597106934 3.2787885665893555 4.116092205047607
-5.349877834320068 1.7820534706115723 -0.8908907175064087
-19.473011016845703 10.427338600158691 8.951034545898438
-3.091322660446167 0.251654714345932 -1.1193780899047852
-13.929165840148926 2.2904744148254395 6.31479024887085
-12.305639266967773 4.139631748199463 3.068157196044922
-10.47081470489502 3.1093502044677734 2.0238192081451416
-12.934343338012695 1.5530893802642822 5.52330207824707
-18.529666900634766 6.713135242462158 8.169065475463867
-15.028200149536133 5.270458698272705 4.617772102355957
-14.94504165649414 3.5579302310943604 5.94647216796875
-15.328222274780273 1.300618052482605 5.54257345199585
-7.58272647857666 2.275359630584717 0.37999191880226135
-3.3166756629943848 -1.6710872650146484 -0.8927193284034729
-10.086130142211914 2.880725145339966 1.8048676252365112
-4.136191368103027 -2.9082577228546143 0.08031415939331055
-3.5274465084075928 -2.1259593963623047 -0.8282788991928101
-13.678600311279297 5.876509666442871 3.8496131896972656
-6.161683559417725 3.4917938709259033 -0.42882978916168213
-12.12099552154541 6.924071788787842 2.963064432144165
-14.428043365478516 2.305316686630249 4.566231727600098
-10.152688026428223 1.0885941982269287 1.8427485227584839
-15.18527889251709 -3.419921875 9.228231430053711
-8.462503433227539 -2.521172046661377 0.8807368278503418
-11.019121170043945 -4.9286298751831055 2.3358981609344482
-15.642200469970703 -3.3936803340911865 8.52314281463623
-14.049281120300293 -0.5711551308631897 4.060592174530029
-13.998848915100098 6.664216041564941 4.031890392303467
-14.499373435974121 3.2465765476226807 5.439755439758301
-15.543234825134277 5.893458366394043 5.352116584777832
-5.936426162719727 3.5596344470977783 -0.5570409297943115
-12.664052963256836 3.838703155517578 3.2721567153930664
-15.447843551635742 2.906615972518921 6.20579719543457
-10.464488983154297 -2.72832989692688 2.6432442665100098
-16.447528839111328 -2.3581135272979736 10.962700843811035
-13.78857135772705 6.400737762451172 3.9122071266174316
-10.303805351257324 -4.590566635131836 1.9287588596343994
-14.817422866821289 -4.500182151794434 5.853728294372559
-14.207237243652344 -4.003911972045898 8.772948265075684
-18.10245132446289 7.327836036682129 7.126251220703125
-19.32576560974121 3.832216262817383 9.449792861938477
-18.602813720703125 -1.0257283449172974 12.135250091552734
-15.377521514892578 9.230615615844727 5.45290470123291
-16.16475486755371 -3.928889036178589 5.612965106964111
-12.472543716430664 7.278439998626709 3.1631569862365723
-12.911827087402344 -1.4067778587341309 3.6826460361480713
-10.277040481567383 5.429016590118408 1.9135291576385498
-13.091371536254883 -5.844812870025635 3.5153727531433105
-13.201513290405273 -1.5213969945907593 4.139536380767822
-21.782094955444336 4.06145715713501 11.570865631103516
-7.789444923400879 4.609969139099121 0.4976523220539093
-15.090054512023926 -4.268064022064209 4.652973175048828
-6.675408840179443 3.5465385913848877 -0.13643063604831696
-14.265090942382812 2.9214565753936768 6.707553863525391
-18.79485511779785 -2.083940029144287 7.859095096588135
-4.114223480224609 -2.0530693531036377 0.6412197351455688
-21.277843475341797 0.11735402792692184 11.690032958984375
-9.384029388427734 -1.5533475875854492 1.4052472114562988
-3.3980965614318848 -1.2183672189712524 -0.5647803544998169
-11.070690155029297 3.7489452362060547 2.3652546405792236
-7.369461536407471 -0.30951476097106934 0.258605420589447
-9.870355606079102 5.553037643432617 1.6820547580718994
-13.142569541931152 -1.3866733312606812 4.778210163116455
-11.581271171569824 -1.9010710716247559 2.6558611392974854
-9.286626815795898 3.449423313140869 1.3498101234436035
-7.426135540008545 2.578645706176758 0.290864497423172
-7.113375186920166 2.5128324031829834 0.11284884065389633
-8.641556739807129 5.256213665008545 0.9826529026031494
-10.065614700317383 -1.857012391090393 1.7931879758834839
-1.6692485809326172 0.23424077033996582 -1.0621378421783447
-11.129191398620605 2.144352436065674 2.3985512256622314
-9.399970054626465 2.2440712451934814 1.414321780204773
-9.904641151428223 -2.770270824432373 2.312300205230713
-6.819718360900879 2.890023946762085 -0.054294802248477936
-4.705340385437012 -2.694772243499756 0.06946897506713867
-12.47645378112793 -1.6855518817901611 3.165377616882324
-7.728739261627197 0.3242006301879883 0.4630969166755676
-13.225324630737305 -1.932902216911316 3.5916152000427246
-10.442026138305664 -0.04373973608016968 2.0074331760406494
-11.83641529083252 0.6791672706604004 2.801084041595459
-12.320865631103516 6.403454780578613 3.07682466506958
-14.46194076538086 3.2793030738830566 5.238436698913574
-10.947832107543945 -0.05235612392425537 2.2953250408172607
-15.912532806396484 6.102514743804932 5.588482856750488
-3.9233603477478027 -1.6523710489273071 0.420040488243103
-11.88931941986084 6.688084125518799 2.831198215484619
-7.8657050132751465 4.928410530090332 0.5410574078559875
-10.469243049621582 0.7763453722000122 2.022923707962036
-13.126187324523926 -0.5887100100517273 3.5351903438568115
-11.065444946289062 -0.5917276740074158 2.3622663021087646
-6.999089241027832 1.1625828742980957 0.047798991203308105
-11.493464469909668 2.694498062133789 2.6058859825134277
-14.444046020507812 3.7080633640289307 4.452102184295654
-13.015066146850586 -1.7132337093353271 4.048280715942383
-12.993353843688965 1.0098230838775635 4.906654357910156
-19.12571907043457 5.681274890899658 7.485842704772949
-15.400196075439453 6.197709560394287 4.829503059387207
-13.687559127807617 1.485978603363037 3.854710102081299
-12.754473686218262 -5.553745269775391 5.556748867034912
-10.882735252380371 -2.0653648376464844 2.258272886276245
-19.23218536376953 8.833213806152344 8.592827796936035
-13.422449111938477 2.3307652473449707 5.44893741607666
-3.560039520263672 0.28912293910980225 -0.9243853688240051
-12.954022407531738 -0.03074834868311882 5.927547454833984
-13.65257740020752 1.3145942687988281 5.817742824554443
-8.003792762756348 1.6422154903411865 0.6196516752243042
-3.562617301940918 -2.4919774532318115 0.2972339391708374
-10.805279731750488 4.476577281951904 2.2141902446746826
-9.021883010864258 -2.166461944580078 1.199121356010437
-6.309802532196045 2.5878398418426514 -0.34452491998672485
-17.006500244140625 -2.972698211669922 7.69308614730835
-8.16939926147461 4.191113471984863 0.7139120101928711
-2.378073215484619 -0.42796841263771057 -1.5478875637054443
-4.906327724456787 1.7365548610687256 -1.1433484554290771
-10.082376480102539 -2.204948902130127 1.8027271032333374
-18.551559448242188 10.318879127502441 7.6556243896484375
-16.447723388671875 -3.447193145751953 6.90871524810791
-11.193445205688477 1.6507083177566528 2.435122489929199
-13.746665000915527 3.2191905975341797 5.594785690307617
-16.99877166748047 -2.0357096195220947 11.194208145141602
-7.677610397338867 4.245615005493164 0.4339977502822876
-12.005043029785156 6.805964946746826 2.897066593170166
-13.043346405029297 0.5888723134994507 5.968148231506348
-11.112970352172852 -5.404799938201904 2.389314651489258
-19.425752639770508 -0.32008498907089233 13.31584644317627
-13.201517105102539 -0.26385343074798584 3.905985116958618
-11.11569595336914 -1.6105118989944458 2.3908679485321045
-7.679524898529053 -3.2002947330474854 4.374969005584717
-13.004583358764648 -0.6521846652030945 3.6017239093780518
-12.590473175048828 7.396241664886475 3.230278968811035
-11.088898658752441 -4.754310131072998 2.3756141662597656
-7.1409478187561035 2.84562611579895 0.12854310870170593
-10.547470092773438 -2.2253921031951904 2.067448139190674
-9.48099422454834 2.0883491039276123 1.46043860912323
-18.200878143310547 -1.4260475635528564 11.351395606994629
-13.88753604888916 -5.144322395324707 3.9685287475585938
-9.23875904083252 -0.12723183631896973 1.322562575340271
-3.7207679748535156 -2.520853042602539 -0.28228509426116943
-9.612325668334961 -2.705705404281616 1.5351861715316772
-13.519966125488281 0.8652936816215515 3.9305670261383057
-15.363837242126465 5.830958843231201 4.808808326721191
-16.63340187072754 -3.089427947998047 7.91411828994751
-12.195415496826172 1.2914749383926392 3.0054197311401367
-9.760299682617188 -3.9127345085144043 1.619409203529358
-11.21728801727295 1.8503730297088623 2.4486942291259766
-11.328741073608398 5.461656093597412 2.512131929397583
-11.086018562316895 -5.232290744781494 2.373974561691284
-12.179109573364258 6.983231067657471 2.996140956878662
-7.636064052581787 2.531893730163574 0.41035035252571106
-14.728204727172852 -3.5098392963409424 9.696619033813477
-13.577897071838379 6.140074253082275 3.7922956943511963
-11.773148536682129 -1.7656009197235107 2.7650740146636963
-9.98099136352539 -2.3303635120391846 2.333691358566284
-12.499899864196777 -2.622067451477051 3.1787221431732178
-11.086835861206055 5.228182315826416 2.374445676803589
-13.084981918334961 -0.7980190515518188 3.8478341102600098
-10.574204444885254 -0.5414026379585266 2.082664728164673
-16.479351043701172 10.052325248718262 5.443732738494873
-8.441197395324707 -2.227264642715454 0.8686093091964722
-11.72754192352295 3.753791093826294 2.739118814468384
-18.35979461669922 5.88337516784668 8.235698699951172
-9.526764869689941 -2.7535412311553955 1.486486792564392
-18.934444427490234 9.975397109985352 8.870454788208008
-13.253642082214355 0.45588040351867676 5.842097759246826
-19.515398025512695 9.848533630371094 9.08765983581543
-18.851036071777344 4.911029815673828 9.198705673217773
-10.6267671585083 -3.6408438682556152 2.1125805377960205
-9.470216751098633 -3.240349531173706 1.4543023109436035
-3.4056811332702637 1.3453119993209839 -1.1388301849365234
-17.572528839111328 -1.8261734247207642 10.966064453125
-8.102874755859375 -3.1715660095214844 4.108331680297852
-21.190441131591797 4.743224620819092 11.813255310058594
-8.246265411376953 3.4008872509002686 0.7576619982719421
-10.554556846618652 -5.343286991119385 2.071478843688965
-12.973922729492188 -0.36307328939437866 4.010972023010254
-14.295526504516602 0.9267055988311768 5.080254077911377
-18.92157745361328 10.422019004821777 7.668755531311035
-12.086502075195312 6.409743309020996 2.9434309005737305
-15.87224006652832 -4.15305233001709 5.292540073394775
-14.304576873779297 2.8282313346862793 6.757986068725586
-13.134834289550781 -1.6474385261535645 3.5401105880737305
-11.147773742675781 -2.2328059673309326 2.409125804901123
-7.941747188568115 0.8373734951019287 0.5843368172645569
-14.603896141052246 -4.965599536895752 4.496562957763672
-3.4223363399505615 -0.4669760763645172 -0.9623075723648071
-9.15347671508789 0.5635398626327515 1.2740225791931152
-11.891182899475098 4.0930705070495605 2.832258701324463
-15.100690841674805 4.376011371612549 5.792660713195801
-9.597819328308105 -3.559103488922119 1.5269296169281006
-16.27907371520996 6.994042873382568 5.624199390411377
-13.793573379516602 3.564948081970215 5.8706512451171875
-13.04787540435791 -1.7342360019683838 4.322814464569092
-18.312604904174805 9.247553825378418 7.906654357910156
-15.82662296295166 -3.4721803665161133 7.9069414138793945
-13.105300903320312 -5.589074611663818 4.8088812828063965
-15.014420509338379 -4.101283550262451 6.992347717285156
-14.543407440185547 3.8346595764160156 5.995668411254883
-11.323812484741211 -2.457812786102295 2.5093226432800293
-11.31375503540039 3.4853222370147705 2.5036001205444336
-14.103346824645996 6.7962775230407715 4.091368198394775
-8.700102806091309 2.0050580501556396 1.0159739255905151
-14.515384674072266 -4.401534080505371 4.32588529586792
-19.941165924072266 7.577726364135742 11.257772445678711
-10.756052017211914 -0.8264990448951721 2.1861679553985596
-6.166205406188965 0.49113941192626953 -0.42625749111175537
-13.981598854064941 8.192789077758789 4.022074222564697
-5.6205596923828125 2.0199809074401855 -0.7368246912956238
-19.405298233032227 -0.563055157661438 12.447432518005371
-3.9333951473236084 -1.6928470134735107 0.16944563388824463
-7.315311431884766 -0.62624192237854 0.22778424620628357
-10.935844421386719 4.765028953552246 2.288503885269165
-10.81286907196045 4.209677696228027 2.2185096740722656
-10.571013450622559 -4.268819808959961 2.0808465480804443
-16.511259078979492 -2.238572359085083 11.29566478729248
-3.3047549724578857 1.5878440141677856 -1.1358582973480225
-16.67831039428711 -2.764666795730591 9.04398250579834
-15.071526527404785 4.607253074645996 4.7162370681762695
-13.357421875 -3.112793207168579 3.6668014526367188
-18.914329528808594 9.553071975708008 7.903208255767822
-4.391573429107666 -2.370553493499756 1.5027406215667725
-2.6834259033203125 -0.3727377653121948 -1.4836057424545288
-13.6087646484375 5.416962623596191 3.8098647594451904
-15.708685874938965 -3.583632469177246 7.699315071105957
-13.58244800567627 -2.91058349609375 4.532167911529541
-3.588982105255127 -2.3638014793395996 0.36615777015686035
-19.3286190032959 9.090414047241211 9.03801155090332
-21.04786491394043 6.927515506744385 10.824230194091797
-7.8050007820129395 0.7281701564788818 0.5065044164657593
-6.803089618682861 4.528353691101074 -0.06375721096992493
-7.797220706939697 1.1192904710769653 0.5020760297775269
-7.81237268447876 5.444112300872803 0.5107016563415527
-20.033626556396484 7.75967264175415 10.212806701660156
-13.65866756439209 -5.433788776397705 4.414639949798584
-10.434670448303223 -1.57865309715271 2.0032448768615723
-14.708142280578613 2.0600266456604004 5.336406707763672
-18.822629928588867 4.323406219482422 9.149320602416992
-7.5248799324035645 -3.4835195541381836 3.484309434890747
-20.0164794921875 7.519713401794434 11.34432315826416
-2.8448047637939453 -0.24923746287822723 -1.2406867742538452
-13.202412605285645 0.5411114692687988 6.48209285736084
-8.46629810333252 4.528180122375488 0.8828994631767273
-19.018115997314453 10.318263053894043 7.199736595153809
-7.594779014587402 3.808654546737671 0.3868524432182312
-17.954814910888672 -2.096817970275879 9.287044525146484
-13.800972938537598 0.7029913067817688 4.427443027496338
-3.685781717300415 -0.3903830349445343 -0.47111940383911133
-12.69640064239502 1.6043809652328491 3.290567398071289
-7.178515434265137 0.5466864109039307 0.14992351830005646
-10.74968433380127 -1.8087173700332642 2.1825435161590576
-13.159371376037598 0.6730734705924988 3.5540785789489746
-17.291194915771484 -2.8702917098999023 7.574062347412109
-14.323953628540039 -4.878223896026611 5.313630104064941
-13.163091659545898 -5.757655143737793 4.079876899719238
-6.123128414154053 4.029796600341797 -0.4507744312286377
-4.323513031005859 -2.2144529819488525 1.646106481552124
-6.038787364959717 2.142716646194458 -0.49878019094467163
-11.87674617767334 2.383557081222534 2.8240413665771484
-13.207376480102539 5.691003799438477 3.5814034938812256
-12.566559791564941 2.566518545150757 3.216665506362915
-17.4672908782959 8.790481567382812 6.006042957305908
