-5.938756942749023 0.6490352749824524 0.4733206033706665
-7.398787021636963 -4.123865604400635 1.3043311834335327
-5.6916069984436035 2.79050612449646 0.33264976739883423
-5.538302898406982 -1.5344511270523071 0.24539127945899963
-11.595551490783691 -4.149754524230957 3.6930246353149414
-12.551177024841309 -2.5873475074768066 4.236943244934082
-5.569430828094482 3.280384063720703 0.2631111443042755
-7.150354385375977 2.5892388820648193 3.330010414123535
-11.857427597045898 -1.7850123643875122 5.726108551025391
-7.2807393074035645 -1.4873709678649902 1.2371423244476318
-3.929075002670288 2.5122644901275635 -0.6705392003059387
-6.997398853302002 -3.1117846965789795 1.0758717060089111
-7.633966445922852 2.0950064659118652 1.438192367553711
-6.4524760246276855 -0.9095931649208069 0.7657164335250854
-9.403593063354492 -0.5288715958595276 4.962004661560059
-12.20506477355957 6.450527191162109 4.039950370788574
-9.836283683776855 0.06832852214574814 3.485806465148926
-5.399166584014893 1.142014980316162 0.166199192404747
-8.055407524108887 -0.4921261668205261 1.6780649423599243
-8.644403457641602 3.9568045139312744 2.0133087635040283
-6.926159381866455 -1.1049281358718872 1.0353243350982666
-8.981188774108887 2.7151718139648438 2.204998254776001
-6.130499362945557 0.3204266130924225 0.5824556946754456
-8.612101554870605 -3.912604808807373 1.9949195384979248
-5.724255561828613 0.05774793028831482 0.35123151540756226
-5.0814900398254395 -1.3850878477096558 -0.014615478925406933
-6.111364841461182 -0.018666505813598633 0.5715638995170593
-9.500288963317871 -5.025473117828369 2.5004522800445557
-9.513479232788086 -1.0066231489181519 2.507962226867676
-6.875067234039307 2.12595272064209 1.0062458515167236
-6.2594828605651855 -0.698352575302124 0.6558687686920166
-9.503985404968262 0.5200417041778564 2.5025599002838135
-9.177484512329102 -4.160581588745117 2.3167216777801514
-6.5392560958862305 1.245300054550171 0.8151096701622009
-8.704645156860352 -4.064407825469971 2.047593832015991
-7.094151973724365 2.688016176223755 1.1309432983398438
-9.947216987609863 -2.2081594467163086 2.7548344135284424
-6.255315780639648 -1.8535031080245972 0.6534971594810486
-6.446725368499756 0.6123465299606323 0.7624437808990479
-11.738341331481934 -5.261882305145264 3.774296998977661
-4.99348258972168 2.3253173828125 -0.06470531225204468
-3.567352056503296 1.5810563564300537 -0.8764233589172363
-8.807045936584473 -4.923705101013184 2.1058766841888428
-5.443994998931885 -1.5267529487609863 0.19171258807182312
-8.40026569366455 -3.57539439201355 1.8743486404418945
-7.035714626312256 1.093461036682129 1.0976818799972534
-4.415135383605957 -2.8829145431518555 -0.3938879370689392
-4.580626964569092 -1.446639895439148 -0.2996945381164551
-11.361991882324219 7.131509304046631 3.560093641281128
-7.45412015914917 -5.023136615753174 1.3358250856399536
-9.746935844421387 -0.11449291557073593 4.06692361831665
-10.83272933959961 -1.3487118482589722 6.712116241455078
-10.659600257873535 5.748725414276123 3.1603081226348877
-7.627727031707764 -2.0912904739379883 1.43463933467865
-4.680169582366943 -2.9806785583496094 -0.24303846061229706
-10.08768367767334 0.04207909107208252 2.8347856998443604
-7.7702436447143555 4.750985622406006 1.5157591104507446
-9.997930526733398 2.608551502227783 2.7837018966674805
-4.535996913909912 -1.369498372077942 -0.3250967562198639
-9.36535358428955 2.8791918754577637 2.423654794692993
-3.239208221435547 1.7319738864898682 -1.0631941556930542
-6.886751174926758 -0.2146211564540863 1.0128949880599976
-8.461597442626953 3.0391910076141357 1.909259557723999
-8.542346000671387 -3.7997243404388428 1.955216646194458
-8.111870765686035 3.3749842643737793 1.7102035284042358
-2.816396713256836 1.3203754425048828 -1.3038485050201416
-14.750473022460938 -8.544017791748047 5.488725185394287
-6.507285118103027 0.7784802913665771 0.7969125509262085
-8.895720481872559 1.6815071105957031 3.60290789604187
-5.388667106628418 -2.058486223220825 0.16022157669067383
-8.597518920898438 3.8810245990753174 1.9866225719451904
-5.964820861816406 -0.6155625581741333 0.4881547689437866
-6.878936290740967 3.753478527069092 1.008448600769043
-9.125067710876465 0.6529722213745117 3.1486196517944336
-6.713423252105713 2.524880886077881 0.9142429232597351
-3.811946153640747 -1.452364444732666 -0.7372078895568848
-3.619189500808716 2.2449541091918945 -0.8469189405441284
-8.503545761108398 3.730318784713745 1.933136224746704
-10.114428520202637 -5.605597019195557 2.850006341934204
-5.849953651428223 3.4767637252807617 0.4227772355079651
-7.4958062171936035 -2.4090945720672607 1.3595525026321411
-7.984228610992432 1.0177042484283447 1.6375523805618286
-5.147463798522949 -0.24436956644058228 0.02293607033789158
-7.037831783294678 1.1456793546676636 1.0988863706588745
-9.038939476013184 5.713738918304443 2.2378692626953125
-9.13761043548584 5.4404096603393555 2.2940306663513184
-9.585593223571777 0.3858349323272705 2.5490095615386963
-3.4254343509674072 -1.2527856826782227 -0.9572012424468994
-9.57413101196289 -0.030579447746276855 2.5424842834472656
-3.1156623363494873 -0.262451171875 -1.1335150003433228
-5.525765419006348 1.7321990728378296 0.23825649917125702
-3.1889140605926514 0.7007777690887451 -1.0918211936950684
-10.016777992248535 -0.9168875217437744 2.7944278717041016
-4.199962139129639 -0.5878000259399414 -0.516359269618988
-7.8465447425842285 4.715239524841309 1.559187412261963
-7.906497955322266 1.0333300828933716 1.5933094024658203
-7.156387805938721 -3.5451478958129883 1.1663637161254883
-6.8980255126953125 2.723324775695801 1.019313097000122
-5.925261497497559 -1.4505599737167358 0.4656384587287903
-6.811681747436523 1.51947021484375 0.9701682329177856
-16.072660446166992 9.472811698913574 6.241290092468262
-11.89461612701416 7.194557189941406 3.863250255584717
-5.932018756866455 -3.7783846855163574 0.469483345746994
-8.92460823059082 -0.33130550384521484 2.1727914810180664
-3.77811861038208 -0.250413179397583 -0.7564612030982971
-8.674507141113281 5.468764305114746 2.0304434299468994
-5.374594211578369 -2.7429845333099365 0.1522126942873001
-4.011367321014404 1.1201444864273071 -0.6237013339996338
-10.35189151763916 -3.736097574234009 2.9851651191711426
-9.479854583740234 0.3810817003250122 2.4888253211975098
-6.422372341156006 0.8449510335922241 0.7485827207565308
-14.037837028503418 -6.187912464141846 5.0831122398376465
-8.633807182312012 -0.8313415050506592 2.007274866104126
-7.123111248016357 1.092279314994812 1.917737603187561
-10.756756782531738 -1.5696253776550293 6.604275226593018
-3.191118001937866 0.799185037612915 -1.0905662775039673
-3.943418025970459 0.258050799369812 -0.6623768210411072
-7.440081596374512 -1.3138961791992188 1.327836275100708
-6.123017311096191 1.3535157442092896 0.5781967639923096
-6.487130165100098 4.427210807800293 0.7854425311088562
-5.278848648071289 -3.2508723735809326 0.09771515429019928
-4.767529010772705 -1.8228305578231812 -0.1933145821094513
-8.77263355255127 -4.178129196166992 2.086290121078491
-10.556172370910645 -6.499789714813232 3.1014349460601807
-7.096019744873047 2.4776244163513184 2.842054843902588
-8.286362648010254 -0.4220898151397705 1.8095183372497559
-7.398240089416504 -1.1752084493637085 1.3040212392807007
-7.261166095733643 2.081831216812134 1.2260034084320068
-6.525190353393555 -0.8619546890258789 0.8071027398109436
-7.487616062164307 3.112501382827759 2.8148860931396484
-3.022326946258545 -0.2496497631072998 -1.1866390705108643
-8.14807415008545 -0.9382972717285156 1.7308083772659302
-7.792463302612305 2.4023377895355225 1.528404712677002
-1.8580763339996338 0.3125353157520294 -1.2733837366104126
-10.949965476989746 -6.005616188049316 3.325572967529297
-3.223824977874756 -1.010224461555481 -1.0719512701034546
-10.31339168548584 3.1501686573028564 2.963254690170288
-7.734058380126953 2.7164618968963623 1.4951623678207397
-12.43385124206543 -6.418962001800537 4.170163154602051
-8.415445327758789 1.1086604595184326 3.1584057807922363
-7.908073425292969 5.348734378814697 1.5942084789276123
-6.201820373535156 -0.25537994503974915 0.6230500936508179
-8.550888061523438 3.8056704998016357 1.960081696510315
-9.356463432312012 4.879802227020264 2.4185965061187744
-2.9142532348632812 1.335787296295166 -1.2481521368026733
-6.021738529205322 1.2377276420593262 0.5205522179603577
-8.850804328918457 0.806420624256134 2.709373712539673
-5.18183708190918 -3.6548421382904053 0.042499441653490067
-5.539756774902344 3.800398349761963 0.24622100591659546
-5.490499496459961 -2.9291915893554688 0.21818245947360992
-8.700302124023438 -0.10948872566223145 2.045123338699341
-10.213027954101562 2.4798507690429688 2.9061293601989746
-5.875792980194092 3.7185428142547607 0.43748462200164795
-8.49512767791748 -3.7245025634765625 1.9283409118652344
-7.278993129730225 2.8427910804748535 2.7151548862457275
-6.5994181632995605 -0.09192068129777908 0.8493523001670837
-11.530572891235352 -1.667127013206482 5.931346893310547
-11.495915412902832 -6.834733486175537 4.0386810302734375
-2.447269916534424 0.8286879062652588 -1.5139474868774414
-5.949642658233643 -2.6296892166137695 0.4795149266719818
-7.030907154083252 -3.2502236366271973 1.0949432849884033
-7.404239654541016 4.17156457901001 1.307438611984253
-3.8599090576171875 -1.1258658170700073 -0.7099076509475708
-3.009225606918335 0.6727511882781982 -1.1940953731536865
-6.474206447601318 -2.2681233882904053 0.7780837416648865
-6.783082485198975 -3.643918752670288 0.9538871049880981
-6.813857078552246 1.8629095554351807 0.9714066386222839
-4.320337772369385 -0.11607575416564941 -0.44784432649612427
-12.08930778503418 -1.991616129875183 5.484295845031738
-2.940284490585327 -1.3196896314620972 -1.2333357334136963
-7.012730121612549 -1.2232871055603027 1.0845983028411865
-9.825806617736816 0.20976771414279938 2.9764344692230225
-6.9112324714660645 2.3429529666900635 2.1045429706573486
-6.724048137664795 -1.4427385330200195 0.9202879071235657
-6.966429710388184 2.399141311645508 2.085064649581909
-3.5341904163360596 1.082331657409668 -0.8952990174293518
-9.917998313903809 -1.9117014408111572 2.7382047176361084
-3.5701663494110107 0.9263654947280884 -0.8748218417167664
-9.345315933227539 -3.610368251800537 2.412248373031616
-7.418968677520752 -0.5114989876747131 1.3158198595046997
-8.993544578552246 1.507745623588562 2.2120299339294434
-2.9878437519073486 -0.3393130302429199 -1.2062660455703735
-3.511016845703125 -1.1073565483093262 -0.9084890484809875
-4.904427528381348 2.892502546310425 -0.11539293825626373
-5.866587162017822 0.7384170889854431 0.4322434663772583
-9.407151222229004 -0.6172369718551636 6.117534160614014
-14.683119773864746 -8.440780639648438 5.450390338897705
-8.090328216552734 -0.4242798686027527 1.6979410648345947
-8.275870323181152 0.5385125875473022 1.8035469055175781
-5.830264568328857 -0.8271740674972534 0.41156888008117676
-4.082205772399902 -0.7838191986083984 -0.5833826661109924
-4.589735507965088 -2.9328877925872803 -0.2945101857185364
-5.596808433532715 0.284599244594574 0.27869147062301636
-9.49057674407959 6.206911563873291 2.4949305057525635
-8.184976577758789 2.237466812133789 1.7518140077590942
-6.968687057495117 0.5780730247497559 1.0595314502716064
-6.981222629547119 -0.47923773527145386 1.0666654109954834
-10.855770111083984 1.9389857053756714 3.2719619274139404
-3.095034122467041 0.3344242572784424 -1.1452550888061523
-11.702388763427734 -1.527351975440979 4.757391929626465
-7.262172222137451 1.4885956048965454 1.2265762090682983
-8.336657524108887 3.4698731899261475 1.8381469249725342
-7.022382736206055 3.2727999687194824 1.0900943279266357
-6.300891876220703 -3.893941640853882 0.6794372200965881
-4.530136585235596 -2.532430410385132 -0.32843217253685
-11.019566535949707 -1.5279144048690796 3.365190029144287
-6.245811939239502 2.1846823692321777 0.6480893492698669
-3.213010549545288 -1.6011781692504883 -1.0781071186065674
-6.955591201782227 1.053299903869629 2.223494052886963
-5.859457492828369 1.1000608205795288 0.4281858205795288
-8.183181762695312 3.136150598526001 2.8261606693267822
-3.7133514881134033 -1.3248947858810425 -0.7933260202407837
-7.828338623046875 4.16240119934082 1.5488251447677612
-6.866005897521973 -2.0982308387756348 1.001085877418518
-6.538136959075928 0.6907621622085571 0.8144730925559998
-3.426117181777954 -1.9406148195266724 -0.9568120241165161
-14.0234956741333 -6.8139801025390625 5.074948787689209
-6.896805286407471 2.0082764625549316 1.0186187028884888
-3.2977614402770996 0.33038079738616943 -1.029868721961975
-6.8776044845581055 -0.42306211590766907 1.0076886415481567
-5.153805255889893 0.13306617736816406 0.026545314118266106
-9.026177406311035 -5.762941837310791 2.2306008338928223
-7.362386226654053 2.934910774230957 2.6956958770751953
-8.414628028869629 -0.7683099508285522 1.8825243711471558
-6.172865390777588 -2.6084084510803223 0.6065676808357239
-5.356113910675049 2.1430516242980957 0.14169524610042572
-6.41615104675293 -1.5581588745117188 0.7450404167175293
-12.048017501831055 -5.524918079376221 3.950556516647339
-11.307291984558105 -1.2387492656707764 4.705843448638916
-5.4275078773498535 -0.037133634090423584 0.18233005702495575
-9.171630859375 4.56781005859375 2.3133931159973145
-11.643746376037598 4.889798164367676 4.195659637451172
-3.366387367248535 1.1280102729797363 -0.990807056427002
-2.7639999389648438 0.23841571807861328 -1.3336719274520874
-6.70927095413208 1.5398333072662354 0.911878764629364
-5.434895992279053 1.0806735754013062 0.18653570115566254
-2.787870168685913 0.7764990329742432 -1.3200856447219849
-6.944680690765381 -2.805833578109741 1.0458654165267944
-5.783389091491699 -1.6961140632629395 0.38488781452178955
-5.635800838470459 0.5225195288658142 0.30088603496551514
-8.151177406311035 4.404568672180176 1.7325769662857056
-10.50134563446045 -2.9616854190826416 3.0702314376831055
-9.98405933380127 -0.2771357297897339 4.13222599029541
-8.634326934814453 -0.9715471267700195 2.00757098197937
-2.867300033569336 0.5596835613250732 -1.2748757600784302
-7.942924976348877 0.503623366355896 1.614043116569519
-3.9749982357025146 -1.9413137435913086 -0.6444038152694702
-3.216341257095337 -1.7534606456756592 -1.0762113332748413
-2.5819437503814697 0.5143766403198242 -1.4372930526733398
-6.262936115264893 -0.7491381764411926 0.6578348278999329
-5.497920036315918 -1.068687081336975 0.2224065065383911
-8.447772979736328 -3.6497280597686768 1.9013875722885132
-8.690496444702148 4.032517433166504 2.039543867111206
-5.414778709411621 0.01105654239654541 0.17508505284786224
-7.160247325897217 -0.2606780230998993 1.1685619354248047
-9.296304702758789 4.101709365844727 2.38435435295105
-7.898623466491699 -0.9745873212814331 1.5888268947601318
-10.151676177978516 2.571974277496338 3.139686107635498
-2.4159152507781982 -0.4887576103210449 -1.5317939519882202
-4.258763790130615 -0.16829562187194824 -0.48288974165916443
-7.597994327545166 -2.0597729682922363 1.417716145515442
-11.497453689575195 -4.128687381744385 3.637190103530884
-8.277970314025879 0.42977380752563477 1.8047418594360352
-6.936067581176758 -4.6643595695495605 1.0409626960754395
-7.146499156951904 -1.3882322311401367 1.160736322402954
-8.776026725769043 -1.3285034894943237 2.088223695755005
-5.172409534454346 -1.1201106309890747 0.037133362144231796
-10.382745742797852 6.669189453125 3.0027313232421875
-9.313060760498047 2.8355605602264404 2.3938910961151123
-5.433162212371826 -0.169605553150177 0.18554867804050446
-12.43156909942627 4.938328266143799 5.537721633911133
-7.2179274559021 2.6960883140563965 2.0300025939941406
-11.802766799926758 0.4051501154899597 7.426908016204834
-8.406753540039062 1.6702244281768799 1.8780429363250732
-6.8999176025390625 -0.9289811253547668 1.020388126373291
-10.017258644104004 2.254364013671875 2.794703245162964
-13.420244216918945 8.196575164794922 4.731600761413574
-11.734636306762695 -1.4447826147079468 4.456080913543701
-9.489912033081055 -0.4802404046058655 6.066777229309082
-8.468999862670898 0.8427805304527283 1.9134713411331177
-4.201326370239258 1.246483564376831 -0.5155808925628662
-7.431182861328125 4.205558776855469 1.322773814201355
-5.857674598693848 2.2834579944610596 0.4271712303161621
-9.942395210266113 -5.013339996337891 2.752089500427246
-5.6149516105651855 3.355290412902832 0.2890204191207886
-6.871016025543213 0.4271106719970703 1.003938913345337
-5.224677085876465 -0.17943745851516724 0.066883884370327
-8.371973991394043 0.48756253719329834 1.8582468032836914
-2.8808345794677734 1.3789045810699463 -1.2671724557876587
-4.797489166259766 -1.5361502170562744 -0.17626214027404785
-5.943448543548584 2.2137739658355713 0.4759922921657562
-7.935785293579102 -0.5953019857406616 1.6099791526794434
-8.647838592529297 4.302800178527832 2.0152649879455566
-3.1504416465759277 -0.9898861646652222 -1.1137193441390991
-6.056193828582764 0.4144621789455414 0.5401623845100403
-7.03535270690918 2.711754560470581 3.5756845474243164
-13.247769355773926 6.909582614898682 4.6334309577941895
-3.8417046070098877 1.1265963315963745 -0.7202690839767456
-6.756991863250732 0.9295573234558105 0.9390395283699036
-10.076667785644531 -0.26333990693092346 4.103562355041504
-7.913084030151367 2.576157331466675 2.491773843765259
-6.861401557922363 -0.8470945954322815 0.9984668493270874
-13.428468704223633 -3.5183839797973633 4.736276149749756
-11.20418930053711 -1.6710797548294067 6.9304656982421875
-8.163376808166504 -5.043576240539551 1.7395163774490356
-8.387690544128418 -0.6823726892471313 1.8671916723251343
-3.981334686279297 -1.0045498609542847 -0.6407961249351501
-11.17072582244873 -4.022809982299805 3.4512252807617188
-7.181244850158691 -3.7298803329467773 1.1805115938186646
-4.590624809265137 -0.12991225719451904 -0.2940026819705963
-6.7321391105651855 3.5353517532348633 0.924895703792572
-9.967253684997559 -0.03287947177886963 2.766240119934082
-5.034594535827637 3.331439256668091 -0.04130406677722931
-2.737272024154663 -1.0299090147018433 -1.348885178565979
-6.0582594871521 -1.9186513423919678 0.5413374900817871
-7.368946552276611 5.034862995147705 1.2873508930206299
-7.1896281242370605 2.7158732414245605 2.1297848224639893
-4.65838623046875 2.7242133617401123 -0.25543397665023804
-8.658805847167969 -3.988649368286133 2.0215022563934326
-4.064741611480713 -2.545954465866089 -0.5933239459991455
-6.416773796081543 -2.983604907989502 0.745394766330719
-7.206888675689697 0.3911938965320587 1.1951093673706055
-8.809535026550293 1.953187346458435 2.1072964668273926
-4.824676036834717 -2.98746395111084 -0.16078829765319824
-6.886969089508057 -2.3564600944519043 1.0130177736282349
-6.672671318054199 0.4089367091655731 0.8910462856292725
-4.918202877044678 -0.7883851528167725 -0.10755392909049988
-3.981131076812744 -0.7092913389205933 -0.640911877155304
-10.075254440307617 -0.5266104936599731 5.4244232177734375
-2.9847123622894287 -1.090064525604248 -1.208048701286316
-5.342404842376709 2.4933598041534424 0.13389277458190918
-8.785106658935547 0.6625597476959229 3.454397201538086
-11.679903030395508 -1.4871129989624023 4.677666664123535
-5.775758266448975 -2.920330047607422 0.38054439425468445
-15.785477638244629 -6.834259986877441 6.07782506942749
-6.791899681091309 0.15780650079250336 0.9589076638221741
-4.447117328643799 2.371547222137451 -0.3756824731826782
-6.985249996185303 0.13119587302207947 1.0689581632614136
-6.731433868408203 -0.7930259704589844 0.9244918823242188
-11.316665649414062 -3.3420536518096924 3.534289598464966
-9.821844100952148 0.7486801743507385 2.6834776401519775
-7.0692572593688965 -1.0683680772781372 1.1167727708816528
-4.922405242919922 1.5259041786193848 -0.10516086965799332
-3.009012460708618 0.30946505069732666 -1.194217562675476
-15.351981163024902 -8.126053810119629 5.862519264221191
-6.85392427444458 0.315430223941803 0.9942110776901245
-6.16414737701416 0.4589405655860901 0.601606547832489
-7.215906143188477 -1.4329770803451538 1.2002418041229248
-3.823312282562256 -1.1068686246871948 -0.730738639831543
-5.541399002075195 0.824508547782898 0.24715402722358704
-9.855473518371582 0.2818293273448944 2.787358045578003
-15.66738224029541 -8.118770599365234 6.080832481384277
-9.10158634185791 0.870130181312561 2.273524284362793
-8.430696487426758 -0.8551695346832275 1.8916704654693604
-6.969451904296875 -3.0788357257843018 1.059964656829834
-10.063575744628906 -0.18321561813354492 2.8210642337799072
-6.625949859619141 0.5030924081802368 0.864453911781311
-11.450958251953125 6.4246649742126465 3.6107306480407715
-8.367586135864258 0.9072376489639282 1.855749487876892
-2.954805374145508 1.4409632682800293 -1.2250699996948242
-16.04348373413086 9.079553604125977 6.224682807922363
-7.330688953399658 1.6258454322814941 1.2655740976333618
-7.040755748748779 -0.9288089275360107 1.100550651550293
-8.187331199645996 -4.752140045166016 1.7531507015228271
-4.497600078582764 -1.8300366401672363 -0.3469505310058594
-8.382222175598145 0.23325836658477783 1.8640806674957275
-7.2962517738342285 2.835157871246338 2.000938892364502
-11.158795356750488 -1.55734384059906 3.4444351196289062
-7.3503098487854 4.103572368621826 1.2767424583435059
-2.798130512237549 0.8976263999938965 -1.314245343208313
-7.523163318634033 -0.7685532569885254 1.375124454498291
-6.961735725402832 -2.944047212600708 1.0555723905563354
-6.31540060043335 -0.5168900489807129 0.6876958608627319
-3.7253055572509766 -1.4015859365463257 -0.7865214347839355
-9.807448387145996 -0.17872345447540283 4.386992931365967
-6.025084495544434 1.0979852676391602 0.5224564075469971
-11.712357521057129 -1.4047002792358398 4.376461029052734
-6.030300140380859 2.095606803894043 0.5254252552986145
-7.575048923492432 2.032137155532837 1.4046574831008911
-8.283926963806152 2.2343990802764893 2.8528482913970947
-3.765838146209717 -0.0763850212097168 -0.7634508609771729
-8.401243209838867 0.7753671407699585 1.8749061822891235
-12.47160816192627 -7.220235824584961 4.191653251647949
-10.761906623840332 -5.789844989776611 3.218534469604492
-11.536062240600586 -4.812395095825195 3.6591641902923584
-13.439032554626465 -2.502910614013672 5.1322712898254395
-4.139006614685059 -0.7796047925949097 -0.5510531663894653
-4.675759792327881 0.9664305448532104 -0.24554583430290222
-7.931960582733154 -3.5707571506500244 1.6078007221221924
-3.3976573944091797 -1.7861562967300415 -0.9730117917060852
-2.8407094478607178 0.21499013900756836 -1.2900103330612183
-6.891823768615723 4.338333606719971 1.015784502029419
-8.041081428527832 -0.002947568893432617 1.66991126537323
-3.930150270462036 0.1673334836959839 -0.669928789138794
-8.416404724121094 0.862030565738678 1.8835363388061523
-9.549125671386719 -1.2685282230377197 2.5282506942749023
-7.791218280792236 -1.3920360803604126 1.527693748474121
-4.564477443695068 -1.5556530952453613 -0.3088856041431427
-5.132227897644043 0.2845999002456665 0.01426472794264555
-6.693298816680908 -2.097681999206543 0.9027854800224304
-5.9408416748046875 -2.210676908493042 0.47450560331344604
-4.752563953399658 -2.4433250427246094 -0.20183268189430237
-4.226474761962891 -1.3970366716384888 -0.5012689232826233
-3.9058852195739746 -1.3913615942001343 -0.6837396025657654
-7.351281642913818 -1.0592049360275269 1.2772938013076782
-11.966985702514648 -2.247776985168457 7.046126842498779
-6.238277912139893 1.1389741897583008 0.6438003778457642
-11.263422012329102 -0.7676666378974915 3.5039868354797363
-3.264291524887085 2.0408639907836914 -1.0489177703857422
-2.725480079650879 1.3642828464508057 -1.3555964231491089
-6.531987190246582 -0.1997983306646347 0.8109722137451172
-6.311524868011475 1.5951850414276123 0.6854912042617798
-7.151675224304199 3.062700033187866 1.1636847257614136
-11.983724594116211 -0.5544490814208984 5.785412788391113
-5.949952602386475 2.2978036403656006 0.4796929657459259
-5.036818027496338 -2.342823028564453 -0.04004218429327011
-2.7925865650177 -1.3976916074752808 -1.3174015283584595
-7.177607536315918 1.6893094778060913 2.6243605613708496
-10.916243553161621 0.2889016568660736 4.7529377937316895
-9.623985290527344 -0.37190330028533936 5.480608940124512
-8.396895408630371 3.6355741024017334 1.8724331855773926
-5.2113494873046875 2.7408952713012695 0.05929910019040108
-4.817215919494629 1.8717639446258545 -0.1650323122739792
-1.9494572877883911 0.3629646599292755 -1.2099276781082153
-3.6719515323638916 -0.15056204795837402 -0.8168889880180359
-5.23866081237793 2.9367949962615967 0.07484466582536697
-8.883420944213867 -0.7965747117996216 2.1493492126464844
-7.263184547424316 -3.953112840652466 1.227150321006775
-7.705021858215332 3.3476808071136475 2.14353609085083
-9.378944396972656 0.7761986255645752 3.6616342067718506
-5.371001243591309 2.053133964538574 0.15016856789588928
-5.619973659515381 -3.565718650817871 0.29187536239624023
-9.558205604553223 -2.0567803382873535 2.533419132232666
-8.186783790588379 -4.447281360626221 1.7528388500213623
-7.574628829956055 1.3006056547164917 3.9091899394989014
-9.8639497756958 4.889858245849609 2.707444667816162
-6.172860145568848 -1.3186146020889282 0.6065652370452881
-8.690820693969727 -1.0450881719589233 2.039726495742798
-3.8799824714660645 0.4819704294204712 -0.6984835267066956
-3.8512768745422363 0.3483927249908447 -0.7148211598396301
-8.487289428710938 -3.448575019836426 1.9238802194595337
-18.6611328125 -9.7558012008667 8.25568962097168
-6.451792240142822 1.2840425968170166 0.7653279304504395
-10.131105422973633 -0.649644672870636 5.227909088134766
-4.629908561706543 2.590749502182007 -0.2716415524482727
-6.870477676391602 -1.4036849737167358 1.0036321878433228
-10.825742721557617 -2.4774372577667236 3.2548694610595703
-6.959132194519043 -0.025628000497817993 1.054092288017273
-7.100762367248535 0.5846620798110962 1.1347049474716187
-12.331155776977539 -6.34252405166626 4.111710548400879
-9.341655731201172 -2.7224907875061035 2.410165309906006
-4.275213718414307 -2.4685940742492676 -0.473528116941452
-8.581037521362305 -1.218665599822998 1.9772406816482544
-9.495084762573242 -4.623680591583252 2.4974913597106934
-8.948990821838379 -1.0202414989471436 2.1866695880889893
-6.916883945465088 2.6096718311309814 1.030046820640564
-6.183074474334717 1.1340245008468628 0.6123798489570618
-4.516334533691406 2.623296022415161 -0.33628571033477783
-8.977465629577637 -2.853684902191162 2.202876567840576
-9.275415420532227 -5.524430274963379 2.372459650039673
-11.925309181213379 -2.718997001647949 3.8807156085968018
-7.607610702514648 1.3225411176681519 1.4231905937194824
-9.059595108032227 -3.99405837059021 2.249621629714966
-9.952972412109375 0.22377948462963104 2.7996737957000732
-5.1381659507751465 0.8682254552841187 0.017644498497247696
-2.850978374481201 0.6017823219299316 -1.284165382385254
-7.609893798828125 -3.390371322631836 1.4244887828826904
-11.742688179016113 7.079169273376465 3.7767763137817383
-7.958554267883301 4.848584175109863 1.622941017150879
-6.274465560913086 0.1804126501083374 0.6643974184989929
-9.528143882751465 -0.430670827627182 5.643152236938477
-3.1688320636749268 -1.9453641176223755 -1.1032534837722778
-9.657546997070312 6.138329029083252 2.589965343475342
-7.237926959991455 -1.2628302574157715 1.212774634361267
-7.513417720794678 3.098341941833496 1.9823980331420898
-9.878036499023438 -0.19518816471099854 2.715460777282715
-7.102376937866211 4.712558269500732 1.1356260776519775
-12.05411434173584 -3.9298808574676514 3.9540271759033203
-11.139781951904297 -6.369747161865234 3.4336111545562744
-8.45229721069336 1.0152076482772827 3.054316520690918
-6.804311752319336 -1.9839198589324951 0.9659715890884399
-6.303687572479248 -1.206597924232483 0.6810296177864075
-4.349396705627441 1.8937894105911255 -0.43130287528038025
-7.127408981323242 -3.662203550338745 1.1498701572418213
-8.849384307861328 4.298746109008789 2.129978656768799
-8.562594413757324 -0.9477405548095703 1.9667428731918335
-4.585776329040527 -1.618956446647644 -0.2967625856399536
-11.428617477416992 -1.0491372346878052 6.0783796310424805
-3.8516769409179688 -1.5380663871765137 -0.7145940065383911
-9.922080039978027 -1.5322952270507812 2.740527629852295
-10.544203758239746 1.8142883777618408 3.0946266651153564
-9.991223335266113 -1.365074872970581 2.7798824310302734
-4.522365093231201 0.7564593553543091 -0.3328542709350586
-4.833154201507568 2.1327834129333496 -0.15596038103103638
-8.350732803344727 1.467049241065979 1.8461568355560303
-6.42724084854126 -3.074453830718994 0.7513518333435059
-6.592158794403076 -2.5124242305755615 0.8452189564704895
-14.123767852783203 -2.5809879302978516 5.132023334503174
-3.2437875270843506 -0.5286914110183716 -1.060589075088501
-5.350953578948975 2.7323315143585205 0.1387585699558258
-12.84245777130127 7.443014144897461 4.402738094329834
-8.292878150939941 -2.288600444793701 1.8132262229919434
-3.8797924518585205 2.4726510047912598 -0.6985893249511719
-3.166645050048828 -1.6226173639297485 -1.1044976711273193
-4.225559234619141 1.3334486484527588 -0.5017887949943542
-5.202132225036621 -0.6284220218658447 0.05405159667134285
-6.969754695892334 1.0975412130355835 1.0601387023925781
-9.022260665893555 5.954055309295654 2.2283756732940674
-6.1212992668151855 -2.230755090713501 0.5772181749343872
-8.192380905151367 4.16558313369751 1.7560292482376099
-7.700608730316162 3.6067378520965576 3.0339484214782715
-5.00919771194458 1.4076436758041382 -0.05576100945472717
-6.839787483215332 3.4954276084899902 0.9861661195755005
-11.36067008972168 -6.830768585205078 3.5715601444244385
-9.011422157287598 -0.43757903575897217 2.2222046852111816
-6.96338415145874 2.124934434890747 1.056514024734497
-3.725980520248413 -1.6160831451416016 -0.786138653755188
-9.400649070739746 4.956608772277832 2.4437451362609863
-7.356415748596191 4.668521881103516 1.2802186012268066
-5.966119289398193 -1.976224422454834 0.48889315128326416
-5.066595077514648 -0.1678113341331482 -0.023092573508620262
-14.987071990966797 -8.817845344543457 5.841470718383789
-7.15582799911499 3.693873643875122 1.1660480499267578
-12.029776573181152 -4.672807216644287 3.940174102783203
-6.406535625457764 2.4534671306610107 0.7395696043968201
-5.361639976501465 -1.0232728719711304 0.14483904838562012
-5.593209266662598 0.5075448155403137 0.2766432762145996
-11.038939476013184 -4.479082107543945 3.3762147426605225
-10.571396827697754 5.978328227996826 3.1101064682006836
-5.472471714019775 -1.8443490266799927 0.20792162418365479
-3.2327373027801514 -2.0121238231658936 -1.0668795108795166
-9.442352294921875 0.36917510628700256 3.2178139686584473
-6.091808319091797 0.1809065043926239 0.5604340434074402
-7.404936790466309 -3.3618335723876953 1.3078323602676392
-5.613376140594482 -0.3677240312099457 0.2881213128566742
-6.901766777038574 2.9039289951324463 1.0214428901672363
-5.169267654418945 -3.44512677192688 0.03534455969929695
-8.861627578735352 -4.329957962036133 2.1369435787200928
-7.933193206787109 -5.2957844734191895 1.6085011959075928
-4.269992351531982 1.3707802295684814 -0.4764980971813202
-7.482183456420898 0.1859966218471527 1.3518002033233643
-3.0922505855560303 1.071028709411621 -1.1468394994735718
-5.265955924987793 -2.364295482635498 0.09037798643112183
-11.65808391571045 -1.4473395347595215 4.598152160644531
-8.977572441101074 3.5123097896575928 2.2029402256011963
-5.584502696990967 -0.6942999362945557 0.27168723940849304
-5.201447486877441 -0.9732370376586914 0.053661707788705826
-7.662826061248779 0.2683940529823303 1.4546178579330444
-8.942024230957031 -5.903346061706543 2.1827025413513184
-12.750730514526367 7.850438117980957 4.350529670715332
-8.280475616455078 -3.3910086154937744 1.8061668872833252
-5.453659534454346 -3.174870491027832 0.1972137689590454
-5.407888889312744 1.3877043724060059 0.1711641550064087
-6.378532409667969 -0.6432973146438599 0.723629355430603
-3.5199966430664062 -1.1560227870941162 -0.9033785462379456
-8.288366317749023 3.396434783935547 1.8106609582901
-3.5749642848968506 1.2624510526657104 -0.8720913529396057
-15.708358764648438 -8.578350067138672 6.342962265014648
-3.0115644931793213 -0.9655747413635254 -1.192765474319458
-11.967860221862793 7.313531875610352 3.9049386978149414
-6.105269908905029 -2.1413865089416504 0.5680945515632629
-9.316543579101562 -0.21451351046562195 5.200113773345947
-6.061837196350098 1.8689188957214355 0.5433753132820129
-9.113219261169434 -5.232928276062012 2.280142307281494
-3.3085529804229736 -1.082105040550232 -1.0237267017364502
-10.299056053161621 -1.9050981998443604 2.9550936222076416
-3.793314218521118 0.5830328464508057 -0.7478119134902954
-14.25629997253418 3.841841459274292 7.133177280426025
-9.262948989868164 0.5319897532463074 3.545231580734253
-11.895464897155762 -5.19527006149292 3.8637280464172363
-8.733696937561035 4.98747444152832 2.0641326904296875
-7.116245269775391 3.531449794769287 1.1435197591781616
-3.122596025466919 0.5597620010375977 -1.1295679807662964
-5.641796588897705 -0.4631463587284088 0.3042975068092346
-6.878371715545654 2.4667420387268066 1.0081263780593872
-5.2241106033325195 0.3860177993774414 0.06656209379434586
-21.103981018066406 -7.891294479370117 9.104984283447266
-9.103290557861328 0.48871397972106934 2.2744948863983154
-7.04096794128418 0.8206459283828735 1.1006712913513184
-12.612242698669434 -1.869387149810791 4.311429977416992
-5.861362457275391 1.3839468955993652 0.4292697012424469
-6.136429786682129 -0.7241227030754089 0.5858302116394043
-8.342353820800781 -0.7932859659194946 1.8413870334625244
-8.741844177246094 -3.4954264163970947 2.0687661170959473
-3.697422742843628 -1.1718976497650146 -0.8023918867111206
-9.545002937316895 2.0490589141845703 3.9724628925323486
-4.634135723114014 -2.4587247371673584 -0.2692388892173767
-2.979576587677002 -1.2724961042404175 -1.2109718322753906
-8.219827651977539 -5.108035564422607 1.7716463804244995
-3.956439733505249 -0.5299407243728638 -0.6549649834632874
-4.547577857971191 3.0765106678009033 -0.31850290298461914
-5.348003387451172 -2.4594671726226807 0.13707706332206726
-5.946676731109619 -1.0287729501724243 0.4778277277946472
-4.654256820678711 -1.4005063772201538 -0.257785826921463
-6.058178901672363 2.0027294158935547 0.541293203830719
-4.831425189971924 0.5411622524261475 -0.1569451242685318
-8.373743057250977 2.2047781944274902 2.782813549041748
-6.914726257324219 3.0110580921173096 1.0288194417953491
-12.071369171142578 -2.6556074619293213 3.963848829269409
-6.392807483673096 0.33671075105667114 0.7317546010017395
-9.214924812316895 2.5255846977233887 2.3380343914031982
-6.575011253356934 -1.383294701576233 0.8354600667953491
-6.353451251983643 -0.950890064239502 0.7093532681465149
-6.970028400421143 3.0761826038360596 1.0602961778640747
-11.564286231994629 -1.4578325748443604 4.814653396606445
-7.6803669929504395 2.2710914611816406 1.4646024703979492
-6.246760368347168 0.013845756649971008 0.6486284136772156
-7.0174407958984375 -1.1714205741882324 1.0872793197631836
-16.17207145690918 -8.883319854736328 7.159366607666016
-11.855559349060059 -2.112011194229126 6.7821173667907715
-3.298227548599243 -1.1889305114746094 -1.0296037197113037
-5.333251476287842 2.2677860260009766 0.12868328392505646
-10.534798622131348 -5.931209087371826 3.0892696380615234
-4.528436183929443 0.41594505310058594 -0.32939937710762024
-4.673626899719238 0.42344141006469727 -0.246759831905365
-12.388938903808594 4.863654613494873 5.476512908935547
-4.948764801025391 2.024794578552246 -0.0901574045419693
-3.947866201400757 -2.5807554721832275 -0.6598466634750366
-7.678619384765625 -3.2977254390716553 1.4636046886444092
-6.4455180168151855 -0.12038453668355942 0.7617558240890503
-9.049036026000977 -2.6197421550750732 2.2436118125915527
-8.288535118103027 0.36405932903289795 1.8107554912567139
-19.796480178833008 -8.601593971252441 8.360788345336914
-7.523919105529785 -2.8928334712982178 1.375554084777832
-13.519673347473145 -2.3274760246276855 5.232567310333252
-9.100048065185547 5.775290489196777 2.272651195526123
-7.943771839141846 0.4054715633392334 1.6145246028900146
-9.947651863098145 -0.18353617191314697 2.7550835609436035
-6.905475616455078 -2.8795642852783203 1.0235507488250732
-7.23665714263916 -3.9193780422210693 1.2120509147644043
-9.928924560546875 -1.9895825386047363 2.7444241046905518
-6.138312816619873 0.4190061688423157 0.5869023203849792
-8.053045272827148 -3.254621982574463 1.6767185926437378
-4.519042015075684 2.3970530033111572 -0.33474478125572205
-9.464245796203613 1.6145219802856445 2.4799413681030273
-7.108884334564209 3.962606191635132 1.1393297910690308
-4.170934200286865 0.8335105180740356 -0.5328798890113831
-18.418657302856445 -5.155059337615967 7.576565742492676
-7.751776218414307 3.737511157989502 2.598393440246582
-4.814327239990234 -2.3365702629089355 -0.16667744517326355
-10.26976490020752 6.518146514892578 2.938425302505493
-9.474286079406738 -2.880134105682373 2.485654830932617
-6.728051662445068 4.654382705688477 0.9225696325302124
-7.848514556884766 1.5197688341140747 1.5603073835372925
-5.630450248718262 3.300062894821167 0.2978416383266449
-12.998455047607422 -3.484140396118164 4.491523742675781
-4.5446319580078125 -0.6859316825866699 -0.3201812207698822
-6.117369651794434 -1.1477086544036865 0.5749819278717041
-5.7720537185668945 1.6075695753097534 0.378437876701355
-11.729219436645508 -0.9577231407165527 5.676332950592041
-4.635382175445557 2.461148977279663 -0.2685267925262451
-8.097724914550781 5.011610507965088 1.7021535634994507
-5.522860050201416 -1.1685816049575806 0.23660175502300262
-5.086785793304443 3.056328058242798 -0.011599277146160603
-3.9051926136016846 1.6523487567901611 -0.6841337084770203
-4.828458309173584 -1.4624885320663452 -0.15863507986068726
-9.341108322143555 2.0609548091888428 2.409855604171753
-5.9858880043029785 -1.0920299291610718 0.5001455545425415
-3.479346752166748 1.3501780033111572 -0.9265140891075134
-5.7487640380859375 2.9091999530792236 0.36518213152885437
-8.534404754638672 -0.3221909999847412 1.9506984949111938
-8.084027290344238 -0.9548047780990601 1.6943539381027222
-6.355352401733398 -1.7510327100753784 0.7104350328445435
-8.817633628845215 -4.254258632659912 2.111902952194214
-7.102831840515137 -0.2556082606315613 1.1358823776245117
-8.457890510559082 -0.4944920539855957 1.9071487188339233
-5.546630859375 -0.8689760565757751 0.25013139843940735
-6.644469261169434 -1.5746049880981445 0.8749931454658508
-3.89811635017395 2.1044509410858154 -0.6881603598594666
-3.0730085372924805 1.0108883380889893 -1.1577906608581543
-3.7636632919311523 1.5807068347930908 -0.7646877765655518
-17.18134117126465 -5.025153160095215 6.872317790985107
-6.364712238311768 0.7557916641235352 0.71576327085495
-8.488631248474121 3.7838215827941895 1.9246474504470825
-3.653451681137085 1.4429641962051392 -0.82741779088974
-9.790008544921875 5.175668239593506 2.6653592586517334
-6.225313186645508 -1.4196133613586426 0.6364204287528992
-11.791949272155762 0.2012992650270462 7.164742469787598
-7.261589527130127 -3.282090187072754 1.226241946220398
-11.901532173156738 -2.169957399368286 6.89539098739624
-2.981379270553589 -0.4816504716873169 -1.2099456787109375
-9.609720230102539 -0.009727860800921917 3.997586250305176
-7.584852695465088 -4.9768242835998535 1.4102352857589722
-8.26968765258789 1.1148723363876343 2.9271092414855957
-13.806990623474121 -1.4623816013336182 5.920977592468262
-5.498833179473877 3.647193193435669 0.22292812168598175
-8.081947326660156 0.4314778447151184 1.6931711435317993
-5.015738010406494 -1.1650766134262085 -0.052038539201021194
-9.2066068649292 -4.202291488647461 2.333296775817871
-10.168295860290527 -2.9593591690063477 2.880667209625244
-9.697928428649902 -4.662088871002197 2.6129441261291504
-3.416177749633789 2.0619897842407227 -0.9624677896499634
-7.541083335876465 -1.5718435049057007 1.3853241205215454
-9.011932373046875 -0.2629021406173706 2.2224950790405273
-8.67474365234375 0.07888329029083252 2.03057599067688
-9.601808547973633 -2.6008362770080566 2.5582358837127686
-6.994922161102295 3.2395174503326416 1.074464201927185
-3.9754061698913574 -0.021370649337768555 -0.6441699862480164
-9.185234069824219 -0.10564982891082764 2.321134328842163
-6.442928791046143 -1.1279478073120117 0.7602815628051758
-6.895918846130371 -1.7961242198944092 1.018112301826477
-3.3600497245788574 -0.719535231590271 -0.9944156408309937
-8.931926727294922 -5.356663703918457 2.1769556999206543
-5.278881549835205 2.828139543533325 0.09773748368024826
-6.6752424240112305 -0.6954716444015503 0.892508864402771
-11.280488014221191 -0.9290108680725098 6.504322528839111
-13.984879493713379 3.5654802322387695 6.569241523742676
-4.7770280838012695 -0.4428994059562683 -0.18790729343891144
-8.308409690856934 -5.072072505950928 1.822065830230713
-5.284170150756836 -3.4701271057128906 0.1007448211312294
-2.907276153564453 -0.4605715274810791 -1.2521240711212158
-3.740659236907959 -1.4960811138153076 -0.7777825593948364
-7.061612129211426 3.4640321731567383 1.112423062324524
-4.719406604766846 0.6694015264511108 -0.22070392966270447
-5.954982280731201 -1.7873739004135132 0.4825547933578491
-9.47813892364502 1.712388277053833 2.4878487586975098
-8.226652145385742 -2.3361282348632812 1.7755317687988281
-5.644705295562744 3.92521595954895 0.30595558881759644
-6.075577259063721 2.0913963317871094 0.5511962175369263
-4.576144695281982 3.159700393676758 -0.30224308371543884
-8.551947593688965 1.8413419723510742 1.9606845378875732
-6.551951885223389 1.0107834339141846 0.8223362565040588
-12.108358383178711 0.3913087844848633 6.870913982391357
-6.191521644592285 -3.5074172019958496 0.6171858906745911
-10.614581108093262 -2.523268699645996 3.134681463241577
-5.876698970794678 -1.6791235208511353 0.4379974603652954
-8.843766212463379 0.24332010746002197 2.126779794692993
-12.491250038146973 -2.233128786087036 5.493778705596924
-10.094808578491211 -0.3290581703186035 2.838840961456299
-7.0027055740356445 1.1733587980270386 1.078894019126892
-12.5675630569458 4.944667816162109 5.445806503295898
-9.159754753112793 5.834733009338379 2.3066349029541016
-11.453682899475098 -1.4000463485717773 5.550339221954346
-3.979526996612549 1.4453619718551636 -0.6418242454528809
-5.901553153991699 1.1017802953720093 0.4521450996398926
-3.5348517894744873 -0.5931810140609741 -0.8949225544929504
-6.214239597320557 4.287395000457764 0.6301203370094299
-5.482638835906982 -1.1712734699249268 0.2137092500925064
-11.024557113647461 6.318935394287109 3.3680341243743896
-11.436712265014648 -4.026829719543457 3.6026175022125244
-6.231909275054932 -0.6575300097465515 0.6401752233505249
-8.443094253540039 3.709599018096924 1.8987284898757935
-7.053762435913086 -1.4193413257598877 1.107953429222107
-4.073275089263916 2.2854411602020264 -0.5884648561477661
-8.167335510253906 3.2148940563201904 1.7417731285095215
-8.503927230834961 0.22580277919769287 1.9333510398864746
-8.124408721923828 -0.5068742036819458 1.7173384428024292
-2.7156522274017334 -1.148309588432312 -1.3611907958984375
-7.4764485359191895 1.8542497158050537 1.3485374450683594
-4.650947093963623 0.3421154022216797 -0.2596690058708191
-7.061885833740234 -3.637265920639038 1.112575650215149
-10.031129837036133 -5.14423942565918 2.80259370803833
-5.2205891609191895 0.6527566313743591 0.06455709040164948
-5.333998203277588 -0.2506122589111328 0.12910601496696472
-12.220315933227539 -6.852113246917725 4.048623561859131
-8.035115242004395 2.1514997482299805 1.6665160655975342
-7.000739097595215 1.008447527885437 1.0777744054794312
-8.629129409790039 1.060135006904602 2.0046138763427734
-7.51854133605957 0.6206463575363159 1.3724943399429321
-8.678875923156738 -5.5205397605896 2.032925605773926
-9.848136901855469 -6.047247886657715 2.764256477355957
-4.119363784790039 2.3655834197998047 -0.5622316002845764
-8.994246482849121 -4.634922981262207 2.2124266624450684
-7.981559753417969 3.1649577617645264 1.6360342502593994
-6.519800662994385 2.574002504348755 3.71933913230896
-6.774830341339111 1.590767502784729 0.9491932392120361
-4.747463703155518 -2.8271377086639404 -0.20473578572273254
-7.375153541564941 3.3777003288269043 1.2908824682235718
-9.444060325622559 5.032918453216553 2.468454122543335
-6.091637134552002 3.7712368965148926 0.560338020324707
-6.625863552093506 1.1635487079620361 0.8644049167633057
-6.9804301261901855 1.480552315711975 2.682851791381836
-10.429526329040527 2.5690724849700928 3.029356002807617
-11.18935775756836 -1.5442923307418823 5.815778732299805
-9.801076889038086 -1.988530158996582 2.6716558933258057
-4.989725589752197 1.0847432613372803 -0.066844642162323
-4.283315181732178 1.5094010829925537 -0.4689151346683502
-15.197233200073242 -4.936708450317383 5.743011951446533
-10.074163436889648 0.04817710071802139 3.0588796138763428
-6.0070648193359375 3.5609209537506104 0.5122013688087463
-7.050344944000244 2.5325827598571777 3.654292583465576
-4.6995344161987305 3.134199380874634 -0.23201292753219604
-8.204038619995117 0.5230545997619629 1.7626621723175049
-3.9882094860076904 1.1937130689620972 -0.6368825435638428
-4.047414302825928 0.8548421859741211 -0.6031839847564697
-9.727237701416016 3.1281299591064453 3.009213924407959
-6.806824207305908 1.1393154859542847 2.4910948276519775
-8.395759582519531 -3.338871717453003 1.87178373336792
-6.571730613708496 1.4986099004745483 0.8335939645767212
-4.132081031799316 -1.2225673198699951 -0.5549952983856201
-9.302814483642578 -0.19762790203094482 2.3880581855773926
-10.32036304473877 2.5240397453308105 2.967221975326538
-6.276710510253906 1.7833495140075684 0.6656761765480042
-7.569550037384033 3.3798418045043945 1.4015285968780518
-8.489690780639648 3.9774043560028076 3.4724621772766113
-12.664997100830078 -7.045193672180176 4.3017258644104
-7.191277980804443 -1.2395650148391724 1.1862236261367798
-7.722591876983643 2.103248119354248 1.488635540008545
-7.131180763244629 -3.7846953868865967 1.152016520500183
-2.7412195205688477 -0.12836205959320068 -1.3466386795043945
-7.072091579437256 1.536146879196167 2.5984930992126465
-8.4129056930542 3.3992042541503906 1.8815451860427856
-6.713517189025879 1.6017383337020874 0.9142952561378479
-7.2258620262146 -1.5132474899291992 1.2059073448181152
-8.587933540344238 0.2278825044631958 1.981165885925293
-4.442249298095703 -1.294377326965332 -0.37845540046691895
-6.765285015106201 1.0826541185379028 0.9437602758407593
-6.9438796043396 1.1123528480529785 2.2525808811187744
-3.1732399463653564 0.4217655658721924 -1.1007425785064697
-6.9361114501953125 0.06706759333610535 1.040989637374878
-12.207354545593262 -6.3039231300354 4.04124641418457
-4.78217887878418 -2.1022164821624756 -0.1849760264158249
-8.133097648620605 0.9440527558326721 1.7222853899002075
-3.3903303146362305 0.46471869945526123 -0.9771803617477417
-7.216757297515869 1.7814217805862427 2.6826281547546387
-10.202704429626465 -5.402281284332275 2.900250196456909
-4.9688286781311035 -1.057154893875122 -0.07873909920454025
-14.912105560302734 7.3237690925598145 5.580729961395264
-6.895050525665283 -0.273076593875885 1.0176186561584473
-6.580954074859619 3.58939266204834 0.8388451337814331
-8.53447437286377 3.858663558959961 1.9507392644882202
-6.585859775543213 4.0276031494140625 0.8416364192962646
